ply
format ascii 1.0
element vertex 834
property float x
property float y
property float z
end_header
0.3917664885520935 0.8453337550163269 0.5358377695083618
0.3475152850151062 0.7933319211006165 0.5458644032478333
0.44605833292007446 0.8981415629386902 0.5057246088981628
0.4368916153907776 0.7556370496749878 0.5535034537315369
0.3081777095794678 0.8596339225769043 0.58113694190979
0.29615315794944763 0.8583271503448486 0.5818455815315247
0.4191451966762543 0.79241544008255 0.44723421335220337
0.41026178002357483 0.7220631241798401 0.5956442952156067
0.33371707797050476 0.8397148847579956 0.5109360218048096
0.2657816708087921 0.7454779148101807 0.4996519982814789
0.2609653174877167 0.7985302209854126 0.45661091804504395
0.31902316212654114 0.7224153280258179 0.5315042734146118
0.3146533668041229 0.8529748320579529 0.4180905818939209
0.27958688139915466 0.7948336005210876 0.4054400324821472
0.28640830516815186 0.8885642290115356 0.5748511552810669
0.33525803685188293 0.813389241695404 0.4537084996700287
0.425072580575943 0.8040895462036133 0.4936216175556183
0.408042848110199 0.8140313029289246 0.4409821033477783
0.4344244599342346 0.795934796333313 0.42264556884765625
0.3500107526779175 0.8840343356132507 0.43840405344963074
0.41159385442733765 0.762577474117279 0.49387964606285095
0.2564297318458557 0.7967520952224731 0.4488975405693054
0.2666201889514923 0.8564369082450867 0.4589225947856903
0.40048694610595703 0.8774209022521973 0.402173787355423
0.2685503363609314 0.73244309425354 0.5576844811439514
0.3592417240142822 0.7808930277824402 0.44218185544013977
0.30939996242523193 0.7774547934532166 0.5346992015838623
0.33157292008399963 0.7771387100219727 0.4841662645339966
0.36795151233673096 0.8363500833511353 0.5958541035652161
0.310504287481308 0.7053372263908386 0.5542884469032288
0.39099711179733276 0.7802695035934448 0.5097153186798096
0.3764798045158386 0.868968665599823 0.510595440864563
0.3476836085319519 0.8945636749267578 0.5293222665786743
0.31851962208747864 0.7834993004798889 0.41102132201194763
0.4325895607471466 0.7192351222038269 0.44627925753593445
0.36983996629714966 0.8952481746673584 0.5025041699409485
0.3120990991592407 0.8459165096282959 0.41024285554885864
0.35156840085983276 0.7301503419876099 0.5811334848403931
0.25715261697769165 0.8014731407165527 0.4650724530220032
0.3446873724460602 0.7591575980186462 0.5143294930458069
0.36750468611717224 0.7908399105072021 0.4427777826786041
0.27445903420448303 0.8411630392074585 0.5462273955345154
0.3551267981529236 0.8828083276748657 0.5230440497398376
0.34438660740852356 0.7991211414337158 0.4682048261165619
0.2898176610469818 0.859210193157196 0.4056910276412964
0.29600340127944946 0.8381041884422302 0.59033203125
0.3895684480667114 0.8195236921310425 0.4706169366836548
0.3821403682231903 0.7398720383644104 0.5206964612007141
0.42365825176239014 0.7809138298034668 0.5606563687324524
0.3951839208602905 0.72768634557724 0.5188022255897522
0.3081199526786804 0.7710717916488647 0.5380461812019348
0.3752649426460266 0.8578717708587646 0.5247578024864197
0.39419081807136536 0.8344147801399231 0.5009492635726929
0.38670268654823303 0.8152998089790344 0.5088951587677002
0.32915621995925903 0.7218109965324402 0.499777615070343
0.4267754554748535 0.7050575613975525 0.5068443417549133
0.31195777654647827 0.7993505001068115 0.5036576986312866
0.44337764382362366 0.836382269859314 0.5613171458244324
0.3443928360939026 0.8234702348709106 0.5744828581809998
0.43925273418426514 0.7225301265716553 0.42676177620887756
0.2757487893104553 0.8544980883598328 0.4817187190055847
0.28712233901023865 0.8052799701690674 0.47303956747055054
0.3759693503379822 0.8351723551750183 0.49874475598335266
0.4120921194553375 0.8006148934364319 0.4735719561576843
0.25427553057670593 0.7174735069274902 0.4065748453140259
0.3828248679637909 0.8220667839050293 0.4259811043739319
0.32367587089538574 0.8643415570259094 0.4929731488227844
0.40377968549728394 0.8203302025794983 0.46009331941604614
0.2516229450702667 0.829267144203186 0.5668622255325317
0.276154100894928 0.8462845087051392 0.5927366018295288
0.3563153147697449 0.7925980687141418 0.5912245512008667
0.3731085956096649 0.8470975756645203 0.5495338439941406
0.3318721652030945 0.7643564343452454 0.4793784022331238
0.42780742049217224 0.8650929927825928 0.5592091083526611
0.364700049161911 0.8925278782844543 0.4266343116760254
0.3399515151977539 0.7784343957901001 0.42785000801086426
0.32356739044189453 0.7412412762641907 0.4799577593803406
0.26166558265686035 0.7015800476074219 0.528786838054657
0.2549290657043457 0.7857616543769836 0.4195254445075989
0.34539201855659485 0.7021846175193787 0.4187564551830292
0.43802088499069214 0.7687941193580627 0.5503059029579163
0.40973585844039917 0.7802486419677734 0.5035598278045654
0.3295803964138031 0.717101514339447 0.4934229254722595
0.3501735329627991 0.699954092502594 0.4994364380836487
0.386424720287323 0.8794811964035034 0.4299547076225281
0.32793599367141724 0.7358778119087219 0.5995192527770996
0.32661542296409607 0.7116361260414124 0.5013188123703003
0.3346843421459198 0.8017047643661499 0.5944309830665588
0.4440029561519623 0.8471099138259888 0.5030533075332642
0.3516445755958557 0.8836836814880371 0.5944915413856506
0.29982858896255493 0.7815170884132385 0.5255351662635803
0.4019179940223694 0.8505604863166809 0.5355244278907776
0.4469340443611145 0.821622371673584 0.4292789101600647
0.3737401068210602 0.8924575448036194 0.5620355010032654
0.2954704761505127 0.8463982343673706 0.45276835560798645
0.3903263211250305 0.716244101524353 0.5623031854629517
0.4165787696838379 0.8156858682632446 0.4207811653614044
0.28602465987205505 0.7477818727493286 0.460199236869812
0.3231459856033325 0.8162315487861633 0.43065544962882996
0.3631702661514282 0.752071738243103 0.5500942468643188
0.2816929519176483 0.8857824206352234 0.5142669677734375
0.40242087841033936 0.7833214402198792 0.43778133392333984
0.3917664885520935 0.8453337550163269 0.5358377695083618
0.44605833292007446 0.8981415629386902 0.5057246088981628
0.41286754608154297 0.8088420629501343 0.4704006016254425
0.3030378222465515 0.7614976167678833 0.4124346375465393
0.39037391543388367 0.8821393251419067 0.45375409722328186
0.2748926281929016 0.8493701219558716 0.4586188793182373
0.3492889106273651 0.8034763932228088 0.5168685913085938
0.37443509697914124 0.7665367722511292 0.43783923983573914
0.3492889106273651 0.8034763932228088 0.5168685913085938
0.37443509697914124 0.7665367722511292 0.43783923983573914
0.2701845169067383 0.8366091847419739 0.4961671531200409
0.28941771388053894 0.819662868976593 0.4096958637237549
0.39347586035728455 0.7282577753067017 0.43012580275535583
0.3279045820236206 0.8777099847793579 0.4779243469238281
0.29380592703819275 0.8774002194404602 0.4053744375705719
0.36580926179885864 0.746127724647522 0.40673789381980896
0.2567750811576843 0.7981873750686646 0.5692508220672607
0.2872963547706604 0.7537261247634888 0.5177262425422668
0.33602920174598694 0.8320297598838806 0.502231240272522
0.3626517355442047 0.7098724842071533 0.5762178897857666
0.39531409740448 0.8294048309326172 0.5902237892150879
0.32817724347114563 0.8689928650856018 0.4275077283382416
0.2909744679927826 0.8673309087753296 0.5526599287986755
0.31038978695869446 0.8812311291694641 0.5117632150650024
0.33777543902397156 0.7722779512405396 0.5250759124755859
0.3214632272720337 0.8931794166564941 0.5612808465957642
0.3819361925125122 0.7445122003555298 0.5321890711784363
0.4265884757041931 0.7580362558364868 0.4765651226043701
0.31773555278778076 0.8857229351997375 0.4349634647369385
0.28408631682395935 0.8162572979927063 0.4998551607131958
0.3951839208602905 0.72768634557724 0.5188022255897522
0.3081199526786804 0.7710717916488647 0.5380461812019348
0.3639257252216339 0.8317809700965881 0.5408548712730408
0.3603508770465851 0.8025978803634644 0.5186710357666016
0.32915621995925903 0.7218109965324402 0.499777615070343
0.4267754554748535 0.7050575613975525 0.5068443417549133
0.31195777654647827 0.7993505001068115 0.5036576986312866
0.26956653594970703 0.7270643711090088 0.40602409839630127
0.2986808121204376 0.8785338997840881 0.5201526880264282
0.3911229074001312 0.8913227915763855 0.4785971939563751
0.37610235810279846 0.7076558470726013 0.5133198499679565
0.2757487893104553 0.8544980883598328 0.4817187190055847
0.372092604637146 0.7160628437995911 0.508639395236969
0.28712233901023865 0.8052799701690674 0.47303956747055054
0.3759693503379822 0.8351723551750183 0.49874475598335266
0.25427553057670593 0.7174735069274902 0.4065748453140259
0.2921895980834961 0.897857666015625 0.5914572477340698
0.3828248679637909 0.8220667839050293 0.4259811043739319
0.32367587089538574 0.8643415570259094 0.4929731488227844
0.3230746388435364 0.7880910038948059 0.5033220052719116
0.4439502954483032 0.8836804628372192 0.5591044425964355
0.3086233139038086 0.8456795811653137 0.4598196744918823
0.3973185420036316 0.8436133861541748 0.41006776690483093
0.4101606607437134 0.8943542838096619 0.5220717787742615
0.35568559169769287 0.7529665231704712 0.5600904226303101
0.31547102332115173 0.8828272223472595 0.41017988324165344
0.36413559317588806 0.8341237306594849 0.4286930561065674
0.26680707931518555 0.742070734500885 0.42627790570259094
0.4162565767765045 0.8687558174133301 0.587013840675354
0.421129047870636 0.7924283146858215 0.5844990015029907
0.2545066773891449 0.8003883361816406 0.4500267505645752
0.41427701711654663 0.8880492448806763 0.5285384058952332
0.3731085956096649 0.8470975756645203 0.5495338439941406
0.3318721652030945 0.7643564343452454 0.4793784022331238
0.42780742049217224 0.8650929927825928 0.5592091083526611
0.34635990858078003 0.7290745377540588 0.42680153250694275
0.3782771825790405 0.7779937386512756 0.5474575757980347
0.3399515151977539 0.7784343957901001 0.42785000801086426
0.3966635465621948 0.8626770377159119 0.5548518896102905
0.40837883949279785 0.8269430994987488 0.4753269851207733
0.4140153229236603 0.8292274475097656 0.5619193315505981
0.3856619596481323 0.8922210335731506 0.5620426535606384
0.4095584452152252 0.7216668128967285 0.5902775526046753
0.2532280683517456 0.7296207547187805 0.43462935090065
0.38775116205215454 0.8447617888450623 0.4195667505264282
0.3866095244884491 0.8082192540168762 0.5166606307029724
0.41334664821624756 0.8217577934265137 0.47575968503952026
0.3370807468891144 0.7148376107215881 0.5244165658950806
0.2940674126148224 0.8754103183746338 0.551415205001831
0.31908026337623596 0.7728855013847351 0.5542528033256531
0.40233027935028076 0.8509963750839233 0.535910964012146
0.3432362675666809 0.7803153395652771 0.5637510418891907
0.40470531582832336 0.7082046866416931 0.5630741715431213
0.4114745259284973 0.727615237236023 0.48627448081970215
0.3258741497993469 0.8611801266670227 0.5939767360687256
0.4292195439338684 0.7914918065071106 0.4208046495914459
0.38853180408477783 0.7746736407279968 0.44218137860298157
0.27916058897972107 0.7020958662033081 0.5168181657791138
0.31196728348731995 0.8906704783439636 0.45657381415367126
0.43321236968040466 0.7342098355293274 0.47837886214256287
0.3473849296569824 0.799041748046875 0.4484328329563141
0.40011823177337646 0.8017032742500305 0.49839723110198975
0.3898625373840332 0.7530668377876282 0.49668335914611816
0.32247599959373474 0.703177809715271 0.42530983686447144
0.44096899032592773 0.8698986172676086 0.4571899473667145
0.37271130084991455 0.8853468894958496 0.4387505352497101
0.4309188723564148 0.8816990256309509 0.4477834105491638
0.4013745188713074 0.8443995714187622 0.5079013705253601
0.4455360174179077 0.7295466065406799 0.4980924427509308
0.2741720974445343 0.8333125114440918 0.4580952227115631
0.3005589544773102 0.8696188926696777 0.4155917465686798
0.39698225259780884 0.752435028553009 0.5447560548782349
0.2516229450702667 0.829267144203186 0.5668622255325317
0.276154100894928 0.8462845087051392 0.5927366018295288
0.3563153147697449 0.7925980687141418 0.5912245512008667
0.3731085956096649 0.8470975756645203 0.5495338439941406
0.3318721652030945 0.7643564343452454 0.4793784022331238
0.42780742049217224 0.8650929927825928 0.5592091083526611
0.34635990858078003 0.7290745377540588 0.42680153250694275
0.41835272312164307 0.7148747444152832 0.5624594688415527
0.37404346466064453 0.826950192451477 0.4266166388988495
0.3447208106517792 0.8637288212776184 0.4566773772239685
0.29575055837631226 0.8387167453765869 0.57610023021698
0.36582276225090027 0.8629224896430969 0.5717114210128784
0.3486233651638031 0.8830708861351013 0.5305216312408447
0.2867695093154907 0.8408203721046448 0.5384742021560669
0.3723931312561035 0.7404704093933105 0.5562090873718262
0.36191678047180176 0.7712607383728027 0.5705947279930115
0.3572547435760498 0.6994975805282593 0.5261492133140564
0.36940106749534607 0.767388641834259 0.45537078380584717
0.278098464012146 0.7120327949523926 0.4237382411956787
0.38058972358703613 0.7427179217338562 0.4742259383201599
0.31802845001220703 0.8588001132011414 0.45310506224632263
0.2523837983608246 0.8550029993057251 0.4761148989200592
0.39998650550842285 0.8638861775398254 0.48003116250038147
0.4423932433128357 0.8545109033584595 0.5586991906166077
0.36582276225090027 0.8629224896430969 0.5717114210128784
0.3486233651638031 0.8830708861351013 0.5305216312408447
0.2867695093154907 0.8408203721046448 0.5384742021560669
0.3723931312561035 0.7404704093933105 0.5562090873718262
0.36191678047180176 0.7712607383728027 0.5705947279930115
0.3572547435760498 0.6994975805282593 0.5261492133140564
0.36940106749534607 0.767388641834259 0.45537078380584717
0.278098464012146 0.7120327949523926 0.4237382411956787
0.38058972358703613 0.7427179217338562 0.4742259383201599
0.31802845001220703 0.8588001132011414 0.45310506224632263
0.2612503468990326 0.8527213335037231 0.4843940734863281
0.42873820662498474 0.8680679202079773 0.44789618253707886
0.32571855187416077 0.8508308529853821 0.464275985956192
0.2715887427330017 0.7238560914993286 0.4330626130104065
0.3187234401702881 0.7720560431480408 0.5934508442878723
0.31029707193374634 0.8234986066818237 0.5775884389877319
0.4461859166622162 0.8538006544113159 0.5013917684555054
0.42782169580459595 0.8806086778640747 0.40286076068878174
0.4022303819656372 0.8540059924125671 0.507570207118988
0.4021144509315491 0.8659591674804688 0.472093790769577
0.3134332299232483 0.7398094534873962 0.463115930557251
0.2887246608734131 0.8841979503631592 0.44265055656433105
0.281936913728714 0.8111362457275391 0.4078971743583679
0.3508564531803131 0.8240674734115601 0.4944564402103424
0.3873833119869232 0.8823196291923523 0.5927482843399048
0.39201390743255615 0.8639538884162903 0.4121623933315277
0.29487454891204834 0.8395042419433594 0.4543479084968567
0.400734007358551 0.794170081615448 0.40031561255455017
0.4004282057285309 0.8014258742332458 0.4905531704425812
0.30696165561676025 0.8815934062004089 0.5099580883979797
0.39752477407455444 0.8462191820144653 0.5234596133232117
0.39116954803466797 0.7953290343284607 0.5433355569839478
0.4019179940223694 0.8505604863166809 0.5355244278907776
0.3436287045478821 0.715593695640564 0.5633506178855896
0.42217081785202026 0.7802773714065552 0.5108870267868042
0.4315530061721802 0.7385696172714233 0.4092086851596832
0.4461568295955658 0.7034374475479126 0.4840899407863617
0.3873833119869232 0.8823196291923523 0.5927482843399048
0.39201390743255615 0.8639538884162903 0.4121623933315277
0.2783244252204895 0.8309569954872131 0.46924304962158203
0.39201390743255615 0.8639538884162903 0.4121623933315277
0.29487454891204834 0.8395042419433594 0.4543479084968567
0.400734007358551 0.794170081615448 0.40031561255455017
0.27916058897972107 0.7020958662033081 0.5168181657791138
0.31196728348731995 0.8906704783439636 0.45657381415367126
0.43321236968040466 0.7342098355293274 0.47837886214256287
0.3473849296569824 0.799041748046875 0.4484328329563141
0.40011823177337646 0.8017032742500305 0.49839723110198975
0.3898625373840332 0.7530668377876282 0.49668335914611816
0.36305272579193115 0.7126357555389404 0.5967262983322144
0.35775431990623474 0.8369712233543396 0.4477793574333191
0.3882519006729126 0.7720450162887573 0.4396738111972809
0.3102635145187378 0.7597928643226624 0.4166373014450073
0.3292653262615204 0.7366387248039246 0.5900918245315552
0.39686810970306396 0.7881019711494446 0.4344594478607178
0.31756436824798584 0.6983363032341003 0.40191513299942017
0.4404311180114746 0.7928259372711182 0.47430387139320374
0.4490412175655365 0.7093806266784668 0.5450198650360107
0.2689500153064728 0.8800923824310303 0.4743041396141052
0.3959476947784424 0.8472443222999573 0.4908103048801422
0.28082770109176636 0.7430848479270935 0.539116382598877
0.25539979338645935 0.8090871572494507 0.5513406991958618
0.44908642768859863 0.8382644653320312 0.49060988426208496
0.41549307107925415 0.8890358805656433 0.5970556139945984
0.27286002039909363 0.8316560983657837 0.5379979014396667
0.32041579484939575 0.761723518371582 0.5165643692016602
0.43416276574134827 0.8601316213607788 0.4748353362083435
0.33490854501724243 0.7644364833831787 0.5245127081871033
0.3632507622241974 0.8067079782485962 0.5522525906562805
0.3246603012084961 0.7976639866828918 0.40976426005363464
0.42441827058792114 0.7024717926979065 0.42709580063819885
0.41428378224372864 0.7018261551856995 0.5137237310409546
0.41428378224372864 0.7018261551856995 0.5137237310409546
0.4087386727333069 0.7693504691123962 0.5316774845123291
0.3990950584411621 0.7096583247184753 0.4439995288848877
0.4380718767642975 0.8897096514701843 0.5628294348716736
0.33002397418022156 0.7568867802619934 0.4794076979160309
0.41690540313720703 0.8496315479278564 0.45553234219551086
0.25035610795021057 0.8557138442993164 0.5073630809783936
0.25035610795021057 0.8557138442993164 0.5073630809783936
0.33140331506729126 0.8591243624687195 0.553394079208374
0.28137922286987305 0.8615213632583618 0.5329012870788574
0.38676780462265015 0.8652596473693848 0.45313724875450134
0.2554110586643219 0.7305392026901245 0.49178892374038696
0.2633099853992462 0.7969989776611328 0.5264750123023987
0.29934945702552795 0.7772753834724426 0.514789342880249
0.28215572237968445 0.7488019466400146 0.537539541721344
0.3151792287826538 0.7454026937484741 0.49815160036087036
0.28215572237968445 0.7488019466400146 0.537539541721344
0.3151792287826538 0.7454026937484741 0.49815160036087036
0.3151792287826538 0.7454026937484741 0.49815160036087036
0.38346466422080994 0.8160862922668457 0.5238922834396362
0.4389156401157379 0.8908756375312805 0.475951611995697
0.31849032640457153 0.7288397550582886 0.4237916171550751
0.4008719325065613 0.8497443795204163 0.4901285171508789
0.3030378222465515 0.7614976167678833 0.4124346375465393
0.4101606607437134 0.8943542838096619 0.5220717787742615
0.35568559169769287 0.7529665231704712 0.5600904226303101
0.31547102332115173 0.8828272223472595 0.41017988324165344
0.31547102332115173 0.8828272223472595 0.41017988324165344
0.36413559317588806 0.8341237306594849 0.4286930561065674
0.31020617485046387 0.7737606763839722 0.5821780562400818
0.42173880338668823 0.7144863605499268 0.5003314018249512
0.33242350816726685 0.729508101940155 0.5308272838592529
0.3024989366531372 0.7346336245536804 0.49259740114212036
0.34539175033569336 0.8350582122802734 0.4859021008014679
0.28225722908973694 0.8203445672988892 0.49134933948516846
0.39604896306991577 0.8510501384735107 0.5532596111297607
0.42038363218307495 0.8813063502311707 0.42611733078956604
0.35407403111457825 0.8767030239105225 0.5715778470039368
0.3583071827888489 0.8423217535018921 0.5814260840415955
0.40543216466903687 0.7701137065887451 0.45146408677101135
0.3283483386039734 0.7004578709602356 0.47519174218177795
0.42448753118515015 0.8880014419555664 0.40351536870002747
0.3644355237483978 0.8103194832801819 0.43105548620224
0.4245149791240692 0.8205273151397705 0.5750106573104858
0.4046218991279602 0.7129456996917725 0.594785749912262
0.2518453598022461 0.815100371837616 0.4615461528301239
0.27528029680252075 0.853986382484436 0.5390927791595459
0.40562137961387634 0.7428532838821411 0.5825707912445068
0.26567792892456055 0.7508990168571472 0.48221099376678467
0.2554389238357544 0.817505419254303 0.5280553698539734
0.27286002039909363 0.8316560983657837 0.5379979014396667
0.32041579484939575 0.761723518371582 0.5165643692016602
0.2968844771385193 0.7800298929214478 0.48535361886024475
0.3296896815299988 0.7505422830581665 0.5757643580436707
0.35681116580963135 0.8821961879730225 0.496839314699173
0.4265884757041931 0.7580362558364868 0.4765651226043701
0.41690540313720703 0.8496315479278564 0.45553234219551086
0.25035610795021057 0.8557138442993164 0.5073630809783936
0.33140331506729126 0.8591243624687195 0.553394079208374
0.28137922286987305 0.8615213632583618 0.5329012870788574
0.38676780462265015 0.8652596473693848 0.45313724875450134
0.2554110586643219 0.7305392026901245 0.49178892374038696
0.2633099853992462 0.7969989776611328 0.5264750123023987
0.29934945702552795 0.7772753834724426 0.514789342880249
0.28215572237968445 0.7488019466400146 0.537539541721344
0.3151792287826538 0.7454026937484741 0.49815160036087036
0.38346466422080994 0.8160862922668457 0.5238922834396362
0.4389156401157379 0.8908756375312805 0.475951611995697
0.31849032640457153 0.7288397550582886 0.4237916171550751
0.4008719325065613 0.8497443795204163 0.4901285171508789
0.4103516638278961 0.874612033367157 0.5077526569366455
0.2630205750465393 0.871163010597229 0.48798614740371704
0.37073051929473877 0.8683503866195679 0.5905797481536865
0.34510138630867004 0.8265190124511719 0.4668534994125366
0.2845153510570526 0.8010740876197815 0.5886442065238953
0.28770747780799866 0.7887306213378906 0.5391994118690491
0.44096899032592773 0.8698986172676086 0.4571899473667145
0.432056725025177 0.8197892308235168 0.5332938432693481
0.42092761397361755 0.787022054195404 0.4000243842601776
0.3057703673839569 0.8617100119590759 0.5942821502685547
0.4057835340499878 0.8160203099250793 0.48622000217437744
0.4296826124191284 0.7195953726768494 0.570181667804718
0.31527179479599 0.7543103098869324 0.5451064705848694
0.4059024155139923 0.8905512690544128 0.570706844329834
0.3503916561603546 0.7404960989952087 0.5498287677764893
0.3365267813205719 0.8829427361488342 0.4363248646259308
0.3860369026660919 0.8547047972679138 0.5487287044525146
0.30662083625793457 0.8001351952552795 0.4776120185852051
0.3230746388435364 0.7880910038948059 0.5033220052719116
0.4439502954483032 0.8836804628372192 0.5591044425964355
0.3086233139038086 0.8456795811653137 0.4598196744918823
0.3973185420036316 0.8436133861541748 0.41006776690483093
0.4101606607437134 0.8943542838096619 0.5220717787742615
0.35568559169769287 0.7529665231704712 0.5600904226303101
0.31547102332115173 0.8828272223472595 0.41017988324165344
0.31560686230659485 0.882969081401825 0.41030353307724
0.36416158080101013 0.7118231654167175 0.42855632305145264
0.3821271061897278 0.7420324683189392 0.49700039625167847
0.31020617485046387 0.7737606763839722 0.5821780562400818
0.4230585992336273 0.7126836776733398 0.5800471901893616
0.3624924123287201 0.7592061161994934 0.4508245587348938
0.4103516638278961 0.874612033367157 0.5077526569366455
0.2630205750465393 0.871163010597229 0.48798614740371704
0.37073051929473877 0.8683503866195679 0.5905797481536865
0.34510138630867004 0.8265190124511719 0.4668534994125366
0.2845153510570526 0.8010740876197815 0.5886442065238953
0.28770747780799866 0.7887306213378906 0.5391994118690491
0.44096899032592773 0.8698986172676086 0.4571899473667145
0.37271130084991455 0.8853468894958496 0.4387505352497101
0.4309188723564148 0.8816990256309509 0.4477834105491638
0.4013745188713074 0.8443995714187622 0.5079013705253601
0.4455360174179077 0.7295466065406799 0.4980924427509308
0.2741720974445343 0.8333125114440918 0.4580952227115631
0.3005589544773102 0.8696188926696777 0.4155917465686798
0.39698225259780884 0.752435028553009 0.5447560548782349
0.2516229450702667 0.829267144203186 0.5668622255325317
0.276154100894928 0.8462845087051392 0.5927366018295288
0.3563153147697449 0.7925980687141418 0.5912245512008667
0.3731085956096649 0.8470975756645203 0.5495338439941406
0.43614378571510315 0.8364976048469543 0.5140737891197205
0.3057703673839569 0.8617100119590759 0.5942821502685547
0.4057835340499878 0.8160203099250793 0.48622000217437744
0.4296826124191284 0.7195953726768494 0.570181667804718
0.31527179479599 0.7543103098869324 0.5451064705848694
0.4059024155139923 0.8905512690544128 0.570706844329834
0.3503916561603546 0.7404960989952087 0.5498287677764893
0.3365267813205719 0.8829427361488342 0.4363248646259308
0.3860369026660919 0.8547047972679138 0.5487287044525146
0.3298158049583435 0.8577384948730469 0.4890311658382416
0.29118651151657104 0.7005120515823364 0.4587271809577942
0.4308931231498718 0.8090953826904297 0.5900949239730835
0.25498536229133606 0.842934787273407 0.46763312816619873
0.2935974597930908 0.7462332844734192 0.4845605194568634
0.3830856680870056 0.8841099143028259 0.4789869487285614
0.43747884035110474 0.8058895468711853 0.583309531211853
0.3222957253456116 0.7944324016571045 0.49828267097473145
0.35100334882736206 0.8130861520767212 0.5355988144874573
0.39557045698165894 0.7965949177742004 0.5305116772651672
0.3520614504814148 0.8207272291183472 0.5091139078140259
0.32262367010116577 0.8522703051567078 0.5734878778457642
0.3308553993701935 0.7473365068435669 0.404224157333374
0.27344512939453125 0.7394009232521057 0.5849118232727051
0.3140583038330078 0.7696895599365234 0.572252094745636
0.31152498722076416 0.8821148872375488 0.4666231572628021
0.3169614374637604 0.7176671028137207 0.5642010569572449
0.39963003993034363 0.7523296475410461 0.48807352781295776
0.40656834840774536 0.7491934299468994 0.43023571372032166
0.357661634683609 0.7010897994041443 0.4500408172607422
0.4461568295955658 0.7034374475479126 0.4840899407863617
0.3003494143486023 0.7177858352661133 0.4864659905433655
0.26371100544929504 0.8521854877471924 0.5459527969360352
0.3086233139038086 0.8456795811653137 0.4598196744918823
0.3107573688030243 0.7468723058700562 0.4464655816555023
0.39767590165138245 0.8664806485176086 0.5327123403549194
0.3225981295108795 0.8623608350753784 0.4095878601074219
0.3224220275878906 0.7794516086578369 0.4758632779121399
0.30077195167541504 0.8033317923545837 0.4496806561946869
0.3568572700023651 0.7351222634315491 0.5621107220649719
0.30805063247680664 0.8902891278266907 0.4425877034664154
0.4458833634853363 0.8727927207946777 0.5990663766860962
0.41261398792266846 0.8858136534690857 0.5265552401542664
0.28541895747184753 0.8661568760871887 0.5701090693473816
0.36638882756233215 0.7056003212928772 0.4833264946937561
0.3201172351837158 0.7225456237792969 0.5073555707931519
0.375411719083786 0.8928675055503845 0.5520031452178955
0.26971936225891113 0.80973881483078 0.4613834023475647
0.26249805092811584 0.8944154381752014 0.5080842971801758
0.31625911593437195 0.8332197070121765 0.47235164046287537
0.27344512939453125 0.7394009232521057 0.5849118232727051
0.3140583038330078 0.7696895599365234 0.572252094745636
0.31152498722076416 0.8821148872375488 0.4666231572628021
0.3169614374637604 0.7176671028137207 0.5642010569572449
0.39963003993034363 0.7523296475410461 0.48807352781295776
0.40656834840774536 0.7491934299468994 0.43023571372032166
0.357661634683609 0.7010897994041443 0.4500408172607422
0.4461568295955658 0.7034374475479126 0.4840899407863617
0.3003494143486023 0.7177858352661133 0.4864659905433655
0.26371100544929504 0.8521854877471924 0.5459527969360352
0.39774662256240845 0.8565373420715332 0.5348517894744873
0.3688099980354309 0.85579913854599 0.44637686014175415
0.34246131777763367 0.7880740165710449 0.41509810090065
0.41170233488082886 0.790299654006958 0.4257500171661377
0.3824997544288635 0.8385014533996582 0.44224342703819275
0.3024989366531372 0.7346336245536804 0.49259740114212036
0.28215572237968445 0.7488019466400146 0.537539541721344
0.3151792287826538 0.7454026937484741 0.49815160036087036
0.38346466422080994 0.8160862922668457 0.5238922834396362
0.4389156401157379 0.8908756375312805 0.475951611995697
0.31849032640457153 0.7288397550582886 0.4237916171550751
0.4008719325065613 0.8497443795204163 0.4901285171508789
0.4103516638278961 0.874612033367157 0.5077526569366455
0.2630205750465393 0.871163010597229 0.48798614740371704
0.37073051929473877 0.8683503866195679 0.5905797481536865
0.4248811602592468 0.7860018610954285 0.4019595980644226
0.35627132654190063 0.8939811587333679 0.42855677008628845
0.43947547674179077 0.759037971496582 0.43137291073799133
0.33033987879753113 0.8341804146766663 0.435446172952652
0.30565035343170166 0.809977114200592 0.48172032833099365
0.38976794481277466 0.7304887175559998 0.5669516324996948
0.33550718426704407 0.8781510591506958 0.5424870252609253
0.44284337759017944 0.7081246376037598 0.4751991927623749
0.406069815158844 0.8015456795692444 0.5947901010513306
0.36502474546432495 0.7885941863059998 0.5765277743339539
0.39877504110336304 0.8916674852371216 0.5995914936065674
0.3954954743385315 0.7866455316543579 0.48121315240859985
0.31029805541038513 0.7301023602485657 0.5637837648391724
0.2826511859893799 0.716521680355072 0.5463423728942871
0.31170445680618286 0.7462364435195923 0.47150927782058716
0.3342421054840088 0.8976233005523682 0.499261736869812
0.38987940549850464 0.7466468811035156 0.5778409838676453
0.3611452877521515 0.7014603614807129 0.5239923000335693
0.2669641375541687 0.8450356125831604 0.5039293766021729
0.3919668197631836 0.7160463333129883 0.5523958206176758
0.34548449516296387 0.7877832651138306 0.5897615551948547
0.3688099980354309 0.85579913854599 0.44637686014175415
0.42441827058792114 0.7024717926979065 0.42709580063819885
0.31756436824798584 0.6983363032341003 0.40191513299942017
0.4404311180114746 0.7928259372711182 0.47430387139320374
0.4490412175655365 0.7093806266784668 0.5450198650360107
0.29464229941368103 0.883956789970398 0.5282016396522522
0.4268169105052948 0.8929307460784912 0.5812892913818359
0.35356464982032776 0.8947207927703857 0.5674233436584473
0.31623947620391846 0.7613841891288757 0.5204278826713562
0.28082770109176636 0.7430848479270935 0.539116382598877
0.25539979338645935 0.8090871572494507 0.5513406991958618
0.44908642768859863 0.8382644653320312 0.49060988426208496
0.25645124912261963 0.7637048363685608 0.5931402444839478
0.3219004273414612 0.7698044180870056 0.5002281069755554
0.392825722694397 0.8297404050827026 0.580816388130188
0.28909173607826233 0.7091418504714966 0.49161115288734436
0.2726970613002777 0.7753750681877136 0.5107914209365845
0.4264224171638489 0.8156654834747314 0.5827980041503906
0.42906588315963745 0.814103364944458 0.5368400812149048
0.37264925241470337 0.8700723648071289 0.5984445810317993
0.3372189998626709 0.7220757007598877 0.40210339426994324
0.4315761923789978 0.8174592852592468 0.5624578595161438
0.30148646235466003 0.8967629671096802 0.4839117228984833
0.29163220524787903 0.7508602142333984 0.5297672748565674
0.3600214421749115 0.8807857632637024 0.5474206805229187
0.409365713596344 0.8682700395584106 0.5416593551635742
0.37444478273391724 0.8382948040962219 0.43886974453926086
0.26543179154396057 0.8707515597343445 0.40313225984573364
0.290131151676178 0.7257059216499329 0.4609190821647644
0.3194389343261719 0.8191321492195129 0.44458359479904175
0.396698921918869 0.8837343454360962 0.4541724920272827
0.4420151114463806 0.7951099872589111 0.4309886693954468
0.42161574959754944 0.7128639817237854 0.450253963470459
0.37073051929473877 0.8683503866195679 0.5905797481536865
0.31196728348731995 0.8906704783439636 0.45657381415367126
0.43321236968040466 0.7342098355293274 0.47837886214256287
0.3473849296569824 0.799041748046875 0.4484328329563141
0.40011823177337646 0.8017032742500305 0.49839723110198975
0.3898625373840332 0.7530668377876282 0.49668335914611816
0.36305272579193115 0.7126357555389404 0.5967262983322144
0.35775431990623474 0.8369712233543396 0.4477793574333191
0.3292653262615204 0.7366387248039246 0.5900918245315552
0.39686810970306396 0.7881019711494446 0.4344594478607178
0.31756436824798584 0.6983363032341003 0.40191513299942017
0.4404311180114746 0.7928259372711182 0.47430387139320374
0.4490412175655365 0.7093806266784668 0.5450198650360107
0.29464229941368103 0.883956789970398 0.5282016396522522
0.4268169105052948 0.8929307460784912 0.5812892913818359
0.35356464982032776 0.8947207927703857 0.5674233436584473
0.31623947620391846 0.7613841891288757 0.5204278826713562
0.28082770109176636 0.7430848479270935 0.539116382598877
0.25539979338645935 0.8090871572494507 0.5513406991958618
0.44908642768859863 0.8382644653320312 0.49060988426208496
0.25645124912261963 0.7637048363685608 0.5931402444839478
0.3219004273414612 0.7698044180870056 0.5002281069755554
0.392825722694397 0.8297404050827026 0.580816388130188
0.28909173607826233 0.7091418504714966 0.49161115288734436
0.3114122152328491 0.7092371582984924 0.5546786189079285
0.2860076129436493 0.70500248670578 0.4827116131782532
0.4497477412223816 0.7795643210411072 0.42352551221847534
0.3507464528083801 0.7146667242050171 0.5061686635017395
0.3497886657714844 0.7699633836746216 0.4439344108104706
0.3670397400856018 0.7475379705429077 0.5630088448524475
0.2587273418903351 0.8752270340919495 0.5604186058044434
0.28184688091278076 0.7922608256340027 0.41859549283981323
0.3485971689224243 0.7546407580375671 0.4675110876560211
0.3866725265979767 0.8115126490592957 0.5825997591018677
0.4177326560020447 0.8971635103225708 0.4554317891597748
0.34778890013694763 0.746397078037262 0.5924198627471924
0.2860076129436493 0.70500248670578 0.4827116131782532
0.4497477412223816 0.7795643210411072 0.42352551221847534
0.3507464528083801 0.7146667242050171 0.5061686635017395
0.3497886657714844 0.7699633836746216 0.4439344108104706
0.3670397400856018 0.7475379705429077 0.5630088448524475
0.2587273418903351 0.8752270340919495 0.5604186058044434
0.28184688091278076 0.7922608256340027 0.41859549283981323
0.33349424600601196 0.7720829844474792 0.42898938059806824
0.31902697682380676 0.8554014563560486 0.5998563170433044
0.2529795169830322 0.808427095413208 0.5586682558059692
0.39014723896980286 0.7377523183822632 0.4431900382041931
0.29928332567214966 0.8164390921592712 0.49901705980300903
0.4242638349533081 0.7558336853981018 0.45006507635116577
0.38001397252082825 0.7609356641769409 0.420553058385849
0.33527594804763794 0.8204314708709717 0.5498601198196411
0.3619328737258911 0.884714663028717 0.48806172609329224
0.43093520402908325 0.7678844332695007 0.4935092031955719
0.4056267738342285 0.8781135082244873 0.5684643387794495
0.3109125792980194 0.7138757109642029 0.5684651136398315
0.30891355872154236 0.8424343466758728 0.5918816328048706
0.28853264451026917 0.7454177141189575 0.4614943563938141
0.32906025648117065 0.854275107383728 0.5259839296340942
0.32241758704185486 0.8316437005996704 0.5285937786102295
0.2674691081047058 0.8516541719436646 0.4488474428653717
0.31773120164871216 0.824932873249054 0.46445977687835693
0.3239670991897583 0.8184521794319153 0.5273572206497192
0.42549267411231995 0.8626260161399841 0.49311840534210205
0.4434007704257965 0.7201414108276367 0.45124363899230957
0.3784608542919159 0.7095786333084106 0.5170778036117554
0.35356464982032776 0.8947207927703857 0.5674233436584473
0.31623947620391846 0.7613841891288757 0.5204278826713562
0.28082770109176636 0.7430848479270935 0.539116382598877
0.25539979338645935 0.8090871572494507 0.5513406991958618
0.3098416030406952 0.6990432143211365 0.5513413548469543
0.3332252502441406 0.8741421699523926 0.5166382789611816
0.4361451268196106 0.8461970090866089 0.4259263277053833
0.41613122820854187 0.7186030745506287 0.5932372212409973
0.2717004418373108 0.8749471306800842 0.41027387976646423
0.4167886972427368 0.8936410546302795 0.542418360710144
0.3576353192329407 0.8415300846099854 0.4864664673805237
0.3545893132686615 0.7261474132537842 0.4190412163734436
0.27215272188186646 0.7789982557296753 0.45522087812423706
0.37688517570495605 0.7786706686019897 0.443116694688797
0.25592103600502014 0.8800825476646423 0.46311143040657043
0.3446120023727417 0.8740315437316895 0.4609650671482086
0.28992679715156555 0.8178063035011292 0.42770224809646606
0.37444478273391724 0.8382948040962219 0.43886974453926086
0.26543179154396057 0.8707515597343445 0.40313225984573364
0.290131151676178 0.7257059216499329 0.4609190821647644
0.3194389343261719 0.8191321492195129 0.44458359479904175
0.396698921918869 0.8837343454360962 0.4541724920272827
0.4420151114463806 0.7951099872589111 0.4309886693954468
0.42161574959754944 0.7128639817237854 0.450253963470459
0.2917316257953644 0.8433469533920288 0.46716398000717163
0.3619328737258911 0.884714663028717 0.48806172609329224
0.43093520402908325 0.7678844332695007 0.4935092031955719
0.4056267738342285 0.8781135082244873 0.5684643387794495
0.2814953029155731 0.7870230078697205 0.5390801429748535
0.34270530939102173 0.871150016784668 0.556443452835083
0.31637534499168396 0.7849703431129456 0.48401200771331787
0.2715887427330017 0.7238560914993286 0.4330626130104065
0.33431291580200195 0.842000424861908 0.4577506184577942
0.43830814957618713 0.8541409969329834 0.4265957176685333
0.2924270033836365 0.7991662621498108 0.586039125919342
0.37134015560150146 0.8720760941505432 0.5785667300224304
0.25011301040649414 0.7221364378929138 0.5147348046302795
0.43800222873687744 0.868710458278656 0.42578476667404175
0.3138952851295471 0.8019838333129883 0.5051077008247375
0.38675394654273987 0.8415294289588928 0.5332521796226501
0.32606470584869385 0.812748372554779 0.5365034937858582
0.353568971157074 0.6999804377555847 0.45244866609573364
0.2798876166343689 0.730286180973053 0.44661685824394226
0.3350520730018616 0.7542504668235779 0.40923118591308594
0.3338123857975006 0.8809810280799866 0.4810088574886322
0.43289411067962646 0.845163106918335 0.5636639595031738
0.289016991853714 0.7092658281326294 0.41107839345932007
0.2908439338207245 0.810556948184967 0.5246689319610596
0.428971529006958 0.8831408023834229 0.4008113741874695
0.25204014778137207 0.7571532726287842 0.4413685202598572
0.34503743052482605 0.8232070803642273 0.5316385626792908
0.2509635090827942 0.7655376195907593 0.42904049158096313
0.343481183052063 0.832587480545044 0.5324019193649292
0.4154765009880066 0.819667398929596 0.5581292510032654
0.381935179233551 0.6991564631462097 0.44244134426116943
0.4020416736602783 0.7804182171821594 0.5935101509094238
0.32166099548339844 0.7865017652511597 0.5300887823104858
0.42063918709754944 0.759357750415802 0.4382607638835907
0.36034613847732544 0.7103577852249146 0.467553973197937
0.38453203439712524 0.8612057566642761 0.5076320767402649
0.27490389347076416 0.7298605442047119 0.5990886092185974
0.3130309283733368 0.7560800909996033 0.5171754956245422
0.40286508202552795 0.895826518535614 0.44711819291114807
0.3688099980354309 0.85579913854599 0.44637686014175415
0.33349424600601196 0.7720829844474792 0.42898938059806824
0.31902697682380676 0.8554014563560486 0.5998563170433044
0.2529795169830322 0.808427095413208 0.5586682558059692
0.34724465012550354 0.8962723016738892 0.5940013527870178
0.43538495898246765 0.7673758864402771 0.5345152020454407
0.4019671678543091 0.792744517326355 0.41443920135498047
0.4132964611053467 0.7417317032814026 0.5432464480400085
0.34890955686569214 0.8050276637077332 0.4287034869194031
0.30347633361816406 0.8851101994514465 0.5290992856025696
0.33527594804763794 0.8365085124969482 0.5145692825317383
0.3619328737258911 0.884714663028717 0.48806172609329224
0.43093520402908325 0.7678844332695007 0.4935092031955719
0.4056267738342285 0.8781135082244873 0.5684643387794495
0.2814953029155731 0.7870230078697205 0.5390801429748535
0.34270530939102173 0.871150016784668 0.556443452835083
0.31637534499168396 0.7849703431129456 0.48401200771331787
0.3192099332809448 0.8250882029533386 0.5345383286476135
0.3624705672264099 0.7749505043029785 0.5881224274635315
0.4381966292858124 0.8591092824935913 0.48560941219329834
0.4018755853176117 0.7113523483276367 0.4685843288898468
0.42549267411231995 0.8626260161399841 0.49311840534210205
0.4434007704257965 0.7201414108276367 0.45124363899230957
0.39850255846977234 0.7248935103416443 0.451443076133728
0.3975776731967926 0.8299136757850647 0.5284680128097534
0.2766673266887665 0.832811713218689 0.5227793455123901
0.3956117033958435 0.8065223693847656 0.4768124520778656
0.39772728085517883 0.7165975570678711 0.5117433071136475
0.3269711434841156 0.7782877683639526 0.4580419659614563
0.35452741384506226 0.8546561002731323 0.4731252193450928
0.31152111291885376 0.8168701529502869 0.5332582592964172
0.2960895299911499 0.8084617853164673 0.4146213233470917
0.34246131777763367 0.7880740165710449 0.41509810090065
0.2798876166343689 0.730286180973053 0.44661685824394226
0.3350520730018616 0.7542504668235779 0.40923118591308594
0.3338123857975006 0.8809810280799866 0.4810088574886322
0.43289411067962646 0.845163106918335 0.5636639595031738
0.289016991853714 0.7092658281326294 0.41107839345932007
0.2908439338207245 0.810556948184967 0.5246689319610596
0.428971529006958 0.8831408023834229 0.4008113741874695
0.25204014778137207 0.7571532726287842 0.4413685202598572
0.34503743052482605 0.8232070803642273 0.5316385626792908
0.2509635090827942 0.7655376195907593 0.42904049158096313
0.343481183052063 0.832587480545044 0.5324019193649292
0.4154765009880066 0.819667398929596 0.5581292510032654
0.4154765009880066 0.819667398929596 0.5581292510032654
0.381935179233551 0.6991564631462097 0.44244134426116943
0.4020416736602783 0.7804182171821594 0.5935101509094238
0.32166099548339844 0.7865017652511597 0.5300887823104858
0.42063918709754944 0.759357750415802 0.4382607638835907
0.42063918709754944 0.759357750415802 0.4382607638835907
0.36034613847732544 0.7103577852249146 0.467553973197937
0.38453203439712524 0.8612057566642761 0.5076320767402649
0.27490389347076416 0.7298605442047119 0.5990886092185974
0.3130309283733368 0.7560800909996033 0.5171754956245422
0.40286508202552795 0.895826518535614 0.44711819291114807
0.3076084554195404 0.8714564442634583 0.5307881832122803
0.4311089515686035 0.7542843818664551 0.4805387258529663
0.35467591881752014 0.8829604983329773 0.5120216012001038
0.3248250484466553 0.7450796365737915 0.42352601885795593
0.3562984764575958 0.875386655330658 0.44633448123931885
0.4106798470020294 0.7437465786933899 0.5778833031654358
0.3861919939517975 0.7481381893157959 0.44993212819099426
0.3205641508102417 0.7850595116615295 0.47978127002716064
0.40526050329208374 0.7770596742630005 0.5688314437866211
0.39014723896980286 0.7377523183822632 0.4431900382041931
0.29928332567214966 0.8164390921592712 0.49901705980300903
0.31462690234184265 0.8141156435012817 0.4765779674053192
0.4333656132221222 0.797524094581604 0.44447508454322815
0.33973583579063416 0.7371024489402771 0.5292218327522278
0.43837404251098633 0.7781265377998352 0.47754940390586853
0.44805875420570374 0.8979625105857849 0.5631561875343323
0.3819420635700226 0.7871840000152588 0.5740745067596436
0.3907642662525177 0.7062288522720337 0.4883280396461487
0.28312501311302185 0.8875365257263184 0.5927915573120117
0.4479486644268036 0.8792685866355896 0.5024428367614746
0.30500954389572144 0.8445174098014832 0.5372198820114136
0.2873728275299072 0.7275536060333252 0.5481386780738831
0.28998863697052 0.8346124291419983 0.5763537287712097
0.38511785864830017 0.8765999674797058 0.5949199795722961
0.40335601568222046 0.888769805431366 0.5066894292831421
0.3603146970272064 0.716884434223175 0.5265399217605591
0.31747400760650635 0.751446008682251 0.49983349442481995
0.2710219919681549 0.8256524205207825 0.5883758068084717
0.404208242893219 0.8202473521232605 0.5642065405845642
0.4163094460964203 0.7036575078964233 0.4048991799354553
0.3853699862957001 0.7923542857170105 0.5626164078712463
0.4447733759880066 0.7769862413406372 0.5759191513061523
0.2506599724292755 0.801105260848999 0.4893048405647278
0.4457102417945862 0.7423610091209412 0.4340396523475647
0.27703192830085754 0.8566652536392212 0.5907628536224365
0.3123933970928192 0.8259558081626892 0.4163846969604492
0.3576110303401947 0.7343624830245972 0.5018031597137451
0.31335002183914185 0.7412609457969666 0.44958779215812683
0.4086529314517975 0.7348320484161377 0.5650783777236938
0.28412771224975586 0.7936046123504639 0.529962420463562
0.36305272579193115 0.7126357555389404 0.5967262983322144
0.372193843126297 0.7383449077606201 0.5221831202507019
0.40214821696281433 0.7215102910995483 0.5503256320953369
0.34610289335250854 0.7533666491508484 0.5645194053649902
0.3056274354457855 0.7323454022407532 0.5358227491378784
0.41454026103019714 0.7064542770385742 0.4746032655239105
0.2764124572277069 0.7114960551261902 0.45520007610321045
0.4323957860469818 0.8361896276473999 0.4716883897781372
0.32299914956092834 0.710523247718811 0.4795747995376587
0.2817003130912781 0.8904974460601807 0.588616132736206
0.3098463714122772 0.8959757089614868 0.5769057273864746
0.32670122385025024 0.8956351280212402 0.4064297676086426
0.334503710269928 0.7774654030799866 0.42198097705841064
0.40570908784866333 0.8937059044837952 0.4209158420562744
0.2649567723274231 0.8249685764312744 0.5161217451095581
0.3790655732154846 0.8217189311981201 0.5612434148788452
0.30975213646888733 0.7552229166030884 0.49522697925567627
0.36765727400779724 0.703574001789093 0.5107598304748535
0.434032678604126 0.8373884558677673 0.48429054021835327
0.4068562388420105 0.7712492942810059 0.5615110397338867
0.3559406101703644 0.7939468622207642 0.5941057801246643
0.3769724667072296 0.7195340394973755 0.4101027250289917
0.3796344995498657 0.7399610280990601 0.48431891202926636
0.2647346556186676 0.8504887819290161 0.5103491544723511
0.3579223155975342 0.7934808731079102 0.5989028811454773
0.4061923325061798 0.7339352369308472 0.40749579668045044
0.3669966757297516 0.7437403798103333 0.5332671999931335
0.325980007648468 0.8979358077049255 0.5839852094650269
0.4304085373878479 0.8102602362632751 0.4820294678211212
0.3554253578186035 0.7003048062324524 0.5705876350402832
0.30741116404533386 0.749015748500824 0.4220220446586609
0.2569819986820221 0.8253940343856812 0.5651023387908936
0.35775431990623474 0.8369712233543396 0.4477793574333191
0.3577677309513092 0.8366580009460449 0.4911617934703827
0.2731630504131317 0.7224330306053162 0.40560680627822876
0.2598362863063812 0.7258591055870056 0.5631883144378662
0.39669591188430786 0.7084340453147888 0.4326697289943695
0.4393116235733032 0.7757275104522705 0.5617616772651672
0.3353395462036133 0.7123655080795288 0.556069552898407
0.34379860758781433 0.8896699547767639 0.4025692939758301
0.42676421999931335 0.8773043155670166 0.47708335518836975
0.28566786646842957 0.8719563484191895 0.5812045335769653
0.41265004873275757 0.8496823906898499 0.4090081453323364
0.32932257652282715 0.7456481456756592 0.5976108908653259
0.4070431888103485 0.885694146156311 0.49735188484191895
0.2563505172729492 0.8718894124031067 0.5932362079620361
0.3322642147541046 0.7773061394691467 0.5931233167648315
0.39927977323532104 0.8395658731460571 0.4376760721206665
0.314322829246521 0.7877484560012817 0.5325958728790283
0.31636038422584534 0.8327246904373169 0.40797823667526245
0.33431291580200195 0.842000424861908 0.4577506184577942
0.43830814957618713 0.8541409969329834 0.4265957176685333
0.2924270033836365 0.7991662621498108 0.586039125919342
0.37134015560150146 0.8720760941505432 0.5785667300224304
0.25011301040649414 0.7221364378929138 0.5147348046302795
0.43800222873687744 0.868710458278656 0.42578476667404175
0.3138952851295471 0.8019838333129883 0.5051077008247375
0.38675394654273987 0.8415294289588928 0.5332521796226501
0.32606470584869385 0.812748372554779 0.5365034937858582
0.353568971157074 0.6999804377555847 0.45244866609573364
0.2798876166343689 0.730286180973053 0.44661685824394226
0.3350520730018616 0.7542504668235779 0.40923118591308594
0.3338123857975006 0.8809810280799866 0.4810088574886322
