ply
format ascii 1.0
element vertex 834
property float x
property float y
property float z
end_header
0.30450642108917236 0.7415737509727478 0.43208441138267517
0.2678767740726471 0.7892152667045593 0.5342305898666382
0.26803940534591675 0.7047794461250305 0.5434811115264893
0.36965128779411316 0.7620804905891418 0.4691942632198334
0.36076632142066956 0.8174270987510681 0.571961522102356
0.27421772480010986 0.8279722929000854 0.5032284259796143
0.3960760831832886 0.7621307373046875 0.47359710931777954
0.4169405400753021 0.8415629267692566 0.47947195172309875
0.3695463538169861 0.7357089519500732 0.467153400182724
0.30150341987609863 0.8068895936012268 0.5418497323989868
0.43400657176971436 0.6959869265556335 0.4051913917064667
0.30417314171791077 0.8343969583511353 0.4992082417011261
0.28265488147735596 0.8605010509490967 0.5763840079307556
0.3467260003089905 0.6966774463653564 0.48948535323143005
0.3794519305229187 0.8198139667510986 0.5870940685272217
0.4086891710758209 0.8871350288391113 0.4509458541870117
0.34223857522010803 0.8349909782409668 0.5571855902671814
0.28205546736717224 0.8639197945594788 0.5959250330924988
0.37993839383125305 0.8426096439361572 0.5800317525863647
0.3075045347213745 0.7905970215797424 0.45835641026496887
0.2791844606399536 0.8343704342842102 0.4427095651626587
0.4352460205554962 0.717406690120697 0.5118550062179565
0.43656814098358154 0.8650826215744019 0.5315953493118286
0.43038317561149597 0.7020477652549744 0.5885511636734009
0.2790543735027313 0.7403898239135742 0.5654738545417786
0.39393121004104614 0.7115767598152161 0.5133237838745117
0.28576549887657166 0.7442664504051208 0.5019286870956421
0.34990426898002625 0.7786086201667786 0.530146598815918
0.3712211847305298 0.8693677186965942 0.5566416382789612
0.42310136556625366 0.7111980319023132 0.477720707654953
0.3805554509162903 0.8878080248832703 0.4109293520450592
0.360981285572052 0.8457663059234619 0.48342809081077576
0.382500559091568 0.7599412798881531 0.4780389964580536
0.30459481477737427 0.7195440530776978 0.4864344894886017
0.2653927803039551 0.7455868721008301 0.40452510118484497
0.3404384255409241 0.8439575433731079 0.45192164182662964
0.2745824456214905 0.789047122001648 0.5643633008003235
0.296703040599823 0.8164889216423035 0.5790703892707825
0.2774101197719574 0.7214450240135193 0.5397984981536865
0.4449102282524109 0.7686353921890259 0.5003016591072083
0.38795432448387146 0.8248621225357056 0.5622667074203491
0.3607880175113678 0.8317700028419495 0.5837005972862244
0.3685474693775177 0.8680378198623657 0.5374684929847717
0.2563149631023407 0.7810156941413879 0.46392205357551575
0.31050583720207214 0.879841685295105 0.4748167097568512
0.3508765995502472 0.7463591694831848 0.48794442415237427
0.29254475235939026 0.7547246813774109 0.4028613567352295
0.4488998055458069 0.7689736485481262 0.4687299430370331
0.26975294947624207 0.7655259966850281 0.4538886249065399
0.41952192783355713 0.7965324521064758 0.5912987589836121
0.32695743441581726 0.7662959098815918 0.45544183254241943
0.315632164478302 0.7409380078315735 0.4585176408290863
0.39157503843307495 0.8837928771972656 0.5415139198303223
0.4042373597621918 0.8345549702644348 0.41333433985710144
0.35220271348953247 0.7196058630943298 0.5145924091339111
0.25718918442726135 0.6973716020584106 0.442435622215271
0.4115305244922638 0.7013043165206909 0.42146584391593933
0.3615947365760803 0.7453028559684753 0.44356751441955566
0.4038122296333313 0.8812299966812134 0.5244467258453369
0.35880598425865173 0.7634444236755371 0.5454818606376648
0.34488824009895325 0.8670968413352966 0.4979039132595062
0.3472258746623993 0.82096266746521 0.42340779304504395
0.43234774470329285 0.694776713848114 0.4553288221359253
0.43295416235923767 0.7242833971977234 0.5114604234695435
0.3319378197193146 0.8754512667655945 0.41780102252960205
0.4014776349067688 0.8279295563697815 0.5071592330932617
0.3816443979740143 0.7521542906761169 0.5357726216316223
0.33385080099105835 0.8510851860046387 0.570704996585846
0.294620543718338 0.85336834192276 0.4626844525337219
0.35298073291778564 0.7670245170593262 0.4370007812976837
0.3750743269920349 0.8227851390838623 0.4776691794395447
0.3868694007396698 0.8526148796081543 0.5587431192398071
0.4474315941333771 0.8662415742874146 0.41863003373146057
0.26883554458618164 0.7513781785964966 0.5824500918388367
0.37554872035980225 0.8467402458190918 0.509333074092865
0.41417568922042847 0.7309390902519226 0.54592365026474
0.4457622468471527 0.7018671035766602 0.4711369276046753
0.363810271024704 0.8798539042472839 0.5710699558258057
0.44482943415641785 0.6974412798881531 0.40421733260154724
0.2600167989730835 0.7166026830673218 0.5092841386795044
0.4195200800895691 0.780989408493042 0.48904675245285034
0.4421526789665222 0.855169951915741 0.4292973577976227
0.3520296812057495 0.866326093673706 0.4189557135105133
0.4049057960510254 0.8029339909553528 0.4119408428668976
0.2557370364665985 0.8913878798484802 0.45653605461120605
0.2500178813934326 0.8003544807434082 0.5457717180252075
0.28135284781455994 0.698390781879425 0.44684889912605286
0.2897253930568695 0.7356529831886292 0.502743124961853
0.3317933976650238 0.8093734979629517 0.5916253924369812
0.32552385330200195 0.8120847344398499 0.4480441212654114
0.4425276815891266 0.8521407246589661 0.46593037247657776
0.36362412571907043 0.8739241361618042 0.4420050382614136
0.347333163022995 0.7756766676902771 0.5380972623825073
0.3645249605178833 0.7679412364959717 0.40894070267677307
0.38026463985443115 0.7995354533195496 0.44791826605796814
0.3601679801940918 0.8179578185081482 0.47747570276260376
0.33955785632133484 0.8312613368034363 0.5714111924171448
0.428138792514801 0.7630337476730347 0.48998260498046875
0.29326558113098145 0.8805890679359436 0.42420443892478943
0.2547951340675354 0.8462246060371399 0.46869567036628723
0.3608173131942749 0.8173332810401917 0.4364006221294403
0.26780930161476135 0.7678216099739075 0.402498334646225
0.36325445771217346 0.8621574640274048 0.5989702939987183
0.3324795365333557 0.7461693286895752 0.41039490699768066
0.3394472897052765 0.7955763339996338 0.4409751892089844
0.27519166469573975 0.7827855348587036 0.5090326070785522
0.2900460660457611 0.7157432436943054 0.43015965819358826
0.36076632142066956 0.8174270987510681 0.571961522102356
0.27421772480010986 0.8279722929000854 0.5032284259796143
0.3960760831832886 0.7621307373046875 0.47359710931777954
0.4169405400753021 0.8415629267692566 0.47947195172309875
0.3695463538169861 0.7357089519500732 0.467153400182724
0.4445669949054718 0.7477560043334961 0.5039204955101013
0.34429797530174255 0.8633816242218018 0.5368738174438477
0.26235219836235046 0.8785305619239807 0.48061689734458923
0.31474441289901733 0.7403231859207153 0.5206594467163086
0.35212376713752747 0.7296023368835449 0.4299548864364624
0.28782355785369873 0.7033316493034363 0.49987709522247314
0.3728748857975006 0.8545156717300415 0.519273042678833
0.320426881313324 0.8878632187843323 0.5478919148445129
0.3449488580226898 0.7399700284004211 0.4465170204639435
0.44938892126083374 0.8446055054664612 0.48480430245399475
0.349060982465744 0.7432051301002502 0.568194568157196
0.4201950430870056 0.847556471824646 0.4323541224002838
0.3464469909667969 0.7787758111953735 0.5027545690536499
0.3674997389316559 0.7836402058601379 0.5780835151672363
0.31575682759284973 0.8808356523513794 0.4458296597003937
0.30813097953796387 0.7559106349945068 0.5277273058891296
0.37846335768699646 0.8289318680763245 0.43973830342292786
0.34794893860816956 0.8292704224586487 0.503808319568634
0.26271066069602966 0.807615339756012 0.43752774596214294
0.33736884593963623 0.7603170275688171 0.5695593357086182
0.34912824630737305 0.7411924600601196 0.5736544728279114
0.2713578939437866 0.7859671711921692 0.45566532015800476
0.38568392395973206 0.6951296329498291 0.5918021202087402
0.3890410363674164 0.7484486699104309 0.4718712568283081
0.30988040566444397 0.7398683428764343 0.41583070158958435
0.42345842719078064 0.7993531227111816 0.5745715498924255
0.3460381031036377 0.8077959418296814 0.5258204936981201
0.2591410279273987 0.7175641655921936 0.5316205024719238
0.337038516998291 0.8495392799377441 0.4309864342212677
0.30905553698539734 0.7681999802589417 0.43491676449775696
0.302825391292572 0.8321412205696106 0.4573327898979187
0.4321131706237793 0.7487984895706177 0.5172058343887329
0.40800538659095764 0.8865797519683838 0.4703259766101837
0.42753198742866516 0.7300572395324707 0.4009823799133301
0.3006512224674225 0.7470067739486694 0.5658799409866333
0.40250590443611145 0.7285007834434509 0.580979585647583
0.3832128345966339 0.8520669937133789 0.4198310971260071
0.4116394519805908 0.792654812335968 0.5833596587181091
0.44941356778144836 0.6940119862556458 0.5074223875999451
0.4452376067638397 0.8655883073806763 0.48634830117225647
0.26924359798431396 0.8233096599578857 0.5469091534614563
0.42520666122436523 0.8837937712669373 0.5117285251617432
0.3324320614337921 0.8378559350967407 0.40635403990745544
0.36995866894721985 0.8755286335945129 0.5245190262794495
0.3697553277015686 0.7706800699234009 0.4469250440597534
0.39659878611564636 0.7753728628158569 0.4053913950920105
0.39459362626075745 0.725269615650177 0.5446804761886597
0.35817548632621765 0.8282778859138489 0.5007222890853882
0.3942795395851135 0.7972643971443176 0.5580533742904663
0.28686341643333435 0.8895217180252075 0.4484785497188568
0.3528323173522949 0.8834754824638367 0.5767302513122559
0.3593710660934448 0.8867093920707703 0.4041840434074402
0.2835008203983307 0.7605787515640259 0.5293651819229126
0.2688194215297699 0.7427499294281006 0.5938653349876404
0.436892569065094 0.7504717111587524 0.5535041689872742
0.2711198627948761 0.7314596176147461 0.5037317276000977
0.3754661977291107 0.880814790725708 0.5180968046188354
0.4352674186229706 0.889977753162384 0.5975961089134216
0.34782183170318604 0.7991962432861328 0.5717991590499878
0.43286415934562683 0.7227053642272949 0.5341597199440002
0.30746856331825256 0.8667545914649963 0.46283039450645447
0.2983549237251282 0.6978996396064758 0.4084464907646179
0.2552222013473511 0.7884442806243896 0.5904413461685181
0.32492494583129883 0.719802737236023 0.5514707565307617
0.2845706343650818 0.7332032918930054 0.4190371632575989
0.42364829778671265 0.8852121233940125 0.5710521340370178
0.29207947850227356 0.8264355063438416 0.583686351776123
0.3721333146095276 0.7511584758758545 0.44576990604400635
0.2794607877731323 0.7160491943359375 0.4904293715953827
0.4449370503425598 0.7738224864006042 0.5911687612533569
0.3547440469264984 0.7625749111175537 0.5636179447174072
0.39144501090049744 0.8237520456314087 0.5911624431610107
0.31567269563674927 0.7992512583732605 0.45447421073913574
0.28810375928878784 0.7132849097251892 0.4000188112258911
0.36718493700027466 0.8739827275276184 0.5996251702308655
0.39135977625846863 0.8638201355934143 0.520887553691864
0.27957871556282043 0.7148028016090393 0.4106532633304596
0.33837512135505676 0.8210024237632751 0.42576876282691956
0.2509540915489197 0.798268735408783 0.4834222197532654
0.3656299412250519 0.7555786371231079 0.5387894511222839
0.4292196035385132 0.7907198667526245 0.4505249857902527
0.4021036922931671 0.7074877619743347 0.4736902415752411
0.34912824630737305 0.7411924600601196 0.5736544728279114
0.2713578939437866 0.7859671711921692 0.45566532015800476
0.38568392395973206 0.6951296329498291 0.5918021202087402
0.3890410363674164 0.7484486699104309 0.4718712568283081
0.30988040566444397 0.7398683428764343 0.41583070158958435
0.3952147662639618 0.847037136554718 0.5167412161827087
0.3741854429244995 0.7224928140640259 0.41547250747680664
0.4445669949054718 0.7477560043334961 0.5039204955101013
0.3084087669849396 0.7606686353683472 0.48090240359306335
0.4373868703842163 0.8418899774551392 0.47810816764831543
0.34165313839912415 0.7456490993499756 0.5661800503730774
0.3293607532978058 0.8119235038757324 0.4814799726009369
0.2682180404663086 0.8597874045372009 0.4285624921321869
0.26729637384414673 0.7935684323310852 0.4249735474586487
0.3090592920780182 0.7454187273979187 0.5028768181800842
0.28074881434440613 0.8259488344192505 0.5087627172470093
0.34782183170318604 0.7991962432861328 0.5717991590499878
0.3705576956272125 0.7599684596061707 0.5717996954917908
0.3924943506717682 0.8293343782424927 0.5374552011489868
0.3107207119464874 0.8678460121154785 0.5732898116111755
0.44470489025115967 0.7011027932167053 0.4449423551559448
0.33473196625709534 0.7385528683662415 0.4665263295173645
0.28334274888038635 0.8798718452453613 0.5513626337051392
0.39877229928970337 0.7898321747779846 0.46315982937812805
0.36781948804855347 0.7476795315742493 0.41596466302871704
0.3543337881565094 0.7714834809303284 0.46262428164482117
0.29475486278533936 0.865667462348938 0.5908285975456238
0.4263823926448822 0.8726944327354431 0.454769104719162
0.3671952784061432 0.7476571202278137 0.44435206055641174
0.39060473442077637 0.7315238118171692 0.44721776247024536
0.281730592250824 0.757924497127533 0.4849519729614258
0.41777023673057556 0.7072216272354126 0.4282757639884949
0.37562820315361023 0.8176292777061462 0.5169071555137634
0.2844456732273102 0.8702871203422546 0.5337511301040649
0.2743776738643646 0.8132400512695312 0.506558895111084
0.350633829832077 0.7417155504226685 0.4931335747241974
0.41740262508392334 0.7272696495056152 0.48242416977882385
0.38623735308647156 0.7603275775909424 0.40122106671333313
0.3374301791191101 0.8558980822563171 0.47795242071151733
0.34429797530174255 0.8633816242218018 0.5368738174438477
0.34165313839912415 0.7456490993499756 0.5661800503730774
0.3293607532978058 0.8119235038757324 0.4814799726009369
0.2682180404663086 0.8597874045372009 0.4285624921321869
0.26729637384414673 0.7935684323310852 0.4249735474586487
0.28074881434440613 0.8259488344192505 0.5087627172470093
0.34782183170318604 0.7991962432861328 0.5717991590499878
0.43286415934562683 0.7227053642272949 0.5341597199440002
0.30746856331825256 0.8667545914649963 0.46283039450645447
0.3924943506717682 0.8293343782424927 0.5374552011489868
0.3107207119464874 0.8678460121154785 0.5732898116111755
0.44470489025115967 0.7011027932167053 0.4449423551559448
0.33473196625709534 0.7385528683662415 0.4665263295173645
0.28334274888038635 0.8798718452453613 0.5513626337051392
0.2845706343650818 0.7332032918930054 0.4190371632575989
0.36781948804855347 0.7476795315742493 0.41596466302871704
0.3543337881565094 0.7714834809303284 0.46262428164482117
0.29475486278533936 0.865667462348938 0.5908285975456238
0.37562820315361023 0.8176292777061462 0.5169071555137634
0.2844456732273102 0.8702871203422546 0.5337511301040649
0.2743776738643646 0.8132400512695312 0.506558895111084
0.350633829832077 0.7417155504226685 0.4931335747241974
0.41740262508392334 0.7272696495056152 0.48242416977882385
0.3852695822715759 0.7597238421440125 0.5413587093353271
0.4251483976840973 0.7720237374305725 0.5844610929489136
0.4208192229270935 0.8420999050140381 0.4900820851325989
0.34912824630737305 0.7411924600601196 0.5736544728279114
0.2928876578807831 0.84181809425354 0.5123997330665588
0.3513605296611786 0.8453741073608398 0.49206769466400146
0.38967254757881165 0.8661531805992126 0.5860356688499451
0.32386207580566406 0.825394868850708 0.5947183966636658
0.2591410279273987 0.7175641655921936 0.5316205024719238
0.3404384255409241 0.8439575433731079 0.45192164182662964
0.32162243127822876 0.8903779983520508 0.5889290571212769
0.27205178141593933 0.7149407267570496 0.4962211549282074
0.31135740876197815 0.8038511276245117 0.5476536750793457
0.35733526945114136 0.8019728660583496 0.537922739982605
0.4417496621608734 0.768394947052002 0.48134931921958923
0.3597206175327301 0.8887630701065063 0.40746861696243286
0.3293474018573761 0.7700276374816895 0.507496178150177
0.42039868235588074 0.7397814393043518 0.4493878483772278
0.3407633304595947 0.7814538478851318 0.573580265045166
0.32205483317375183 0.745048463344574 0.48338809609413147
0.40140774846076965 0.747340977191925 0.5234672427177429
0.2637965977191925 0.8368791341781616 0.5905894041061401
0.2764621675014496 0.7818599939346313 0.4664420187473297
0.2514094114303589 0.8631118535995483 0.5638753175735474
0.419629842042923 0.7959898114204407 0.48436233401298523
0.379454106092453 0.7915928959846497 0.5566060543060303
0.34806209802627563 0.7462965250015259 0.4086745083332062
0.3300018906593323 0.7332848310470581 0.4423007071018219
0.43347978591918945 0.83538818359375 0.523303747177124
0.3547009825706482 0.8397918939590454 0.52064448595047
0.38004064559936523 0.6958028078079224 0.48769906163215637
0.36078888177871704 0.8408435583114624 0.5849829912185669
0.36301684379577637 0.774237334728241 0.5320816040039062
0.34397679567337036 0.820275068283081 0.4540305435657501
0.3374186158180237 0.7469854354858398 0.4110545516014099
0.2612304389476776 0.751365065574646 0.4738888144493103
0.32922273874282837 0.7762258052825928 0.40403127670288086
0.40377968549728394 0.8151550889015198 0.46009331941604614
0.26111286878585815 0.7920364141464233 0.5161023736000061
0.3520396053791046 0.7433683276176453 0.5214951038360596
0.4344055652618408 0.8026537895202637 0.5340845584869385
0.446382611989975 0.7545640468597412 0.4241732060909271
0.27957871556282043 0.7148028016090393 0.4106532633304596
0.33837512135505676 0.8210024237632751 0.42576876282691956
0.2509540915489197 0.798268735408783 0.4834222197532654
0.3656299412250519 0.7555786371231079 0.5387894511222839
0.4292196035385132 0.7907198667526245 0.4505249857902527
0.4021036922931671 0.7074877619743347 0.4736902415752411
0.34912824630737305 0.7411924600601196 0.5736544728279114
0.2713578939437866 0.7859671711921692 0.45566532015800476
0.28910401463508606 0.8157123923301697 0.4834796190261841
0.35564565658569336 0.8632177710533142 0.4856475293636322
0.4148462414741516 0.8147413730621338 0.5783178210258484
0.3623010814189911 0.763917088508606 0.5779816508293152
0.44886526465415955 0.799149215221405 0.4221987724304199
0.3446153402328491 0.8624804615974426 0.40045154094696045
0.3115110695362091 0.877586841583252 0.5685585737228394
0.3032299280166626 0.8624581694602966 0.5034357905387878
0.3071819543838501 0.6942164301872253 0.41104787588119507
0.3782806098461151 0.7533936500549316 0.5137526988983154
0.4153386652469635 0.8687440156936646 0.5482380390167236
0.449964314699173 0.7363077402114868 0.5892888903617859
0.3889593482017517 0.8631563186645508 0.45625635981559753
0.44785788655281067 0.8380301594734192 0.522661566734314
0.4240947663784027 0.7310868501663208 0.4234883487224579
0.3601967990398407 0.8729729056358337 0.5296040177345276
0.28830817341804504 0.8615232706069946 0.5464985966682434
0.2909683287143707 0.7382248640060425 0.5728529095649719
0.3107180595397949 0.8831602931022644 0.4694635272026062
0.3467952609062195 0.7972838878631592 0.5264995098114014
0.3992433249950409 0.8761281967163086 0.5872711539268494
0.26597416400909424 0.8737456798553467 0.530361533164978
0.44373825192451477 0.8166841268539429 0.44120970368385315
0.442343533039093 0.7589552402496338 0.5785189270973206
0.37562820315361023 0.8176292777061462 0.5169071555137634
0.3950916826725006 0.8522840142250061 0.5654747486114502
0.36930516362190247 0.8693699240684509 0.5428433418273926
0.27411678433418274 0.7364675402641296 0.4937155544757843
0.3493141531944275 0.8124064803123474 0.4099506437778473
0.4236659109592438 0.7648058533668518 0.5027952194213867
0.33374306559562683 0.8709490299224854 0.4797666370868683
0.3460381031036377 0.8077959418296814 0.5258204936981201
0.2591410279273987 0.7175641655921936 0.5316205024719238
0.337038516998291 0.8495392799377441 0.4309864342212677
0.30905553698539734 0.7681999802589417 0.43491676449775696
0.302825391292572 0.8321412205696106 0.4573327898979187
0.4321131706237793 0.7487984895706177 0.5172058343887329
0.3320150077342987 0.75944584608078 0.5210002064704895
0.31462883949279785 0.8798316717147827 0.5378019213676453
0.2753138542175293 0.8333079218864441 0.5780448317527771
0.3695158362388611 0.7033856511116028 0.44871243834495544
0.3030402660369873 0.705165445804596 0.5901241898536682
0.2625848650932312 0.7723720669746399 0.5025514364242554
0.41142821311950684 0.6935907602310181 0.4367328882217407
0.35984164476394653 0.8313173055648804 0.44705456495285034
0.28518712520599365 0.7731521129608154 0.4370928406715393
0.4050159454345703 0.8385725021362305 0.5203123688697815
0.32606568932533264 0.8876711130142212 0.4011429250240326
0.37142303586006165 0.713793158531189 0.44210726022720337
0.3784976005554199 0.7709386944770813 0.4056342542171478
0.2580338716506958 0.792247474193573 0.5083964467048645
0.29937124252319336 0.780703604221344 0.55401611328125
0.3916960060596466 0.7140923142433167 0.560601532459259
0.28151121735572815 0.7822443842887878 0.5755218267440796
0.38748231530189514 0.7265811562538147 0.41102293133735657
0.3660281300544739 0.7608544230461121 0.4478943347930908
0.4251483976840973 0.7720237374305725 0.5844610929489136
0.4208192229270935 0.8420999050140381 0.4900820851325989
0.3615052402019501 0.7732712030410767 0.46668416261672974
0.44990941882133484 0.8190355896949768 0.47254621982574463
0.41367751359939575 0.739937961101532 0.5056270360946655
0.253518670797348 0.8671793341636658 0.5694490671157837
0.4013495445251465 0.7347549796104431 0.44389477372169495
0.4170268177986145 0.8639916181564331 0.5623570084571838
0.3566746413707733 0.7382642030715942 0.514354407787323
0.41207078099250793 0.7165259718894958 0.4036828577518463
0.3333246409893036 0.734123945236206 0.415919691324234
0.4183429181575775 0.8909247517585754 0.46628618240356445
0.2672930359840393 0.7065089344978333 0.5003760457038879
0.3680551052093506 0.8278109431266785 0.4892693758010864
0.2836289405822754 0.7666705250740051 0.584293007850647
0.35595589876174927 0.8824069499969482 0.49922695755958557
0.3900977671146393 0.849526047706604 0.41558802127838135
0.34525609016418457 0.7608517408370972 0.55926114320755
0.3017407953739166 0.7614713907241821 0.48000720143318176
0.40794867277145386 0.806166410446167 0.5842804312705994
0.26045528054237366 0.8204428553581238 0.47555479407310486
0.3528372049331665 0.7941293716430664 0.5308290719985962
0.3322908282279968 0.8742167949676514 0.46631258726119995
0.30236929655075073 0.8002862334251404 0.4331599771976471
0.34597498178482056 0.7892701029777527 0.5717616081237793
0.34985923767089844 0.8532697558403015 0.5645872950553894
0.4247453212738037 0.7296765446662903 0.47470104694366455
0.432812362909317 0.7756562829017639 0.4718643128871918
0.4424265921115875 0.8682256937026978 0.4969104826450348
0.4036160707473755 0.7537018060684204 0.47859668731689453
0.3032151758670807 0.7978208661079407 0.5959801077842712
0.3868694007396698 0.8526148796081543 0.5587431192398071
0.30043888092041016 0.8070828318595886 0.5088043212890625
0.2837736904621124 0.710196316242218 0.4667793810367584
0.44264161586761475 0.7337027788162231 0.549027144908905
0.2897910475730896 0.7639713287353516 0.467357873916626
0.43544673919677734 0.8255380988121033 0.5251840353012085
0.3077549934387207 0.7672232985496521 0.46136000752449036
0.25984251499176025 0.7278937697410583 0.5683269500732422
0.40791112184524536 0.7065797448158264 0.5226531624794006
0.4318945109844208 0.8588917255401611 0.4782007038593292
0.38534095883369446 0.7079852819442749 0.48128119111061096
0.36135897040367126 0.891268789768219 0.5761442184448242
0.4230882525444031 0.6931796073913574 0.4456132650375366
0.26176828145980835 0.7980626225471497 0.5669317245483398
0.40489324927330017 0.7493090629577637 0.5101861357688904
0.29489850997924805 0.872845470905304 0.5190132856369019
0.31907111406326294 0.8589317798614502 0.40229377150535583
0.28437748551368713 0.7316915392875671 0.482452392578125
0.26892197132110596 0.737318217754364 0.5567108392715454
0.43793660402297974 0.7195132970809937 0.46880292892456055
0.27878907322883606 0.8397805094718933 0.4762601852416992
0.3924523591995239 0.7621523141860962 0.49239352345466614
0.43829599022865295 0.8825510740280151 0.4159229099750519
0.3487847149372101 0.8325294256210327 0.4228855073451996
0.44844675064086914 0.7034815549850464 0.5813833475112915
0.3769933581352234 0.829294741153717 0.568954348564148
0.2560954689979553 0.8527913093566895 0.4697013795375824
0.3698384165763855 0.8900682330131531 0.5025038123130798
0.326535165309906 0.8566462993621826 0.5431960225105286
0.36317041516304016 0.7468951940536499 0.5500950813293457
0.27538883686065674 0.7788844108581543 0.46874481439590454
0.3259192407131195 0.8385031819343567 0.5679442286491394
0.31311482191085815 0.777650773525238 0.5791436433792114
0.2799205482006073 0.7214810252189636 0.5914307236671448
0.3822267949581146 0.8894261717796326 0.44121605157852173
0.4372906982898712 0.7442458868026733 0.4547305107116699
0.36120349168777466 0.8378655910491943 0.5457417368888855
0.3613385260105133 0.8381214141845703 0.4070768356323242
0.41689467430114746 0.7433189153671265 0.4900345802307129
0.2613348662853241 0.7234115600585938 0.5488302707672119
0.29526713490486145 0.7250176668167114 0.5514698028564453
0.32723501324653625 0.6960330009460449 0.5117710828781128
0.3735377788543701 0.7057487964630127 0.545896589756012
0.42508113384246826 0.8150938153266907 0.5472209453582764
0.41007137298583984 0.8868854641914368 0.5350968241691589
0.3705374002456665 0.771864652633667 0.4824014902114868
0.3918040692806244 0.7700465321540833 0.4375385344028473
0.3650587499141693 0.7341863512992859 0.5632960200309753
0.35349202156066895 0.7220027446746826 0.45259496569633484
0.3905133605003357 0.8847604990005493 0.45454591512680054
0.37449079751968384 0.8550313115119934 0.4005093276500702
0.40347790718078613 0.8058498501777649 0.5997641086578369
0.4128449857234955 0.8002837300300598 0.4139135181903839
0.3466644585132599 0.7275435924530029 0.5422473549842834
0.42266374826431274 0.79217928647995 0.40602704882621765
0.28270596265792847 0.8731883764266968 0.5247274041175842
0.2752242982387543 0.8565292954444885 0.523140549659729
0.2951575219631195 0.7635865807533264 0.503299355506897
0.42630913853645325 0.8324113488197327 0.5004026293754578
0.40940678119659424 0.7477084994316101 0.5663909912109375
0.30908146500587463 0.861519992351532 0.43746644258499146
0.2873300015926361 0.8081666827201843 0.4837286174297333
0.42830193042755127 0.8008508682250977 0.598758339881897
0.3152953088283539 0.7358195781707764 0.4576337933540344
0.31311482191085815 0.777650773525238 0.5791436433792114
0.40800538659095764 0.8865797519683838 0.4703259766101837
0.42753198742866516 0.7300572395324707 0.4009823799133301
0.3006512224674225 0.7470067739486694 0.5658799409866333
0.40250590443611145 0.7285007834434509 0.580979585647583
0.3832128345966339 0.8520669937133789 0.4198310971260071
0.4116394519805908 0.792654812335968 0.5833596587181091
0.44941356778144836 0.6940119862556458 0.5074223875999451
0.4452376067638397 0.8655883073806763 0.48634830117225647
0.26924359798431396 0.8233096599578857 0.5469091534614563
0.42520666122436523 0.8837937712669373 0.5117285251617432
0.3324320614337921 0.8378559350967407 0.40635403990745544
0.36995866894721985 0.8755286335945129 0.5245190262794495
0.3697553277015686 0.7706800699234009 0.4469250440597534
0.39659878611564636 0.7753728628158569 0.4053913950920105
0.39459362626075745 0.725269615650177 0.5446804761886597
0.35817548632621765 0.8282778859138489 0.5007222890853882
0.3942795395851135 0.7972643971443176 0.5580533742904663
0.28686341643333435 0.8895217180252075 0.4484785497188568
0.3528323173522949 0.8834754824638367 0.5767302513122559
0.3593710660934448 0.8867093920707703 0.4041840434074402
0.43189454078674316 0.7466949820518494 0.4327220320701599
0.3066840171813965 0.7365184426307678 0.44723132252693176
0.251290887594223 0.7404216527938843 0.4449435770511627
0.3848596215248108 0.8070718050003052 0.4738091230392456
0.32247141003608704 0.6980070471763611 0.4252997040748596
0.3880252242088318 0.8521661758422852 0.40056484937667847
0.26126450300216675 0.8662092685699463 0.4726772904396057
0.37455764412879944 0.8622547388076782 0.41959962248802185
0.3428724408149719 0.8083919882774353 0.5796236991882324
0.2781278192996979 0.8579366207122803 0.5434615015983582
0.2864401340484619 0.8809299468994141 0.4627664089202881
0.4021036922931671 0.7074877619743347 0.4736902415752411
0.3176394999027252 0.7208001017570496 0.5237350463867188
0.2781278192996979 0.8579366207122803 0.5434615015983582
0.2864401340484619 0.8809299468994141 0.4627664089202881
0.4423908293247223 0.8493502736091614 0.5586976408958435
0.37247979640960693 0.7016488313674927 0.5999109745025635
0.25486013293266296 0.8358883857727051 0.4671074450016022
0.3045569062232971 0.7940200567245483 0.5182276368141174
0.4373793601989746 0.6956803202629089 0.5096065402030945
0.3982144594192505 0.8852307796478271 0.420423299074173
0.4101569950580597 0.8322737812995911 0.5391895771026611
0.31001806259155273 0.8634021282196045 0.5061358213424683
0.3055356442928314 0.7852422595024109 0.5259181261062622
0.34556710720062256 0.807735800743103 0.5618809461593628
0.25658801198005676 0.8756607174873352 0.4035482108592987
0.3270188868045807 0.737257719039917 0.5351788401603699
0.29283207654953003 0.8883673548698425 0.48719120025634766
0.3232842981815338 0.8753020763397217 0.44243600964546204
0.35934674739837646 0.8313008546829224 0.40144819021224976
0.3065635859966278 0.7855145335197449 0.4814226031303406
0.39661142230033875 0.8475123643875122 0.45324650406837463
0.4318694472312927 0.7153767943382263 0.41554543375968933
0.3346574902534485 0.854933500289917 0.536696195602417
0.3505098819732666 0.7047296166419983 0.41160106658935547
0.38149791955947876 0.7363405227661133 0.5719306468963623
0.2921674847602844 0.7139663696289062 0.4910678267478943
0.2785334587097168 0.8505165576934814 0.5180439352989197
0.2785334587097168 0.8505165576934814 0.5180439352989197
0.33266744017601013 0.771555483341217 0.4370146095752716
0.348855584859848 0.8089372515678406 0.41116154193878174
0.348855584859848 0.8089372515678406 0.41116154193878174
0.34144553542137146 0.8158408999443054 0.4196564853191376
0.4321131706237793 0.7487984895706177 0.5172058343887329
0.4423908293247223 0.8493502736091614 0.5586976408958435
0.29078811407089233 0.8626886606216431 0.4779900014400482
0.3971041142940521 0.7262119650840759 0.5744733214378357
0.25486013293266296 0.8358883857727051 0.4671074450016022
0.3045569062232971 0.7940200567245483 0.5182276368141174
0.4373793601989746 0.6956803202629089 0.5096065402030945
0.3982144594192505 0.8852307796478271 0.420423299074173
0.4101569950580597 0.8322737812995911 0.5391895771026611
0.3782418966293335 0.7764573693275452 0.4790341258049011
0.3703482747077942 0.7030290961265564 0.470988005399704
0.3382089138031006 0.8308776617050171 0.5856645107269287
0.3055356442928314 0.7852422595024109 0.5259181261062622
0.34556710720062256 0.807735800743103 0.5618809461593628
0.25658801198005676 0.8756607174873352 0.4035482108592987
0.3270188868045807 0.737257719039917 0.5351788401603699
0.3232842981815338 0.8753020763397217 0.44243600964546204
0.35934674739837646 0.8313008546829224 0.40144819021224976
0.3065635859966278 0.7855145335197449 0.4814226031303406
0.39661142230033875 0.8475123643875122 0.45324650406837463
0.4318694472312927 0.7153767943382263 0.41554543375968933
0.3346574902534485 0.854933500289917 0.536696195602417
0.3505098819732666 0.7047296166419983 0.41160106658935547
0.3310531973838806 0.8673768639564514 0.45006734132766724
0.38149791955947876 0.7363405227661133 0.5719306468963623
0.2921674847602844 0.7139663696289062 0.4910678267478943
0.2785334587097168 0.8505165576934814 0.5180439352989197
0.33266744017601013 0.771555483341217 0.4370146095752716
0.348855584859848 0.8089372515678406 0.41116154193878174
0.28024858236312866 0.7180137038230896 0.43770915269851685
0.34144553542137146 0.8158408999443054 0.4196564853191376
0.2695953845977783 0.701639711856842 0.5795549154281616
0.4321131706237793 0.7487984895706177 0.5172058343887329
0.3249231278896332 0.8418216109275818 0.5373578071594238
0.28762921690940857 0.7645038962364197 0.4861110746860504
0.31031960248947144 0.7291116118431091 0.5478324890136719
0.26615387201309204 0.8749832510948181 0.5225259065628052
0.4320920407772064 0.8257440328598022 0.5479069948196411
0.3634606599807739 0.8620640635490417 0.526163637638092
0.36057308316230774 0.8521837592124939 0.5548937320709229
0.3585825562477112 0.7450463771820068 0.4343499541282654
0.4108861982822418 0.8226441144943237 0.4872317314147949
0.35437631607055664 0.7314677834510803 0.5403580665588379
0.37231433391571045 0.8503904938697815 0.4983227252960205
0.36165910959243774 0.8076736330986023 0.41642874479293823
0.3963884115219116 0.7608612775802612 0.40907052159309387
0.27836477756500244 0.8150346279144287 0.5339471101760864
0.30205339193344116 0.7074966430664062 0.5251023173332214
0.366538405418396 0.8456727862358093 0.5680796504020691
0.3396284878253937 0.8400033116340637 0.5124969482421875
0.348823606967926 0.8488014340400696 0.5070930123329163
0.44911253452301025 0.7836426496505737 0.5481194257736206
0.3676662743091583 0.7944909930229187 0.46753251552581787
0.3171721398830414 0.7211699485778809 0.4527628719806671
0.3729003965854645 0.7104974985122681 0.4441696107387543
0.28208237886428833 0.8499050140380859 0.4764964282512665
0.2614518702030182 0.8241730332374573 0.43615445494651794
0.27443718910217285 0.7599075436592102 0.4680390954017639
0.30093514919281006 0.7704644203186035 0.5230993032455444
0.33950093388557434 0.8185844421386719 0.4168735146522522
0.25112414360046387 0.7045415043830872 0.43271303176879883
0.44080519676208496 0.7620016932487488 0.441438227891922
0.3066840171813965 0.7365184426307678 0.44723132252693176
0.251290887594223 0.7404216527938843 0.4449435770511627
0.3032299280166626 0.8624581694602966 0.5034357905387878
0.4101569950580597 0.8322737812995911 0.5391895771026611
0.3782418966293335 0.7764573693275452 0.4790341258049011
0.3703482747077942 0.7030290961265564 0.470988005399704
0.3382089138031006 0.8308776617050171 0.5856645107269287
0.3055356442928314 0.7852422595024109 0.5259181261062622
0.34556710720062256 0.807735800743103 0.5618809461593628
0.446045458316803 0.8929836750030518 0.5057229995727539
0.41286754608154297 0.8036670088768005 0.4704006016254425
0.30303752422332764 0.7563320398330688 0.4124344289302826
0.39037150144577026 0.8769640326499939 0.4537574052810669
0.2748941481113434 0.8442016839981079 0.4586198031902313
0.3492889106273651 0.7982969284057617 0.5168685913085938
0.37443509697914124 0.7613621354103088 0.43783900141716003
0.2701849341392517 0.8314386010169983 0.4961671531200409
0.28941723704338074 0.814500629901886 0.40969547629356384
0.3934777081012726 0.7230883240699768 0.43012258410453796
0.3279064893722534 0.8725324869155884 0.4779258668422699
0.2938116192817688 0.8722437620162964 0.4053815007209778
0.36580973863601685 0.7409614324569702 0.40673592686653137
0.2567747235298157 0.7930290699005127 0.5692508220672607
0.2872955799102783 0.7485527992248535 0.5177265405654907
0.3360293209552765 0.8268507719039917 0.502231240272522
0.3626524806022644 0.7047022581100464 0.576225996017456
0.4197908043861389 0.8467528223991394 0.43426525592803955
0.33775973320007324 0.6948865056037903 0.44301679730415344
0.253915399312973 0.8395774364471436 0.45167994499206543
0.3167046308517456 0.7469276785850525 0.5266284942626953
0.4137697219848633 0.8018887639045715 0.42088547348976135
0.26518380641937256 0.8447176814079285 0.5508144497871399
0.25340262055397034 0.7702346444129944 0.5327281355857849
0.28868263959884644 0.8785586357116699 0.5743011236190796
0.3466644585132599 0.7275435924530029 0.5422473549842834
0.35832107067108154 0.8918609619140625 0.5786803960800171
0.40390709042549133 0.7868195176124573 0.4667837619781494
0.34970587491989136 0.8371050357818604 0.5125540494918823
0.26894670724868774 0.8146608471870422 0.4797074794769287
0.34676337242126465 0.7681695818901062 0.5277570486068726
0.4388251304626465 0.7568109035491943 0.4865921139717102
0.44262176752090454 0.8111176490783691 0.44013887643814087
0.4323306679725647 0.7782657742500305 0.5942738652229309
0.41123712062835693 0.7243697047233582 0.44560733437538147
0.3740127682685852 0.7645649313926697 0.5384010672569275
0.3503754734992981 0.8909608125686646 0.5657471418380737
0.3218863904476166 0.7013913989067078 0.471343070268631
0.41936105489730835 0.820699155330658 0.4276183843612671
0.4349306523799896 0.7846120595932007 0.5886356830596924
0.2727758586406708 0.7445998787879944 0.5424193143844604
0.42991554737091064 0.8479475378990173 0.4804830551147461
0.3594173789024353 0.7334828972816467 0.552386999130249
0.35600972175598145 0.7727182507514954 0.49203455448150635
0.42073339223861694 0.8611533641815186 0.45612308382987976
0.3226977288722992 0.8575462102890015 0.48421511054039
0.35212597250938416 0.8358910083770752 0.5908910036087036
0.4038306474685669 0.7952992916107178 0.5094080567359924
0.4030008316040039 0.7418219447135925 0.5164855122566223
0.3119718134403229 0.7342456579208374 0.5028238296508789
0.41913434863090515 0.7032756209373474 0.5615319609642029
0.38061484694480896 0.8234902620315552 0.42014506459236145
0.2817007899284363 0.8806106448173523 0.5142650604248047
0.40242087841033936 0.7781490683555603 0.43778133392333984
0.39176592230796814 0.8401575684547424 0.5358372330665588
0.3475152850151062 0.7881545424461365 0.5458644032478333
0.446045458316803 0.8929836750030518 0.5057229995727539
0.436892569065094 0.7504717111587524 0.5535041689872742
0.3081800043582916 0.8544682264328003 0.5811342597007751
0.2961558699607849 0.85316401720047 0.5818428993225098
0.4191451966762543 0.7872437238693237 0.44723421335220337
0.4102665185928345 0.7169085144996643 0.5956516265869141
0.3337172865867615 0.8345362544059753 0.5109360218048096
0.26578009128570557 0.7403098344802856 0.4996519982814789
0.2609650194644928 0.7933636903762817 0.4566107988357544
0.31902068853378296 0.7172390222549438 0.5315065383911133
0.31465452909469604 0.8478076457977295 0.41809216141700745
0.2795865833759308 0.7896749377250671 0.4054400324821472
0.28641802072525024 0.8834006190299988 0.5748421549797058
0.33525803685188293 0.8082123398780823 0.4537084996700287
0.425072580575943 0.7989152073860168 0.4936216175556183
0.408042848110199 0.8088589310646057 0.4409821033477783
0.43442487716674805 0.7907699942588806 0.4226452112197876
0.3500112295150757 0.8788596987724304 0.43840891122817993
0.4115941524505615 0.7574015855789185 0.49387964606285095
0.2564294636249542 0.791588544845581 0.4488973617553711
0.2666226923465729 0.8512711524963379 0.4589240550994873
0.400483638048172 0.8722602725028992 0.4021797478199005
0.26854628324508667 0.7272825837135315 0.5576871633529663
0.3592417240142822 0.77571702003479 0.44218185544013977
0.30939981341362 0.772278904914856 0.5346992015838623
0.33157283067703247 0.7719597220420837 0.4841662645339966
0.3679513931274414 0.8311827182769775 0.595853328704834
0.31049829721450806 0.7001644968986511 0.5542953610420227
0.39099711179733276 0.7750914096832275 0.5097153186798096
0.3764788508415222 0.8637908697128296 0.51059490442276
0.34768444299697876 0.8893845081329346 0.529318630695343
0.31851962208747864 0.77833092212677 0.41102132201194763
0.43259376287460327 0.7140694856643677 0.4462757110595703
0.3698384165763855 0.8900682330131531 0.5025038123130798
0.3120998442173004 0.8407513499259949 0.4102439284324646
0.3515682816505432 0.7249813079833984 0.581137478351593
0.2571522891521454 0.796306848526001 0.4650724530220032
0.344687283039093 0.7539782524108887 0.5143296122550964
0.36750468611717224 0.7856642007827759 0.4427777826786041
0.2744600474834442 0.8359956741333008 0.5462267398834229
0.3551267981529236 0.8776295781135559 0.5230420827865601
0.34438660740852356 0.7939425110816956 0.4682048261165619
0.28982019424438477 0.8540536761283875 0.405693918466568
0.2960043251514435 0.8329412341117859 0.5903310775756836
0.3895684480667114 0.8143464922904968 0.4706169366836548
0.3821411430835724 0.7346943020820618 0.5206971168518066
0.4236583113670349 0.7757447957992554 0.5606563687324524
0.3951857388019562 0.7225099802017212 0.5188032984733582
0.3081197142601013 0.765896201133728 0.5380464196205139
0.37526431679725647 0.852694034576416 0.5247570276260376
0.39419057965278625 0.8292371034622192 0.5009492635726929
0.38670268654823303 0.8101212382316589 0.5088951587677002
0.3291545510292053 0.7166328430175781 0.4997776448726654
0.4267823398113251 0.6998862624168396 0.506845235824585
0.31195777654647827 0.7941725850105286 0.5036576986312866
0.4433767795562744 0.8312199115753174 0.5613167881965637
0.344392865896225 0.8182965517044067 0.5744826793670654
0.4392567574977875 0.717372477054596 0.4267578721046448
0.2757508456707001 0.8493277430534363 0.4817192256450653
0.2871222198009491 0.8001061677932739 0.47303956747055054
0.37596917152404785 0.829993486404419 0.49874475598335266
0.4120921194553375 0.7954394817352295 0.4735719561576843
0.25426360964775085 0.7123456597328186 0.40656518936157227
0.3828248679637909 0.8168944120407104 0.4259811043739319
0.3236771523952484 0.8591641187667847 0.4929734170436859
0.40377968549728394 0.8151550889015198 0.46009331941604614
0.2516239583492279 0.824112594127655 0.5668616890907288
0.2761561870574951 0.8411295413970947 0.5927345156669617
0.3563153147697449 0.7874270081520081 0.5912245512008667
0.37310823798179626 0.8419215679168701 0.5495330095291138
0.33187198638916016 0.759177565574646 0.47937825322151184
0.42780426144599915 0.8599287867546082 0.5592061877250671
0.3646991550922394 0.8873536586761475 0.4266418516635895
0.3399515151977539 0.773260772228241 0.42784997820854187
0.32356640696525574 0.7360634207725525 0.4799571931362152
0.26165157556533813 0.696418285369873 0.5287920236587524
0.2549287974834442 0.7806077003479004 0.4195253551006317
0.3453909456729889 0.6970160603523254 0.41874563694000244
0.4380212128162384 0.7636274695396423 0.5503061413764954
0.40973585844039917 0.7750723958015442 0.5035598278045654
0.3295783996582031 0.7119233012199402 0.4934225380420685
0.35017287731170654 0.6947751641273499 0.4994364380836487
0.3864225745201111 0.8743098974227905 0.42995917797088623
0.3279343545436859 0.7307167649269104 0.5995234251022339
0.32661283016204834 0.7064578533172607 0.5013188123703003
0.3346843421459198 0.7965351343154907 0.5944309830665588
0.4440017640590668 0.8419415950775146 0.5030533075332642
0.35164502263069153 0.8785197734832764 0.5944830775260925
0.29982849955558777 0.7763415575027466 0.5255351662635803
0.4019170105457306 0.845385730266571 0.5355236530303955
0.4469340443611145 0.8164597153663635 0.429278701543808
0.3737374246120453 0.8872817158699036 0.5620282292366028
0.29547151923179626 0.8412263989448547 0.45276913046836853
0.3903295397758484 0.7110725045204163 0.5623084902763367
0.4165787696838379 0.8105180263519287 0.4207807779312134
0.28602349758148193 0.7426105737686157 0.46019846200942993
0.3231459856033325 0.8110586404800415 0.43065544962882996
0.36317041516304016 0.7468951940536499 0.5500950813293457
0.2817007899284363 0.8806106448173523 0.5142650604248047
0.40242087841033936 0.7781490683555603 0.43778133392333984
0.39176592230796814 0.8401575684547424 0.5358372330665588
0.446045458316803 0.8929836750030518 0.5057229995727539
0.41286754608154297 0.8036670088768005 0.4704006016254425
0.30303752422332764 0.7563320398330688 0.4124344289302826
0.39037150144577026 0.8769640326499939 0.4537574052810669
0.2748941481113434 0.8442016839981079 0.4586198031902313
0.3492889106273651 0.7982969284057617 0.5168685913085938
0.37443509697914124 0.7613621354103088 0.43783900141716003
0.3492889106273651 0.7982969284057617 0.5168685913085938
0.37443509697914124 0.7613621354103088 0.43783900141716003
0.2701849341392517 0.8314386010169983 0.4961671531200409
0.28941723704338074 0.814500629901886 0.40969547629356384
0.3934777081012726 0.7230883240699768 0.43012258410453796
0.3279064893722534 0.8725324869155884 0.4779258668422699
0.2938116192817688 0.8722437620162964 0.4053815007209778
0.36580973863601685 0.7409614324569702 0.40673592686653137
0.2567747235298157 0.7930290699005127 0.5692508220672607
0.2872955799102783 0.7485527992248535 0.5177265405654907
0.3360293209552765 0.8268507719039917 0.502231240272522
0.3626524806022644 0.7047022581100464 0.576225996017456
0.3953138589859009 0.8242378234863281 0.5902234315872192
0.32817888259887695 0.8638228178024292 0.4275110363960266
0.29097819328308105 0.8621624112129211 0.5526571273803711
0.31039348244667053 0.876054584980011 0.5117620825767517
0.3377753794193268 0.7670990824699402 0.5250759720802307
0.3214678168296814 0.8880047798156738 0.5612735748291016
0.38193684816360474 0.7393352389335632 0.5321899056434631
0.4265889823436737 0.7528632879257202 0.4765649139881134
0.3177396059036255 0.88055020570755 0.4349694848060608
0.2840862274169922 0.8110834360122681 0.4998551607131958
0.3951857388019562 0.7225099802017212 0.5188032984733582
0.3081197142601013 0.765896201133728 0.5380464196205139
0.3639257252216339 0.826603353023529 0.5408546328544617
0.3603508770465851 0.7974185347557068 0.5186710357666016
0.3291545510292053 0.7166328430175781 0.4997776448726654
0.4267823398113251 0.6998862624168396 0.506845235824585
0.31195777654647827 0.7941725850105286 0.5036576986312866
0.2695603370666504 0.7219166159629822 0.4060184359550476
0.29868537187576294 0.8733597993850708 0.5201509594917297
0.39111971855163574 0.8861443400382996 0.47859904170036316
0.37610432505607605 0.7024770379066467 0.5133213400840759
0.2757508456707001 0.8493277430534363 0.4817192256450653
0.3720938563346863 0.7108842730522156 0.5086401104927063
0.2871222198009491 0.8001061677932739 0.47303956747055054
0.37596917152404785 0.829993486404419 0.49874475598335266
0.25426360964775085 0.7123456597328186 0.40656518936157227
0.2922019064426422 0.8927057385444641 0.5914424061775208
0.3828248679637909 0.8168944120407104 0.4259811043739319
0.3236771523952484 0.8591641187667847 0.4929734170436859
0.3230746388435364 0.7829121351242065 0.5033220052719116
0.443941593170166 0.8785226941108704 0.5590981841087341
0.30862411856651306 0.840505063533783 0.45982033014297485
0.3973179757595062 0.8384466171264648 0.41006848216056824
0.41015440225601196 0.8891786336898804 0.5220685005187988
0.35568559169769287 0.7477912306785583 0.5600913166999817
0.31547510623931885 0.877663254737854 0.41018736362457275
0.36413559317588806 0.8289504051208496 0.42869338393211365
0.26680487394332886 0.7369130849838257 0.42627620697021484
0.4162529408931732 0.8635970950126648 0.5870091319084167
0.421129047870636 0.7872632741928101 0.5844990015029907
0.25450634956359863 0.7952253222465515 0.4500264823436737
0.4142712652683258 0.8828753232955933 0.5285348892211914
0.37310823798179626 0.8419215679168701 0.5495330095291138
0.33187198638916016 0.759177565574646 0.47937825322151184
0.42780426144599915 0.8599287867546082 0.5592061877250671
0.34635937213897705 0.723903477191925 0.42679789662361145
0.3782771825790405 0.7728171348571777 0.5474576950073242
0.3399515151977539 0.773260772228241 0.42784997820854187
0.3966617286205292 0.857504665851593 0.5548496246337891
0.4083787202835083 0.8217674493789673 0.4753270745277405
0.4140150845050812 0.8240574598312378 0.5619191527366638
0.38565772771835327 0.8870463967323303 0.5620352625846863
0.4095631539821625 0.716508686542511 0.590284526348114
0.2532227635383606 0.7244693040847778 0.43462592363357544
0.38775065541267395 0.8395918607711792 0.4195675551891327
0.3866095244884491 0.8030408620834351 0.5166606307029724
0.41334664821624756 0.8165826201438904 0.47575968503952026
0.337079256772995 0.7096596360206604 0.5244187116622925
0.29407238960266113 0.8702408075332642 0.5514113903045654
0.31908002495765686 0.7677106261253357 0.554253101348877
0.4023292362689972 0.845821738243103 0.5359101295471191
0.3432362675666809 0.7751399278640747 0.5637512803077698
0.40471112728118896 0.7030352354049683 0.563081681728363
0.4114767014980316 0.7224410176277161 0.48627394437789917
0.32587575912475586 0.8560165166854858 0.593973696231842
0.42921990156173706 0.7863263487815857 0.42080435156822205
