ply
format ascii 1.0
element vertex 824
property float x
property float y
property float z
end_header
0.5159132480621338 0.13618986308574677 0.5664616227149963
0.3855172097682953 0.223098024725914 0.537234365940094
0.5429273247718811 0.14796370267868042 0.40488821268081665
0.47420451045036316 0.13355907797813416 0.59711092710495
0.3982134759426117 0.16219061613082886 0.44481977820396423
0.5000792145729065 0.16700975596904755 0.4840317666530609
0.5423930883407593 0.12936073541641235 0.48064643144607544
0.5378819108009338 0.18990857899188995 0.45151662826538086
0.350115031003952 0.208067387342453 0.5769904255867004
0.48868468403816223 0.1049559935927391 0.6046907901763916
0.3568311631679535 0.13665051758289337 0.5227963924407959
0.5500415563583374 0.1247863695025444 0.580542266368866
0.43199166655540466 0.20363463461399078 0.48611417412757874
0.4554988145828247 0.24379929900169373 0.4322967827320099
0.39213502407073975 0.20666958391666412 0.4314671456813812
0.4212547242641449 0.17396284639835358 0.40000978112220764
0.42020177841186523 0.17003345489501953 0.5768179893493652
0.3715042769908905 0.1431797295808792 0.5394327640533447
0.5034986734390259 0.1687375158071518 0.41249677538871765
0.3549306392669678 0.10885032266378403 0.4047907888889313
0.5152761936187744 0.20568841695785522 0.5599177479743958
0.4174572825431824 0.2259363979101181 0.4772375524044037
0.5101011395454407 0.21796758472919464 0.4784657955169678
0.39032477140426636 0.1468946486711502 0.47734689712524414
0.5254721641540527 0.11153218150138855 0.40040847659111023
0.43311911821365356 0.2162207067012787 0.5368849039077759
0.4663558900356293 0.1450955867767334 0.45036646723747253
0.3857884705066681 0.1726987659931183 0.5037659406661987
0.4228748381137848 0.14970801770687103 0.5573728084564209
0.41763800382614136 0.14800427854061127 0.3929385542869568
0.5079817771911621 0.20427164435386658 0.4394053816795349
0.3864714205265045 0.1678871065378189 0.5540520548820496
0.36886703968048096 0.21403223276138306 0.5658763647079468
0.49823957681655884 0.19308523833751678 0.5310490727424622
0.5372976064682007 0.23268981277942657 0.5102102756500244
0.5373216867446899 0.1661481112241745 0.4125518798828125
0.46302857995033264 0.23100632429122925 0.4491453170776367
0.419685035943985 0.19455617666244507 0.47304075956344604
0.34754490852355957 0.19814056158065796 0.5868545174598694
0.43667298555374146 0.12224295735359192 0.44364896416664124
0.5159132480621338 0.13618986308574677 0.5664616227149963
0.3855172097682953 0.223098024725914 0.537234365940094
0.5429273247718811 0.14796370267868042 0.40488821268081665
0.4082329273223877 0.14184902608394623 0.4495871961116791
0.43484997749328613 0.10880580544471741 0.6031412482261658
0.4717683792114258 0.14959877729415894 0.423946350812912
0.3925977945327759 0.10759390145540237 0.47854727506637573
0.3742372989654541 0.1197325810790062 0.5839710831642151
0.5155526399612427 0.17288820445537567 0.4120539128780365
0.40792325139045715 0.2245446890592575 0.5654823780059814
0.4228891432285309 0.24019864201545715 0.4944362938404083
0.5205156803131104 0.13619135320186615 0.40544506907463074
0.5151873230934143 0.21490421891212463 0.5552182793617249
0.39530104398727417 0.11679733544588089 0.5625900626182556
0.5581427216529846 0.11362608522176743 0.5678142309188843
0.4770408272743225 0.17077720165252686 0.5789344906806946
0.35050588846206665 0.14807841181755066 0.4727689027786255
0.40995875000953674 0.12455900013446808 0.5683425664901733
0.5531709790229797 0.2263716608285904 0.41003820300102234
0.5343990325927734 0.2165663093328476 0.49910277128219604
0.4219944477081299 0.10332707315683365 0.5158895254135132
0.3529965579509735 0.12479442358016968 0.6076127886772156
0.39083626866340637 0.2394477277994156 0.4388187527656555
0.4544570744037628 0.11727824062108994 0.5579622387886047
0.44584420323371887 0.22655734419822693 0.597953200340271
0.3947463035583496 0.19677852094173431 0.4836832582950592
0.34337472915649414 0.11338946223258972 0.43560028076171875
0.3897102177143097 0.22051382064819336 0.41759443283081055
0.5047873258590698 0.16002051532268524 0.41552144289016724
0.47055619955062866 0.13073773682117462 0.3993082046508789
0.42175981402397156 0.1763426959514618 0.5255172252655029
0.4832831025123596 0.12823422253131866 0.4233771562576294
0.39074692130088806 0.20758375525474548 0.5587426424026489
0.4961012899875641 0.21211108565330505 0.44524675607681274
0.40671801567077637 0.13122807443141937 0.4235893785953522
0.5152761936187744 0.20568841695785522 0.5599177479743958
0.5185381174087524 0.1162564754486084 0.5005828142166138
0.5160295963287354 0.11989874392747879 0.5794436931610107
0.4341934323310852 0.12978482246398926 0.6079375147819519
0.40792325139045715 0.2245446890592575 0.5654823780059814
0.4228891432285309 0.24019864201545715 0.4944362938404083
0.5205156803131104 0.13619135320186615 0.40544506907463074
0.33853378891944885 0.10964197665452957 0.40172305703163147
0.3800143897533417 0.2502913475036621 0.4181317687034607
0.4291714131832123 0.1368526965379715 0.4253891408443451
0.5204809904098511 0.12209051102399826 0.5137436985969543
0.48221784830093384 0.2272685468196869 0.40972599387168884
0.4295155704021454 0.15512682497501373 0.5199836492538452
0.3947463035583496 0.19677852094173431 0.4836832582950592
0.34337472915649414 0.11338946223258972 0.43560028076171875
0.3897102177143097 0.22051382064819336 0.41759443283081055
0.5047873258590698 0.16002051532268524 0.41552144289016724
0.47055619955062866 0.13073773682117462 0.3993082046508789
0.3884263336658478 0.23819833993911743 0.5898205041885376
0.39074692130088806 0.20758375525474548 0.5587426424026489
0.4961012899875641 0.21211108565330505 0.44524675607681274
0.40671801567077637 0.13122807443141937 0.4235893785953522
0.37800806760787964 0.1548459231853485 0.5068711042404175
0.46579456329345703 0.11549996584653854 0.6093864440917969
0.4940287172794342 0.2318176031112671 0.5685850977897644
0.4640822410583496 0.23347772657871246 0.5154020190238953
0.5218300819396973 0.15633660554885864 0.42524024844169617
0.4468914866447449 0.21608099341392517 0.44042396545410156
0.5151045918464661 0.13643798232078552 0.5990179777145386
0.38963043689727783 0.23463031649589539 0.5431857109069824
0.43991178274154663 0.188419908285141 0.5960481762886047
0.5325066447257996 0.19549807906150818 0.43013814091682434
0.4372670352458954 0.18448729813098907 0.42141813039779663
0.48868468403816223 0.1049559935927391 0.6046907901763916
0.3568311631679535 0.13665051758289337 0.5227963924407959
0.49767372012138367 0.1775217354297638 0.4660551846027374
0.539033830165863 0.22369545698165894 0.5322587490081787
0.44097086787223816 0.121477410197258 0.45712462067604065
0.37665265798568726 0.18089313805103302 0.5185412764549255
0.3477328419685364 0.20853963494300842 0.4910566508769989
0.3964584767818451 0.19090785086154938 0.4091205894947052
0.5400400757789612 0.1613324135541916 0.5445117950439453
0.4548937678337097 0.10276788473129272 0.575977623462677
0.49918630719184875 0.1962345689535141 0.504690945148468
0.4673329293727875 0.1453644335269928 0.5775436758995056
0.558366596698761 0.11394915729761124 0.5340447425842285
0.4136752486228943 0.14638365805149078 0.5513883233070374
0.5448045134544373 0.2332897186279297 0.4808513820171356
0.4828234612941742 0.11324533820152283 0.4839714765548706
0.5294668078422546 0.2382563203573227 0.4546823501586914
0.502052366733551 0.21512271463871002 0.5583325624465942
0.40332144498825073 0.1807745099067688 0.5668420791625977
0.45970240235328674 0.1688414216041565 0.4609329104423523
0.3814338743686676 0.1522197723388672 0.5744666457176208
0.46579456329345703 0.11549996584653854 0.6093864440917969
0.4940287172794342 0.2318176031112671 0.5685850977897644
0.4640822410583496 0.23347772657871246 0.5154020190238953
0.5218300819396973 0.15633660554885864 0.42524024844169617
0.4468914866447449 0.21608099341392517 0.44042396545410156
0.5151045918464661 0.13643798232078552 0.5990179777145386
0.38963043689727783 0.23463031649589539 0.5431857109069824
0.43867090344429016 0.11348941177129745 0.4899355173110962
0.5325066447257996 0.19549807906150818 0.43013814091682434
0.4091961979866028 0.1684621125459671 0.5818598866462708
0.4913214445114136 0.10565077513456345 0.5109465718269348
0.344966322183609 0.13798703253269196 0.5355636477470398
0.4873971939086914 0.21101117134094238 0.476192831993103
0.39557865262031555 0.12327142804861069 0.4711129069328308
0.3582649528980255 0.10633240640163422 0.44683313369750977
0.43419328331947327 0.12356014549732208 0.4182267487049103
0.35612156987190247 0.15299642086029053 0.5442440509796143
0.5189598202705383 0.2353924661874771 0.5998263955116272
0.5185381174087524 0.1162564754486084 0.5005828142166138
0.5160295963287354 0.11989874392747879 0.5794436931610107
0.5460273027420044 0.21900831162929535 0.48112741112709045
0.37074723839759827 0.12220638245344162 0.4464419186115265
0.47052833437919617 0.13262736797332764 0.5592173933982849
0.35475778579711914 0.12608574330806732 0.5573462843894958
0.418438583612442 0.14742954075336456 0.48910459876060486
0.37665265798568726 0.18089313805103302 0.5185412764549255
0.3477328419685364 0.20853963494300842 0.4910566508769989
0.3964584767818451 0.19090785086154938 0.4091205894947052
0.508185863494873 0.12979675829410553 0.4993915259838104
0.4607132375240326 0.15785138309001923 0.510221004486084
0.37915703654289246 0.19662922620773315 0.4058373272418976
0.4358806908130646 0.1706249713897705 0.5204678773880005
0.4599980115890503 0.16398780047893524 0.47037211060523987
0.46051982045173645 0.13974629342556 0.4827137291431427
0.468703031539917 0.1856708973646164 0.5940889716148376
0.43092191219329834 0.1841292679309845 0.5501562356948853
0.3814202845096588 0.16924233734607697 0.5834301114082336
0.4716494381427765 0.10677646100521088 0.5281018614768982
0.45146313309669495 0.12731143832206726 0.45780184864997864
0.5328011512756348 0.21127398312091827 0.4449656307697296
0.5334333181381226 0.18559448421001434 0.3982659876346588
0.47670847177505493 0.18046456575393677 0.47908154129981995
0.3573421537876129 0.13909968733787537 0.3976579010486603
0.48906394839286804 0.17618313431739807 0.42422544956207275
0.5109596848487854 0.19171957671642303 0.42763054370880127
0.4937407374382019 0.17974604666233063 0.5329792499542236
0.5134037137031555 0.10808958113193512 0.4493568241596222
0.3695659041404724 0.13662615418434143 0.5403488278388977
0.48942163586616516 0.17056956887245178 0.5170026421546936
0.4564381241798401 0.18706166744232178 0.4244154989719391
0.37082502245903015 0.11277982592582703 0.44203537702560425
0.5470435619354248 0.20355574786663055 0.39979931712150574
0.4436796307563782 0.19247302412986755 0.5175893306732178
0.508185863494873 0.12979675829410553 0.4993915259838104
0.4607132375240326 0.15785138309001923 0.510221004486084
0.37915703654289246 0.19662922620773315 0.4058373272418976
0.4358806908130646 0.1706249713897705 0.5204678773880005
0.4599980115890503 0.16398780047893524 0.47037211060523987
0.46051982045173645 0.13974629342556 0.4827137291431427
0.468703031539917 0.1856708973646164 0.5940889716148376
0.43092191219329834 0.1841292679309845 0.5501562356948853
0.3814202845096588 0.16924233734607697 0.5834301114082336
0.4716494381427765 0.10677646100521088 0.5281018614768982
0.5274168848991394 0.19504572451114655 0.5530836582183838
0.5268381834030151 0.14330632984638214 0.3941977620124817
0.50738525390625 0.17949914932250977 0.5938252806663513
0.5367315411567688 0.16403642296791077 0.554362952709198
0.41632896661758423 0.20649974048137665 0.566497802734375
0.3790905773639679 0.2359854131937027 0.41804713010787964
0.544697642326355 0.1542963683605194 0.5847007036209106
0.3737971782684326 0.20179741084575653 0.5126979351043701
0.4350048303604126 0.13748836517333984 0.5616965293884277
0.3706921339035034 0.2508310377597809 0.4183789789676666
0.40835851430892944 0.12253182381391525 0.4294154644012451
0.3576105237007141 0.17267608642578125 0.5690885782241821
0.5086157917976379 0.2081385850906372 0.40994957089424133
0.48908138275146484 0.2159072309732437 0.529032289981842
0.5048040151596069 0.13677074015140533 0.4452618658542633
0.5446174144744873 0.15342000126838684 0.5408851504325867
0.3597884178161621 0.11677233874797821 0.4945226311683655
0.47011634707450867 0.19164547324180603 0.5784965753555298
0.4699964225292206 0.20929059386253357 0.4194802939891815
0.34924057126045227 0.1025761067867279 0.514248251914978
0.47645100951194763 0.10911539196968079 0.5454292297363281
0.5244222283363342 0.19101397693157196 0.4239426553249359
0.37372109293937683 0.16379109025001526 0.48037591576576233
0.359134703874588 0.16182804107666016 0.5267251133918762
0.5453926920890808 0.12162838876247406 0.45630598068237305
0.38380131125450134 0.11876367032527924 0.5320970416069031
0.526918351650238 0.23968489468097687 0.5981137752532959
0.5527015328407288 0.17636756598949432 0.5136141777038574
0.5021319389343262 0.15774472057819366 0.5342751741409302
0.3973442316055298 0.1871790736913681 0.5372791886329651
0.3820849061012268 0.22072654962539673 0.5048835277557373
0.5458325147628784 0.1054626852273941 0.5239269733428955
0.4487822651863098 0.18872502446174622 0.5701869130134583
0.5287187099456787 0.19959382712841034 0.4069252610206604
0.3511311709880829 0.21753448247909546 0.5054262280464172
0.5469557642936707 0.13686230778694153 0.44795170426368713
0.48875558376312256 0.18359805643558502 0.5860776305198669
0.4773731529712677 0.17566300928592682 0.5526610016822815
0.3718620240688324 0.14585687220096588 0.4708418548107147
0.39923804998397827 0.1367073655128479 0.437716543674469
0.4818698465824127 0.18460315465927124 0.4798668920993805
0.5414128303527832 0.10484002530574799 0.4545997977256775
0.5032239556312561 0.18515776097774506 0.5394760370254517
0.46202322840690613 0.12747064232826233 0.39009910821914673
0.39578893780708313 0.1589420884847641 0.5254508852958679
0.5245462656021118 0.11241380125284195 0.5343466401100159
0.36073049902915955 0.19040390849113464 0.5837400555610657
0.4849529266357422 0.12551960349082947 0.4264509081840515
0.4501519203186035 0.1141432374715805 0.4543234407901764
0.4016091227531433 0.22846971452236176 0.44135698676109314
0.5411877036094666 0.10701767355203629 0.4358231723308563
0.5105867981910706 0.13443194329738617 0.5611443519592285
0.4070645272731781 0.12097384035587311 0.42192012071609497
0.37996742129325867 0.21045134961605072 0.42344003915786743
0.43814077973365784 0.22481945157051086 0.5386340618133545
0.5124120116233826 0.10985586047172546 0.5481516718864441
0.41917604207992554 0.1293371170759201 0.5479972958564758
0.3485916256904602 0.1256280243396759 0.4901893436908722
0.36504101753234863 0.1256123036146164 0.5257943272590637
0.42194226384162903 0.2310754805803299 0.42494937777519226
0.4007079303264618 0.17729061841964722 0.40232014656066895
0.38849198818206787 0.11543697118759155 0.5708589553833008
0.5447344779968262 0.1836535930633545 0.5348824262619019
0.4911362826824188 0.1067410483956337 0.5594369173049927
0.5544033050537109 0.12048093229532242 0.4518502950668335
0.40171924233436584 0.1905597299337387 0.535072386264801
0.46280062198638916 0.10182833671569824 0.4716278612613678
0.4474565386772156 0.2200983315706253 0.5074162483215332
0.36253294348716736 0.11714527755975723 0.5962929725646973
0.4130558371543884 0.18163791298866272 0.4906240999698639
0.3554302155971527 0.19977934658527374 0.41079843044281006
0.4272383749485016 0.16588333249092102 0.43475645780563354
0.47539833188056946 0.14837494492530823 0.407269150018692
0.4538089632987976 0.1069767102599144 0.42291152477264404
0.41359618306159973 0.1267605870962143 0.4371788203716278
0.4770408272743225 0.17077720165252686 0.5789344906806946
0.43092191219329834 0.1841292679309845 0.5501562356948853
0.4308885931968689 0.16626904904842377 0.47522154450416565
0.5210410952568054 0.10639805346727371 0.4038839340209961
0.39594849944114685 0.13076725602149963 0.5256932377815247
0.5408276915550232 0.10674320161342621 0.5952336192131042
0.443183034658432 0.12734805047512054 0.5690268278121948
0.46107253432273865 0.16089215874671936 0.5473304986953735
0.40903162956237793 0.13779298961162567 0.47867944836616516
0.4283260703086853 0.12279597669839859 0.5058300495147705
0.3841874599456787 0.12532421946525574 0.397396445274353
0.3559218943119049 0.12127950042486191 0.5605403780937195
0.5307081341743469 0.17427285015583038 0.5698727369308472
0.4744178056716919 0.1897074580192566 0.5847594141960144
0.4067230522632599 0.1105056181550026 0.4106771945953369
0.41447675228118896 0.12498943507671356 0.5508018136024475
0.4880506694316864 0.1806725263595581 0.41243189573287964
0.4950525462627411 0.1720089316368103 0.5120537877082825
0.38018789887428284 0.11931578814983368 0.3992721736431122
0.410631000995636 0.13210910558700562 0.4930901825428009
0.43636029958724976 0.1357409805059433 0.40999314188957214
0.5363966226577759 0.10245004296302795 0.5948060750961304
0.4365064203739166 0.10399471968412399 0.4654073119163513
0.37044650316238403 0.11953689903020859 0.4784793257713318
0.5002554655075073 0.10640646517276764 0.42465734481811523
0.5533989071846008 0.17158274352550507 0.5730358958244324
0.4773731529712677 0.17566300928592682 0.5526610016822815
0.3718620240688324 0.14585687220096588 0.4708418548107147
0.39923804998397827 0.1367073655128479 0.437716543674469
0.4818698465824127 0.18460315465927124 0.4798668920993805
0.5414128303527832 0.10484002530574799 0.4545997977256775
0.5032239556312561 0.18515776097774506 0.5394760370254517
0.37665265798568726 0.18089313805103302 0.5185412764549255
0.37915703654289246 0.19662922620773315 0.4058373272418976
0.4358806908130646 0.1706249713897705 0.5204678773880005
0.4599980115890503 0.16398780047893524 0.47037211060523987
0.46243637800216675 0.1909348964691162 0.5869541764259338
0.43751925230026245 0.16007693111896515 0.5308638215065002
0.34857693314552307 0.17887255549430847 0.46835827827453613
0.5215368270874023 0.11652028560638428 0.549029529094696
0.4953785240650177 0.193071648478508 0.5324915051460266
0.46247974038124084 0.1271486133337021 0.423969566822052
0.5456092953681946 0.2412308305501938 0.5991683602333069
0.3839644193649292 0.10516031831502914 0.5195672512054443
0.3973802328109741 0.22554302215576172 0.5245974063873291
0.4414396286010742 0.10699475556612015 0.4164658188819885
0.5423911809921265 0.1456744372844696 0.43421098589897156
0.4676302373409271 0.13521161675453186 0.43141332268714905
0.40046313405036926 0.12239046394824982 0.5581011772155762
0.398404061794281 0.10610485821962357 0.6094794869422913
0.34957292675971985 0.13678951561450958 0.5404694080352783
0.4988865256309509 0.1324298083782196 0.5080887675285339
0.5542990565299988 0.18245668709278107 0.49004435539245605
0.4287427067756653 0.15765325725078583 0.6017413139343262
0.5327087640762329 0.1278706192970276 0.49466124176979065
0.4009130299091339 0.20751942694187164 0.4572526812553406
0.4929746389389038 0.23339739441871643 0.590880274772644
0.46553531289100647 0.24076245725154877 0.41715288162231445
0.4325864017009735 0.1367836445569992 0.49835824966430664
0.3696061372756958 0.22535112500190735 0.4486546218395233
0.5470072031021118 0.16880613565444946 0.46630656719207764
0.4310297667980194 0.1547151803970337 0.5093681216239929
0.48784393072128296 0.21882258355617523 0.433564692735672
0.4908581078052521 0.17998069524765015 0.39867812395095825
0.3477328419685364 0.20853963494300842 0.4910566508769989
0.41359618306159973 0.1267605870962143 0.4371788203716278
0.5518887639045715 0.13324174284934998 0.43140724301338196
0.3664973974227905 0.21080730855464935 0.5538547039031982
0.38535699248313904 0.23540468513965607 0.587928831577301
0.551422655582428 0.12254408001899719 0.4796401560306549
0.41678252816200256 0.11476799100637436 0.40318143367767334
0.4871335029602051 0.1840476095676422 0.4679611325263977
0.4993284046649933 0.20356246829032898 0.4999072253704071
0.40808770060539246 0.15332579612731934 0.433663547039032
0.5301124453544617 0.1718730628490448 0.5501294732093811
0.5281893014907837 0.13855817914009094 0.46577659249305725
0.4771523177623749 0.14728987216949463 0.46113118529319763
0.5440930724143982 0.10997483134269714 0.392873078584671
0.4859063923358917 0.14443954825401306 0.5883795022964478
0.48906394839286804 0.17618313431739807 0.42422544956207275
0.5109596848487854 0.19171957671642303 0.42763054370880127
0.4937407374382019 0.17974604666233063 0.5329792499542236
0.5134037137031555 0.10808958113193512 0.4493568241596222
0.3695659041404724 0.13662615418434143 0.5403488278388977
0.48942163586616516 0.17056956887245178 0.5170026421546936
0.4564381241798401 0.18706166744232178 0.4244154989719391
0.37082502245903015 0.11277982592582703 0.44203537702560425
0.5470435619354248 0.20355574786663055 0.39979931712150574
0.4436796307563782 0.19247302412986755 0.5175893306732178
0.508185863494873 0.12979675829410553 0.4993915259838104
0.4607132375240326 0.15785138309001923 0.510221004486084
0.37915703654289246 0.19662922620773315 0.4058373272418976
0.4358806908130646 0.1706249713897705 0.5204678773880005
0.4599980115890503 0.16398780047893524 0.47037211060523987
0.46051982045173645 0.13974629342556 0.4827137291431427
0.468703031539917 0.1856708973646164 0.5940889716148376
0.3477328419685364 0.20853963494300842 0.4910566508769989
0.48942163586616516 0.17056956887245178 0.5170026421546936
0.4564381241798401 0.18706166744232178 0.4244154989719391
0.37082502245903015 0.11277982592582703 0.44203537702560425
0.5470435619354248 0.20355574786663055 0.39979931712150574
0.4436796307563782 0.19247302412986755 0.5175893306732178
0.4134281873703003 0.17570780217647552 0.5406323671340942
0.5317115783691406 0.13071177899837494 0.46849507093429565
0.465829998254776 0.17924168705940247 0.5598229169845581
0.4387805759906769 0.1891447901725769 0.43516823649406433
0.5138596296310425 0.11610203236341476 0.489889532327652
0.40834182500839233 0.11107368767261505 0.6052476763725281
0.42120322585105896 0.197640523314476 0.46385660767555237
0.47098228335380554 0.2119019627571106 0.4258866310119629
0.4286019504070282 0.16312861442565918 0.4082653522491455
0.4579695761203766 0.13267803192138672 0.4532979428768158
0.36198690533638 0.1098959743976593 0.5585941672325134
0.494925856590271 0.12918412685394287 0.4652096629142761
0.37010592222213745 0.11074119061231613 0.5095009207725525
0.34152019023895264 0.14075429737567902 0.47568079829216003
0.4147699177265167 0.13934826850891113 0.5261297225952148
0.5007206201553345 0.14242972433567047 0.4342517852783203
0.3865189552307129 0.19600418210029602 0.5522523522377014
0.42810937762260437 0.11894602328538895 0.534193217754364
0.44185104966163635 0.15797963738441467 0.6061869263648987
0.445171594619751 0.12017586827278137 0.606596827507019
0.4254835546016693 0.14449532330036163 0.46733778715133667
0.47784024477005005 0.1745143085718155 0.429355263710022
0.5551002621650696 0.1385679543018341 0.39792466163635254
0.47090959548950195 0.22499138116836548 0.5096437335014343
0.39560532569885254 0.1901220679283142 0.49041908979415894
0.5148206353187561 0.19203796982765198 0.48046401143074036
0.5310546159744263 0.11600877344608307 0.4610571265220642
0.42908069491386414 0.10395129770040512 0.5076130032539368
0.36260202527046204 0.17817525565624237 0.5393070578575134
0.4772135317325592 0.19747574627399445 0.5970730781555176
0.4029907286167145 0.22517384588718414 0.4003358781337738
0.5273239016532898 0.1301032155752182 0.4484391212463379
0.45236483216285706 0.14681574702262878 0.5614013075828552
0.42630109190940857 0.20160192251205444 0.5227282047271729
0.5329545140266418 0.10665880143642426 0.5754096508026123
0.5379412174224854 0.1235416978597641 0.45081570744514465
0.37632372975349426 0.22088925540447235 0.471487432718277
0.4158701002597809 0.18409588932991028 0.4319151043891907
0.5379412174224854 0.1235416978597641 0.45081570744514465
0.37632372975349426 0.22088925540447235 0.471487432718277
0.3677732050418854 0.17622339725494385 0.5412877798080444
0.5426455736160278 0.2303391844034195 0.5435093641281128
0.44282960891723633 0.13749100267887115 0.5559407472610474
0.4668092727661133 0.20814009010791779 0.41697239875793457
0.5426455736160278 0.2303391844034195 0.5435093641281128
0.44282960891723633 0.13749100267887115 0.5559407472610474
0.4668092727661133 0.20814009010791779 0.41697239875793457
0.5312178134918213 0.14577780663967133 0.5796090960502625
0.42936375737190247 0.2221294343471527 0.5792289972305298
0.4474587142467499 0.18285205960273743 0.3981039822101593
0.4474587142467499 0.18285205960273743 0.3981039822101593
0.5213735699653625 0.1882559061050415 0.5354973673820496
0.5168653130531311 0.11335670202970505 0.5857987403869629
0.5168222784996033 0.213611900806427 0.4074891209602356
0.48223909735679626 0.1631893366575241 0.42420443892478943
0.421195387840271 0.18925338983535767 0.5574016571044922
0.4729522466659546 0.11880604922771454 0.4509778618812561
0.5260608792304993 0.15141288936138153 0.47018688917160034
0.3814338743686676 0.1522197723388672 0.5744666457176208
0.5070740580558777 0.14906905591487885 0.40732473134994507
0.494773805141449 0.19364893436431885 0.40232887864112854
0.3444708585739136 0.12588359415531158 0.5241426229476929
0.4328799843788147 0.12129062414169312 0.5058720111846924
0.41940662264823914 0.1405491828918457 0.5167251825332642
0.4054078459739685 0.23166333138942719 0.5296890735626221
0.3916442096233368 0.1576123982667923 0.4244673550128937
0.3923986256122589 0.1795138120651245 0.5596302151679993
0.4850901663303375 0.1600879728794098 0.4281409680843353
0.35927116870880127 0.15154384076595306 0.5390874147415161
0.3579164743423462 0.22759076952934265 0.5028585195541382
0.3947247564792633 0.22033889591693878 0.5729832649230957
0.4432511627674103 0.16470253467559814 0.5136735439300537
0.4895281195640564 0.13779693841934204 0.5893629193305969
0.3994189500808716 0.16196994483470917 0.5187191963195801
0.5183115005493164 0.20829980075359344 0.4200613498687744
0.4177059531211853 0.1264958530664444 0.5542168617248535
0.4271976053714752 0.1998940259218216 0.4587998688220978
0.4000614583492279 0.1648317575454712 0.5924215316772461
0.3627815842628479 0.11531884223222733 0.6052960157394409
0.4590085744857788 0.11819812655448914 0.5995001196861267
0.48310917615890503 0.1212819367647171 0.480716735124588
0.35958248376846313 0.11328839510679245 0.4991522431373596
0.5474224090576172 0.1902361661195755 0.4535946547985077
0.5171425342559814 0.12445885688066483 0.5683876872062683
0.48412591218948364 0.16418740153312683 0.4507659673690796
0.509813129901886 0.24081064760684967 0.580992579460144
0.3886340260505676 0.23675483465194702 0.5901777148246765
0.397094190120697 0.24274201691150665 0.474500447511673
0.3548679053783417 0.19847923517227173 0.5591539740562439
0.5189971923828125 0.1073421761393547 0.41271349787712097
0.42677047848701477 0.17048780620098114 0.4742211401462555
0.4268738627433777 0.1182105541229248 0.47237470746040344
0.40096741914749146 0.12216302007436752 0.424164742231369
0.5483958721160889 0.13502995669841766 0.49637651443481445
0.40849220752716064 0.12996017932891846 0.4552536606788635
0.40849220752716064 0.12996017932891846 0.4552536606788635
0.40446144342422485 0.10837040096521378 0.543526291847229
0.5291752219200134 0.18623006343841553 0.43400758504867554
0.5438012480735779 0.16976715624332428 0.5825116038322449
0.43101128935813904 0.15335090458393097 0.514261782169342
0.5229616165161133 0.2251276671886444 0.5063849687576294
0.5460545420646667 0.11521615087985992 0.5744286775588989
0.5367415547370911 0.22529953718185425 0.41538241505622864
0.5164570808410645 0.15094690024852753 0.4316350221633911
0.5164570808410645 0.15094690024852753 0.4316350221633911
0.5399537682533264 0.19726060330867767 0.45944586396217346
0.36204642057418823 0.21868816018104553 0.4613705277442932
0.3674805760383606 0.11831057816743851 0.5480533242225647
0.5042864084243774 0.11185570061206818 0.401581346988678
0.5093315839767456 0.14158529043197632 0.548412024974823
0.3685995638370514 0.16752682626247406 0.5175730586051941
0.3685995638370514 0.16752682626247406 0.5175730586051941
0.48818331956863403 0.19882416725158691 0.49086645245552063
0.3481036126613617 0.2066587209701538 0.41215041279792786
0.5274393558502197 0.12261391431093216 0.4752945005893707
0.3890962302684784 0.11464425176382065 0.5087554454803467
0.397250771522522 0.2361059933900833 0.4084857404232025
0.397250771522522 0.2361059933900833 0.4084857404232025
0.37711265683174133 0.11291064321994781 0.5853992104530334
0.46534785628318787 0.13829027116298676 0.5254165530204773
0.42797088623046875 0.15022872388362885 0.4479946494102478
0.5555081963539124 0.1643442064523697 0.39570125937461853
0.39660775661468506 0.2435680478811264 0.48104196786880493
0.3694474399089813 0.15247482061386108 0.41840872168540955
0.5027603507041931 0.19788558781147003 0.561693549156189
0.3502517342567444 0.11039373278617859 0.3905320465564728
0.45392364263534546 0.15069322288036346 0.5474299788475037
0.4186110198497772 0.1769389659166336 0.4531056582927704
0.37926948070526123 0.16515371203422546 0.543359637260437
0.48228785395622253 0.11583146452903748 0.5515648126602173
0.4717337489128113 0.1126965656876564 0.4193483889102936
0.4570368826389313 0.14009051024913788 0.6062827110290527
0.4640759825706482 0.20651088654994965 0.5094699263572693
0.5205674767494202 0.1241806373000145 0.48214221000671387
0.49713894724845886 0.11194515973329544 0.3991723954677582
0.550836443901062 0.15509171783924103 0.4031384587287903
0.512513279914856 0.13210098445415497 0.5599215030670166
0.5228152871131897 0.23931372165679932 0.5991939902305603
0.48619014024734497 0.12396316230297089 0.411152184009552
0.4393981397151947 0.11353858560323715 0.589500904083252
0.41168034076690674 0.192885160446167 0.5684484243392944
0.5505823493003845 0.14676305651664734 0.4655139744281769
0.5543724894523621 0.11705661565065384 0.4810960292816162
0.5214821100234985 0.17758174240589142 0.47703033685684204
0.34432339668273926 0.11546414345502853 0.4147125482559204
0.5587388277053833 0.10769257694482803 0.48864874243736267
0.3932825028896332 0.19501063227653503 0.4067659378051758
0.3555513322353363 0.15594951808452606 0.5520843267440796
0.38651108741760254 0.22399017214775085 0.5378217697143555
0.3683834671974182 0.10920823365449905 0.43110883235931396
0.556719958782196 0.11016462743282318 0.5237378478050232
0.4745011031627655 0.10229461640119553 0.4686410129070282
0.4947637915611267 0.1480381190776825 0.4454461336135864
0.49352186918258667 0.18929851055145264 0.5975905060768127
0.551422655582428 0.12254408001899719 0.4796401560306549
0.3579164743423462 0.22759076952934265 0.5028585195541382
0.3947247564792633 0.22033889591693878 0.5729832649230957
0.4432511627674103 0.16470253467559814 0.5136735439300537
0.4895281195640564 0.13779693841934204 0.5893629193305969
0.3994189500808716 0.16196994483470917 0.5187191963195801
0.5183115005493164 0.20829980075359344 0.4200613498687744
0.49674996733665466 0.13927848637104034 0.5210951566696167
0.4000614583492279 0.1648317575454712 0.5924215316772461
0.3627815842628479 0.11531884223222733 0.6052960157394409
0.4590085744857788 0.11819812655448914 0.5995001196861267
0.48310917615890503 0.1212819367647171 0.480716735124588
0.35958248376846313 0.11328839510679245 0.4991522431373596
0.5474224090576172 0.1902361661195755 0.4535946547985077
0.5171425342559814 0.12445885688066483 0.5683876872062683
0.48412591218948364 0.16418740153312683 0.4507659673690796
0.509813129901886 0.24081064760684967 0.580992579460144
0.51651531457901 0.21953022480010986 0.4019365608692169
0.5155477523803711 0.10604443401098251 0.39999687671661377
0.5095946192741394 0.12794896960258484 0.5291672348976135
0.5012978911399841 0.12389903515577316 0.5089395642280579
0.37872034311294556 0.18105940520763397 0.5806724429130554
0.365689218044281 0.1544756442308426 0.43491822481155396
0.36641719937324524 0.2016129344701767 0.5153786540031433
0.398537278175354 0.10958907753229141 0.5621247291564941
0.5143021941184998 0.10107747465372086 0.46349215507507324
0.3512438237667084 0.22217583656311035 0.5078833103179932
0.3708251714706421 0.21862231194972992 0.5584657788276672
0.5401711463928223 0.20742270350456238 0.5460788011550903
0.4839855432510376 0.1377602219581604 0.5998370051383972
0.4316175878047943 0.12347571551799774 0.5399976372718811
0.530258059501648 0.1308899223804474 0.4832240641117096
0.4579695761203766 0.13267803192138672 0.4532979428768158
0.5089388489723206 0.20635151863098145 0.5995363593101501
0.44804802536964417 0.158063143491745 0.46392300724983215
0.4268738627433777 0.1182105541229248 0.47237470746040344
0.40096741914749146 0.12216302007436752 0.424164742231369
0.5483958721160889 0.13502995669841766 0.49637651443481445
0.40849220752716064 0.12996017932891846 0.4552536606788635
0.40446144342422485 0.10837040096521378 0.543526291847229
0.5291752219200134 0.18623006343841553 0.43400758504867554
0.5438012480735779 0.16976715624332428 0.5825116038322449
0.43101128935813904 0.15335090458393097 0.514261782169342
0.5229616165161133 0.2251276671886444 0.5063849687576294
0.5460545420646667 0.11521615087985992 0.5744286775588989
0.5367415547370911 0.22529953718185425 0.41538241505622864
0.5164570808410645 0.15094690024852753 0.4316350221633911
0.5399537682533264 0.19726060330867767 0.45944586396217346
0.36204642057418823 0.21868816018104553 0.4613705277442932
0.3674805760383606 0.11831057816743851 0.5480533242225647
0.5042864084243774 0.11185570061206818 0.401581346988678
0.5093315839767456 0.14158529043197632 0.548412024974823
0.3685995638370514 0.16752682626247406 0.5175730586051941
0.48818331956863403 0.19882416725158691 0.49086645245552063
0.3481036126613617 0.2066587209701538 0.41215041279792786
0.5274393558502197 0.12261391431093216 0.4752945005893707
0.3890962302684784 0.11464425176382065 0.5087554454803467
0.397250771522522 0.2361059933900833 0.4084857404232025
0.37711265683174133 0.11291064321994781 0.5853992104530334
0.46534785628318787 0.13829027116298676 0.5254165530204773
0.42797088623046875 0.15022872388362885 0.4479946494102478
0.44687867164611816 0.2371203601360321 0.5065203905105591
0.38789358735084534 0.13048265874385834 0.40922924876213074
0.5259186029434204 0.13149665296077728 0.5072457790374756
0.40046313405036926 0.12239046394824982 0.5581011772155762
0.5032239556312561 0.18515776097774506 0.5394760370254517
0.3798854649066925 0.21653300523757935 0.4266602694988251
0.3588971495628357 0.14519087970256805 0.6067444086074829
0.4709058403968811 0.20835457742214203 0.4651842415332794
0.4432005286216736 0.1598140448331833 0.4368455111980438
0.36936917901039124 0.230252206325531 0.596505343914032
0.5489246845245361 0.21679474413394928 0.5376074910163879
0.531244695186615 0.1413981020450592 0.48350927233695984
0.5239320397377014 0.20100241899490356 0.5851368308067322
0.5204775333404541 0.14901424944400787 0.5298328995704651
0.5424288511276245 0.1251591444015503 0.4536009132862091
0.5220807790756226 0.23522530496120453 0.46989789605140686
0.4478731155395508 0.16332155466079712 0.48334622383117676
0.48714253306388855 0.18628427386283875 0.46720942854881287
0.3609451353549957 0.17021292448043823 0.601969301700592
0.3701687455177307 0.1250779777765274 0.4001482427120209
0.3680976927280426 0.1777859777212143 0.4217682182788849
0.5026870369911194 0.18581856787204742 0.4399031400680542
0.4809725880622864 0.10923667252063751 0.523705244064331
0.3826487362384796 0.14176054298877716 0.557265043258667
0.4928715229034424 0.1387241780757904 0.5682520270347595
0.3955191969871521 0.10350236296653748 0.5991579294204712
0.425592303276062 0.168483167886734 0.4583677053451538
0.4695341885089874 0.24322067201137543 0.4215969145298004
0.45404160022735596 0.172888845205307 0.5388851165771484
0.4774002730846405 0.15934406220912933 0.5816987752914429
0.44507548213005066 0.2043275535106659 0.44386693835258484
0.3918208181858063 0.17400044202804565 0.5780525207519531
0.46181172132492065 0.1557871252298355 0.3992519974708557
0.5322151184082031 0.2414495050907135 0.5334122776985168
0.48531705141067505 0.1993257999420166 0.5195909142494202
0.4988865256309509 0.1324298083782196 0.5080887675285339
0.4381072521209717 0.14096921682357788 0.43464308977127075
0.4434404969215393 0.2282264679670334 0.5280296206474304
0.3514639437198639 0.11382109671831131 0.42505893111228943
0.37157323956489563 0.10995633900165558 0.542709231376648
0.4240925908088684 0.2104278802871704 0.519694983959198
0.4327138066291809 0.116727814078331 0.5210705995559692
0.4368150234222412 0.21360690891742706 0.43693870306015015
0.432285338640213 0.1079626977443695 0.47551533579826355
0.42908069491386414 0.10395129770040512 0.5076130032539368
0.36260202527046204 0.17817525565624237 0.5393070578575134
0.4772135317325592 0.19747574627399445 0.5970730781555176
0.4029907286167145 0.22517384588718414 0.4003358781337738
0.3725113570690155 0.18391133844852448 0.560635507106781
0.5273239016532898 0.1301032155752182 0.4484391212463379
0.45236483216285706 0.14681574702262878 0.5614013075828552
0.42630109190940857 0.20160192251205444 0.5227282047271729
0.5329545140266418 0.10665880143642426 0.5754096508026123
0.5379412174224854 0.1235416978597641 0.45081570744514465
0.37632372975349426 0.22088925540447235 0.471487432718277
0.3677732050418854 0.17622339725494385 0.5412877798080444
0.5426455736160278 0.2303391844034195 0.5435093641281128
0.44282960891723633 0.13749100267887115 0.5559407472610474
0.4668092727661133 0.20814009010791779 0.41697239875793457
0.5312178134918213 0.14577780663967133 0.5796090960502625
0.42936375737190247 0.2221294343471527 0.5792289972305298
0.4474587142467499 0.18285205960273743 0.3981039822101593
0.5213735699653625 0.1882559061050415 0.5354973673820496
0.5168653130531311 0.11335670202970505 0.5857987403869629
0.5168222784996033 0.213611900806427 0.4074891209602356
0.4640013873577118 0.17412981390953064 0.5417526960372925
0.48223909735679626 0.1631893366575241 0.42420443892478943
0.3511311709880829 0.21753448247909546 0.5054262280464172
0.4240925908088684 0.2104278802871704 0.519694983959198
0.4327138066291809 0.116727814078331 0.5210705995559692
0.4368150234222412 0.21360690891742706 0.43693870306015015
0.432285338640213 0.1079626977443695 0.47551533579826355
0.42908069491386414 0.10395129770040512 0.5076130032539368
0.36260202527046204 0.17817525565624237 0.5393070578575134
0.4772135317325592 0.19747574627399445 0.5970730781555176
0.4029907286167145 0.22517384588718414 0.4003358781337738
0.3725113570690155 0.18391133844852448 0.560635507106781
0.5273239016532898 0.1301032155752182 0.4484391212463379
0.45236483216285706 0.14681574702262878 0.5614013075828552
0.42630109190940857 0.20160192251205444 0.5227282047271729
0.5329545140266418 0.10665880143642426 0.5754096508026123
0.5379412174224854 0.1235416978597641 0.45081570744514465
0.37632372975349426 0.22088925540447235 0.471487432718277
0.3677732050418854 0.17622339725494385 0.5412877798080444
0.5426455736160278 0.2303391844034195 0.5435093641281128
0.44282960891723633 0.13749100267887115 0.5559407472610474
0.4668092727661133 0.20814009010791779 0.41697239875793457
0.5312178134918213 0.14577780663967133 0.5796090960502625
0.42936375737190247 0.2221294343471527 0.5792289972305298
0.4474587142467499 0.18285205960273743 0.3981039822101593
0.5213735699653625 0.1882559061050415 0.5354973673820496
0.5168653130531311 0.11335670202970505 0.5857987403869629
0.5168222784996033 0.213611900806427 0.4074891209602356
0.4640013873577118 0.17412981390953064 0.5417526960372925
0.48223909735679626 0.1631893366575241 0.42420443892478943
0.42301061749458313 0.2356451451778412 0.5039676427841187
0.5260608792304993 0.15141288936138153 0.47018688917160034
0.4178103804588318 0.1992979645729065 0.5673375725746155
0.49922218918800354 0.1373075693845749 0.5220934748649597
0.3798854649066925 0.21653300523757935 0.4266602694988251
0.4586333632469177 0.22588013112545013 0.5692006349563599
0.49321937561035156 0.10202907025814056 0.493801474571228
0.42128410935401917 0.23602546751499176 0.5482666492462158
0.3985106945037842 0.19387634098529816 0.42416149377822876
0.4796595871448517 0.139868825674057 0.5643198490142822
0.37161335349082947 0.16384267807006836 0.5219407677650452
0.47589585185050964 0.20502905547618866 0.540905773639679
0.4945719242095947 0.10091140866279602 0.46450307965278625
0.38776054978370667 0.1527085304260254 0.4132142663002014
0.535972535610199 0.13585904240608215 0.5409489870071411
0.5129675269126892 0.13483834266662598 0.5213907957077026
0.46562516689300537 0.22300781309604645 0.42156583070755005
0.5139276385307312 0.18218320608139038 0.49690425395965576
0.4703044295310974 0.20225206017494202 0.5975728631019592
0.36633870005607605 0.2098214030265808 0.4794379770755768
0.41322076320648193 0.20332308113574982 0.43345561623573303
0.3844064176082611 0.1356649249792099 0.46917837858200073
0.4664757251739502 0.22875183820724487 0.5020214319229126
0.4381072521209717 0.14096921682357788 0.43464308977127075
0.4434404969215393 0.2282264679670334 0.5280296206474304
0.3514639437198639 0.11382109671831131 0.42505893111228943
0.37157323956489563 0.10995633900165558 0.542709231376648
0.4240925908088684 0.2104278802871704 0.519694983959198
0.4327138066291809 0.116727814078331 0.5210705995559692
0.4368150234222412 0.21360690891742706 0.43693870306015015
0.432285338640213 0.1079626977443695 0.47551533579826355
0.42908069491386414 0.10395129770040512 0.5076130032539368
0.36260202527046204 0.17817525565624237 0.5393070578575134
0.4772135317325592 0.19747574627399445 0.5970730781555176
0.4029907286167145 0.22517384588718414 0.4003358781337738
0.3725113570690155 0.18391133844852448 0.560635507106781
0.3588971495628357 0.14519087970256805 0.6067444086074829
0.40519413352012634 0.2073681354522705 0.5475824475288391
0.465040385723114 0.10561682283878326 0.40963268280029297
0.489676833152771 0.2155451476573944 0.5023708939552307
0.4379939138889313 0.1628958284854889 0.48326241970062256
0.41601303219795227 0.22990137338638306 0.5676698684692383
0.5077828764915466 0.22887085378170013 0.4980256259441376
0.4010258615016937 0.12879706919193268 0.49027660489082336
0.43090295791625977 0.10780242085456848 0.5216684937477112
0.4439646303653717 0.1732124537229538 0.4423060417175293
0.5233176350593567 0.23043468594551086 0.5065683126449585
0.38789358735084534 0.13048265874385834 0.40922924876213074
0.4783068597316742 0.22348453104496002 0.5221508145332336
0.35145294666290283 0.1486475020647049 0.5247442722320557
0.41517648100852966 0.22413420677185059 0.48433929681777954
0.5110834836959839 0.12703202664852142 0.399846613407135
0.36313220858573914 0.22166746854782104 0.5248448848724365
0.35986942052841187 0.15874451398849487 0.4214293658733368
0.4949582815170288 0.10959377884864807 0.39841407537460327
0.5395658612251282 0.21231380105018616 0.4144689738750458
0.4723281264305115 0.22342175245285034 0.4835108816623688
0.41599953174591064 0.16123217344284058 0.44508200883865356
0.4530600607395172 0.16457250714302063 0.5858457684516907
0.5294924378395081 0.10536722838878632 0.5562072396278381
0.40734609961509705 0.10723569244146347 0.5405672788619995
0.39250800013542175 0.1620635837316513 0.3941729664802551
0.5387479066848755 0.17271102964878082 0.5572882890701294
0.5498661398887634 0.2207273542881012 0.41303420066833496
0.5247122049331665 0.1265019029378891 0.40889182686805725
0.42959529161453247 0.11812280863523483 0.5647333264350891
0.43962615728378296 0.12108658254146576 0.4466473162174225
0.3875458836555481 0.1705416887998581 0.4471113681793213
0.3865189552307129 0.19600418210029602 0.5522523522377014
0.44953206181526184 0.1325596421957016 0.4319296181201935
0.49566829204559326 0.17836104333400726 0.48539480566978455
0.4208999276161194 0.11033724993467331 0.4427942931652069
0.5154754519462585 0.19663764536380768 0.6003560423851013
0.41493475437164307 0.11888465285301208 0.554707944393158
0.4277106821537018 0.1477372944355011 0.6018352508544922
0.47346046566963196 0.10610906779766083 0.399528443813324
0.5102398991584778 0.18320569396018982 0.5915964841842651
0.5460284948348999 0.11387414485216141 0.4912756383419037
0.460112601518631 0.24042098224163055 0.4020532965660095
0.352014422416687 0.1857127696275711 0.5485360622406006
0.5011168122291565 0.18090367317199707 0.44709649682044983
0.4701026976108551 0.13830530643463135 0.5737473964691162
0.537891149520874 0.12446773052215576 0.52419513463974
0.3757314682006836 0.12263739109039307 0.5636272430419922
0.4323878288269043 0.10205864906311035 0.5200788974761963
0.36970311403274536 0.16426122188568115 0.5440749526023865
0.44344255328178406 0.12085465341806412 0.5972872376441956
0.3867226243019104 0.13284297287464142 0.46574628353118896
0.5549400448799133 0.15012137591838837 0.6000775098800659
0.44272491335868835 0.129044309258461 0.5043988823890686
0.41570985317230225 0.12798741459846497 0.5320097804069519
0.3941420912742615 0.24827881157398224 0.42545855045318604
0.36556628346443176 0.1157735139131546 0.46835511922836304
0.40465229749679565 0.24860970675945282 0.42640379071235657
0.36454394459724426 0.15377478301525116 0.47803282737731934
0.39350876212120056 0.14273713529109955 0.41262105107307434
0.4968220889568329 0.15372633934020996 0.3947695791721344
0.3753293454647064 0.24133019149303436 0.41315367817878723
0.5219974517822266 0.1457052081823349 0.5775091052055359
0.5112339854240417 0.20595668256282806 0.4001397490501404
0.3647482097148895 0.12154646962881088 0.5438829660415649
0.5089388489723206 0.20635151863098145 0.5995363593101501
0.44804802536964417 0.158063143491745 0.46392300724983215
0.4268738627433777 0.1182105541229248 0.47237470746040344
0.4268738627433777 0.1182105541229248 0.47237470746040344
0.40096741914749146 0.12216302007436752 0.424164742231369
0.5483958721160889 0.13502995669841766 0.49637651443481445
0.40849220752716064 0.12996017932891846 0.4552536606788635
0.40446144342422485 0.10837040096521378 0.543526291847229
0.5291752219200134 0.18623006343841553 0.43400758504867554
0.5438012480735779 0.16976715624332428 0.5825116038322449
0.43101128935813904 0.15335090458393097 0.514261782169342
0.5229616165161133 0.2251276671886444 0.5063849687576294
0.5460545420646667 0.11521615087985992 0.5744286775588989
0.5367415547370911 0.22529953718185425 0.41538241505622864
0.5164570808410645 0.15094690024852753 0.4316350221633911
0.5399537682533264 0.19726060330867767 0.45944586396217346
0.36204642057418823 0.21868816018104553 0.4613705277442932
0.3674805760383606 0.11831057816743851 0.5480533242225647
0.5042864084243774 0.11185570061206818 0.401581346988678
0.5093315839767456 0.14158529043197632 0.548412024974823
0.3685995638370514 0.16752682626247406 0.5175730586051941
0.48818331956863403 0.19882416725158691 0.49086645245552063
0.3481036126613617 0.2066587209701538 0.41215041279792786
0.5274393558502197 0.12261391431093216 0.4752945005893707
0.3890962302684784 0.11464425176382065 0.5087554454803467
0.397250771522522 0.2361059933900833 0.4084857404232025
0.37711265683174133 0.11291064321994781 0.5853992104530334
0.46534785628318787 0.13829027116298676 0.5254165530204773
0.42797088623046875 0.15022872388362885 0.4479946494102478
0.44687867164611816 0.2371203601360321 0.5065203905105591
0.38789358735084534 0.13048265874385834 0.40922924876213074
0.4964008331298828 0.17984797060489655 0.43426623940467834
0.397250771522522 0.2361059933900833 0.4084857404232025
0.37711265683174133 0.11291064321994781 0.5853992104530334
0.5485839247703552 0.15503887832164764 0.4705650210380554
0.46693184971809387 0.18152710795402527 0.5506150722503662
0.4201888144016266 0.21245579421520233 0.46507206559181213
0.3477001190185547 0.2031673938035965 0.5342365503311157
0.4649669826030731 0.1481126844882965 0.6007967591285706
0.5066063404083252 0.1895744800567627 0.5771743059158325
0.34974512457847595 0.10493595153093338 0.579945981502533
0.5023607015609741 0.16664806008338928 0.4858607351779938
0.4973544776439667 0.11223599314689636 0.45010533928871155
0.3688342571258545 0.14929477870464325 0.5161150693893433
