ply
format ascii 1.0
element vertex 824
property float x
property float y
property float z
end_header
0.4163035750389099 0.14317774772644043 0.589092493057251
0.52028888463974 0.13739706575870514 0.39844557642936707
0.5203268527984619 0.14125525951385498 0.455304354429245
0.527117133140564 0.11921563744544983 0.5784910917282104
0.5205533504486084 0.13609112799167633 0.5435473322868347
0.4459821879863739 0.2051803320646286 0.44064822793006897
0.3768210709095001 0.2141100913286209 0.42689594626426697
0.37983933091163635 0.17126990854740143 0.4329773187637329
0.4751330018043518 0.23327995836734772 0.5426112413406372
0.5339756011962891 0.11165432631969452 0.5506360530853271
0.39535290002822876 0.19700351357460022 0.4093032479286194
0.35346361994743347 0.1757819801568985 0.5048093199729919
0.4113397002220154 0.1849721521139145 0.5120738744735718
0.39836323261260986 0.11523335427045822 0.4114990532398224
0.4281391203403473 0.15916574001312256 0.5355836153030396
0.4647980034351349 0.10881717503070831 0.38930419087409973
0.43223774433135986 0.13473984599113464 0.425726979970932
0.3766478896141052 0.10881812125444412 0.4058176875114441
0.4225671589374542 0.16359548270702362 0.4615291655063629
0.4994904100894928 0.23444166779518127 0.4238663613796234
0.4529418647289276 0.19667421281337738 0.5662361979484558
0.36648669838905334 0.15933384001255035 0.47031664848327637
0.4737897217273712 0.2535555958747864 0.5267519354820251
0.48137202858924866 0.16453279554843903 0.4699118733406067
0.4515167772769928 0.22618785500526428 0.46209579706192017
0.47864559292793274 0.18827061355113983 0.5762161612510681
0.3904344439506531 0.17357072234153748 0.43083661794662476
0.4556865692138672 0.11280854046344757 0.40177541971206665
0.49328601360321045 0.2312064915895462 0.5763851404190063
0.4255327582359314 0.11143210530281067 0.540836751461029
0.3671274483203888 0.1289932131767273 0.5958324074745178
0.36968153715133667 0.17861612141132355 0.533845841884613
0.5310856103897095 0.21121551096439362 0.53538978099823
0.4232899248600006 0.22452908754348755 0.42224472761154175
0.3926073908805847 0.17847885191440582 0.48221907019615173
0.4135170578956604 0.18583057820796967 0.5436303019523621
0.3954795300960541 0.23781290650367737 0.5237821936607361
0.5348321199417114 0.11914500594139099 0.5718773007392883
0.5199565887451172 0.23270687460899353 0.5312885046005249
0.5199565887451172 0.23270687460899353 0.5312885046005249
0.4249579906463623 0.20082184672355652 0.5467860102653503
0.42173561453819275 0.13577446341514587 0.4894770383834839
0.48567652702331543 0.14686080813407898 0.5738351345062256
0.41492146253585815 0.10628440976142883 0.418901652097702
0.5296030044555664 0.17921505868434906 0.5304483771324158
0.4194989800453186 0.11457888036966324 0.534712553024292
0.47900864481925964 0.13733679056167603 0.5924359560012817
0.44827961921691895 0.18329545855522156 0.4496273696422577
0.5512759685516357 0.13439224660396576 0.4503306448459625
0.5200355648994446 0.1741858273744583 0.5559245347976685
0.47545960545539856 0.16478511691093445 0.5001260042190552
0.4511244595050812 0.11078119277954102 0.5298829674720764
0.5196956992149353 0.11753134429454803 0.39343637228012085
0.41909265518188477 0.19327175617218018 0.5079231858253479
0.3904866874217987 0.15293467044830322 0.46643590927124023
0.5394957661628723 0.10571135580539703 0.5179651379585266
0.4397048354148865 0.23725847899913788 0.4138810634613037
0.42370712757110596 0.1772080659866333 0.47490695118904114
0.48338329792022705 0.176089808344841 0.5822727680206299
0.4391114413738251 0.19544389843940735 0.44087329506874084
0.5085065960884094 0.24993111193180084 0.5464726090431213
0.5243789553642273 0.11436572670936584 0.6044869422912598
0.5281620621681213 0.16705840826034546 0.46149715781211853
0.4791353940963745 0.10483736544847488 0.5040460228919983
0.5461926460266113 0.1083877682685852 0.452689528465271
0.44056957960128784 0.18128277361392975 0.4405471980571747
0.5190948247909546 0.10486015677452087 0.5632151961326599
0.3697817027568817 0.11327378451824188 0.40021875500679016
0.4815584421157837 0.2135012149810791 0.5257197618484497
0.4172201454639435 0.12124805152416229 0.3935316503047943
0.43473565578460693 0.17072834074497223 0.5567229390144348
0.38853660225868225 0.21290932595729828 0.4200926423072815
0.49602213501930237 0.20697292685508728 0.5311409831047058
0.3933587670326233 0.16677609086036682 0.5700672268867493
0.46343091130256653 0.10567796975374222 0.4483233094215393
0.3778701424598694 0.10542183369398117 0.5770485401153564
0.5543041229248047 0.1311364769935608 0.4184643626213074
0.49052441120147705 0.17126421630382538 0.41941550374031067
0.34778761863708496 0.14904455840587616 0.4810769557952881
0.372723251581192 0.21894219517707825 0.5179911851882935
0.5415667295455933 0.21127010881900787 0.43260321021080017
0.38287094235420227 0.15957221388816833 0.6000891327857971
0.48048561811447144 0.16361016035079956 0.42117318511009216
0.36963003873825073 0.12247513979673386 0.5667092800140381
0.36022573709487915 0.22453218698501587 0.4417686462402344
0.5078275799751282 0.1886865496635437 0.4973156452178955
0.491750031709671 0.11446782201528549 0.5607196688652039
0.45115530490875244 0.1290222555398941 0.4549771845340729
0.5480961203575134 0.16404135525226593 0.40162914991378784
0.3731357157230377 0.23167549073696136 0.5350508093833923
0.35290491580963135 0.11289071291685104 0.5447520017623901
0.5410701632499695 0.14537374675273895 0.5701926350593567
0.3895942270755768 0.11524554342031479 0.5978437066078186
0.46457821130752563 0.2581012547016144 0.4806755483150482
0.38986095786094666 0.1895216852426529 0.4466765820980072
0.45678481459617615 0.1574113368988037 0.4016394019126892
0.4103500247001648 0.16598455607891083 0.41287457942962646
0.4499088227748871 0.17743845283985138 0.5146956443786621
0.5073694586753845 0.12693044543266296 0.5301303267478943
0.5289082527160645 0.24265559017658234 0.4627275764942169
0.4618908762931824 0.11556312441825867 0.46774590015411377
0.38937631249427795 0.21522006392478943 0.49406787753105164
0.4176047146320343 0.13053591549396515 0.4464643895626068
0.41519835591316223 0.2607569992542267 0.4288649559020996
0.4040706157684326 0.10640980303287506 0.4659092128276825
0.5104296803474426 0.21140314638614655 0.5482552647590637
0.44246113300323486 0.1420251727104187 0.5522034764289856
0.40594762563705444 0.2397644817829132 0.46886467933654785
0.42925605177879333 0.25296854972839355 0.5502150654792786
0.49444156885147095 0.2399579882621765 0.5855434536933899
0.49271878600120544 0.17170703411102295 0.5633647441864014
0.4614209830760956 0.11051482707262039 0.47054141759872437
0.4607750475406647 0.18109960854053497 0.5592257380485535
0.43108075857162476 0.20971696078777313 0.5711528062820435
0.38740837574005127 0.1342930644750595 0.5260832905769348
0.4201323091983795 0.10971034318208694 0.49412399530410767
0.5373428463935852 0.17873148620128632 0.5160747766494751
0.3697817027568817 0.11327378451824188 0.40021875500679016
0.4815584421157837 0.2135012149810791 0.5257197618484497
0.4172201454639435 0.12124805152416229 0.3935316503047943
0.43473565578460693 0.17072834074497223 0.5567229390144348
0.49602213501930237 0.20697292685508728 0.5311409831047058
0.3933587670326233 0.16677609086036682 0.5700672268867493
0.46343091130256653 0.10567796975374222 0.4483233094215393
0.4473298490047455 0.2314445525407791 0.5244724750518799
0.3778701424598694 0.10542183369398117 0.5770485401153564
0.49052441120147705 0.17126421630382538 0.41941550374031067
0.34778761863708496 0.14904455840587616 0.4810769557952881
0.34778761863708496 0.14904455840587616 0.4810769557952881
0.372723251581192 0.21894219517707825 0.5179911851882935
0.5415667295455933 0.21127010881900787 0.43260321021080017
0.38287094235420227 0.15957221388816833 0.6000891327857971
0.48048561811447144 0.16361016035079956 0.42117318511009216
0.378496378660202 0.18803469836711884 0.4796375632286072
0.36963003873825073 0.12247513979673386 0.5667092800140381
0.5097706913948059 0.16658054292201996 0.48832616209983826
0.5447039604187012 0.11376623064279556 0.4305446743965149
0.38546842336654663 0.2050563246011734 0.423189252614975
0.3717832863330841 0.24720193445682526 0.44412097334861755
0.5368947982788086 0.24221277236938477 0.4287276566028595
0.5412803888320923 0.12463538348674774 0.432935506105423
0.41010043025016785 0.2118329554796219 0.40735745429992676
0.5016856789588928 0.24125519394874573 0.5654498934745789
0.4190792739391327 0.1764003336429596 0.49734780192375183
0.47137412428855896 0.11886953562498093 0.458570271730423
0.3941709101200104 0.11147986352443695 0.45603129267692566
0.552608847618103 0.20777176320552826 0.4519300162792206
0.4660506546497345 0.23875904083251953 0.5353279113769531
0.417405366897583 0.2292475700378418 0.5313746333122253
0.4660506546497345 0.23875904083251953 0.5353279113769531
0.5180910229682922 0.21149973571300507 0.589112401008606
0.40920040011405945 0.21699312329292297 0.5225215554237366
0.4971697926521301 0.23276738822460175 0.4400429129600525
0.528145432472229 0.11095990985631943 0.4681951105594635
0.5285128355026245 0.23033951222896576 0.5796340107917786
0.3733229637145996 0.16602692008018494 0.40230098366737366
0.5300859212875366 0.2141057401895523 0.4044649302959442
0.5156696438789368 0.11285080015659332 0.5551968216896057
0.43309319019317627 0.12314201891422272 0.4252966642379761
0.43077942728996277 0.19623608887195587 0.4464731514453888
0.44339218735694885 0.24546657502651215 0.44311657547950745
0.4719153642654419 0.11751756817102432 0.5229953527450562
0.38171690702438354 0.24044272303581238 0.536798357963562
0.3578130006790161 0.12868371605873108 0.4344804286956787
0.5523839592933655 0.24907775223255157 0.5039706230163574
0.5523839592933655 0.24907775223255157 0.5039706230163574
0.3709971308708191 0.24230651557445526 0.5235363245010376
0.3972924053668976 0.2587433159351349 0.41560593247413635
0.36237362027168274 0.1045665591955185 0.5751241445541382
0.5209444165229797 0.23448757827281952 0.5843533277511597
0.5306100249290466 0.21122640371322632 0.5848788619041443
0.3788805603981018 0.2617032527923584 0.48795437812805176
0.4291374683380127 0.13070930540561676 0.5198675394058228
0.35249125957489014 0.23166754841804504 0.4093364179134369
0.48139330744743347 0.1655953824520111 0.5051333904266357
0.4544108808040619 0.20604120194911957 0.5409712791442871
0.34912410378456116 0.17275470495224 0.46505793929100037
0.5334235429763794 0.19694718718528748 0.5237957239151001
0.4149572253227234 0.18999671936035156 0.4741886556148529
0.37680208683013916 0.21301646530628204 0.46694594621658325
0.5180147886276245 0.13383838534355164 0.4015054404735565
0.5527105927467346 0.16278040409088135 0.4912947416305542
0.47928088903427124 0.1042722761631012 0.5902393460273743
0.48733916878700256 0.11500905454158783 0.49021095037460327
0.43534237146377563 0.12950316071510315 0.57893306016922
0.514686644077301 0.10240330547094345 0.4865629971027374
0.4970758855342865 0.2509964406490326 0.45476773381233215
0.3676411211490631 0.2575129568576813 0.5576508045196533
0.4816040098667145 0.1282808929681778 0.4393691420555115
0.448784202337265 0.13165737688541412 0.5667663216590881
0.4690261781215668 0.2353653609752655 0.4429819583892822
0.36893635988235474 0.17658372223377228 0.4686722457408905
0.3763244152069092 0.19046437740325928 0.4488026201725006
0.48642271757125854 0.10868611186742783 0.4121239483356476
0.3590145409107208 0.1725483387708664 0.4113583266735077
0.5304270386695862 0.24556826055049896 0.5572239756584167
0.4953761398792267 0.12883493304252625 0.4053894579410553
0.3935830295085907 0.25421142578125 0.5531913638114929
0.4527651071548462 0.17015261948108673 0.5987289547920227
0.5118027329444885 0.18027590215206146 0.4138698875904083
0.4104783236980438 0.2475205510854721 0.44694650173187256
0.36648669838905334 0.15933384001255035 0.47031664848327637
0.4737897217273712 0.2535555958747864 0.5267519354820251
0.48137202858924866 0.16453279554843903 0.4699118733406067
0.4515167772769928 0.22618785500526428 0.46209579706192017
0.4515167772769928 0.22618785500526428 0.46209579706192017
0.47864559292793274 0.18827061355113983 0.5762161612510681
0.3904344439506531 0.17357072234153748 0.43083661794662476
0.48006609082221985 0.1836967170238495 0.5365931987762451
0.3751579821109772 0.18995364010334015 0.5781648755073547
0.4556865692138672 0.11280854046344757 0.40177541971206665
0.49328601360321045 0.2312064915895462 0.5763851404190063
0.3634902536869049 0.1312008947134018 0.5003663897514343
0.4797496497631073 0.11456110328435898 0.41759005188941956
0.4285983145236969 0.2397855669260025 0.505210816860199
0.3918219208717346 0.12010087072849274 0.4748901128768921
0.40233567357063293 0.2316437065601349 0.538238525390625
0.47946733236312866 0.23256878554821014 0.569343090057373
0.3542425334453583 0.19364677369594574 0.4506155848503113
0.40012261271476746 0.20717404782772064 0.44513171911239624
0.500390887260437 0.24630290269851685 0.41868463158607483
0.4791167676448822 0.20514169335365295 0.5061373114585876
0.5406437516212463 0.12383688241243362 0.42633163928985596
0.5338127017021179 0.22563986480236053 0.45119211077690125
0.5527105927467346 0.16278040409088135 0.4912947416305542
0.47928088903427124 0.1042722761631012 0.5902393460273743
0.47765225172042847 0.20527270436286926 0.5106562972068787
0.48733916878700256 0.11500905454158783 0.49021095037460327
0.43534237146377563 0.12950316071510315 0.57893306016922
0.5416237711906433 0.15508869290351868 0.5870574116706848
0.514686644077301 0.10240330547094345 0.4865629971027374
0.4970758855342865 0.2509964406490326 0.45476773381233215
0.3676411211490631 0.2575129568576813 0.5576508045196533
0.4816040098667145 0.1282808929681778 0.4393691420555115
0.448784202337265 0.13165737688541412 0.5667663216590881
0.4690261781215668 0.2353653609752655 0.4429819583892822
0.36893635988235474 0.17658372223377228 0.4686722457408905
0.4690261781215668 0.2353653609752655 0.4429819583892822
0.48642271757125854 0.10868611186742783 0.4121239483356476
0.3590145409107208 0.1725483387708664 0.4113583266735077
0.5304270386695862 0.24556826055049896 0.5572239756584167
0.4953761398792267 0.12883493304252625 0.4053894579410553
0.5309240221977234 0.21620765328407288 0.4465186595916748
0.5118027329444885 0.18027590215206146 0.4138698875904083
0.5240709185600281 0.21766331791877747 0.4910922944545746
0.46501266956329346 0.24662579596042633 0.45197999477386475
0.42163655161857605 0.2087317556142807 0.4746688902378082
0.4086901843547821 0.19928443431854248 0.41036272048950195
0.510486900806427 0.2381226271390915 0.5975834727287292
0.34872493147850037 0.17929165065288544 0.5222225785255432
0.4534091651439667 0.10474664717912674 0.5892533659934998
0.41215163469314575 0.23468762636184692 0.5200828909873962
0.43119654059410095 0.20836006104946136 0.583007276058197
0.5341256260871887 0.22286319732666016 0.41966766119003296
0.4954001307487488 0.18734465539455414 0.4560314118862152
0.5341256260871887 0.22286319732666016 0.41966766119003296
0.4647757112979889 0.14164122939109802 0.5222946405410767
0.5308441519737244 0.11698825657367706 0.3993566334247589
0.4255481958389282 0.11209525167942047 0.4127829670906067
0.36787983775138855 0.2643495500087738 0.4943922460079193
0.4158100485801697 0.23057468235492706 0.5269018411636353
0.4749917685985565 0.1472720354795456 0.47959229350090027
0.543770432472229 0.20220281183719635 0.5635982155799866
0.43496036529541016 0.13582269847393036 0.556088924407959
0.40724408626556396 0.15346302092075348 0.5493349432945251
0.43836459517478943 0.1976645588874817 0.4240599274635315
0.4799216091632843 0.21626229584217072 0.429111123085022
0.40941986441612244 0.20363587141036987 0.5962178111076355
0.49158596992492676 0.24311447143554688 0.5640532970428467
0.46352580189704895 0.23059771955013275 0.502331554889679
0.5141996145248413 0.18384139239788055 0.4143754243850708
0.4107905328273773 0.23906710743904114 0.5652415752410889
0.5258590579032898 0.1663675457239151 0.591823935508728
0.40680980682373047 0.22777961194515228 0.5084588527679443
0.5029391646385193 0.25747472047805786 0.5793668031692505
0.4230664372444153 0.11439380794763565 0.4262295961380005
0.5447039604187012 0.11376623064279556 0.4305446743965149
0.34872493147850037 0.17929165065288544 0.5222225785255432
0.4534091651439667 0.10474664717912674 0.5892533659934998
0.41215163469314575 0.23468762636184692 0.5200828909873962
0.43119654059410095 0.20836006104946136 0.583007276058197
0.5327999591827393 0.216767355799675 0.4091121554374695
0.46057623624801636 0.19567391276359558 0.5114730596542358
0.4510454535484314 0.22283731400966644 0.5464686155319214
0.37622255086898804 0.169474795460701 0.537057638168335
0.466901034116745 0.24649642407894135 0.45005372166633606
0.5341256260871887 0.22286319732666016 0.41966766119003296
0.4647757112979889 0.14164122939109802 0.5222946405410767
0.5308441519737244 0.11698825657367706 0.3993566334247589
0.4255481958389282 0.11209525167942047 0.4127829670906067
0.36787983775138855 0.2643495500087738 0.4943922460079193
0.4158100485801697 0.23057468235492706 0.5269018411636353
0.4749917685985565 0.1472720354795456 0.47959229350090027
0.543770432472229 0.20220281183719635 0.5635982155799866
0.43496036529541016 0.13582269847393036 0.556088924407959
0.40724408626556396 0.15346302092075348 0.5493349432945251
0.43836459517478943 0.1976645588874817 0.4240599274635315
0.3890024721622467 0.18650782108306885 0.5063058137893677
0.5241224765777588 0.1089644804596901 0.6091057658195496
0.5410270094871521 0.12582866847515106 0.5881126523017883
0.44179198145866394 0.11864996701478958 0.47549813985824585
0.49536868929862976 0.1904498040676117 0.4317951798439026
0.47345268726348877 0.20040234923362732 0.484352171421051
0.39280420541763306 0.13524866104125977 0.45728597044944763
0.5215321779251099 0.11057204753160477 0.539551317691803
0.38540732860565186 0.2632836401462555 0.41113194823265076
0.5099564790725708 0.25308144092559814 0.44319653511047363
0.47722485661506653 0.11195490509271622 0.45774757862091064
0.5144453644752502 0.2311851680278778 0.4810374081134796
0.554574728012085 0.13960817456245422 0.5970044136047363
0.3912118971347809 0.15548689663410187 0.47776103019714355
0.5219874382019043 0.11387761682271957 0.4005630314350128
0.43513086438179016 0.2307424247264862 0.5370829105377197
0.46547794342041016 0.153228759765625 0.45141854882240295
0.3876360058784485 0.18475155532360077 0.5040772557258606
0.42308053374290466 0.15856017172336578 0.5555587410926819
0.4177454710006714 0.1564519703388214 0.3954210579395294
0.5081455111503601 0.21837012469768524 0.44163164496421814
0.387968510389328 0.17899897694587708 0.5528236031532288
0.37213966250419617 0.2287594974040985 0.5654451847076416
0.4977578818798065 0.2057580202817917 0.5308769941329956
0.5373587608337402 0.24639439582824707 0.5112162232398987
0.5353096127510071 0.17558589577674866 0.4146515429019928
0.46501266956329346 0.24662579596042633 0.45197999477386475
0.42163655161857605 0.2087317556142807 0.4746688902378082
0.4086901843547821 0.19928443431854248 0.41036272048950195
0.510486900806427 0.2381226271390915 0.5975834727287292
0.34872493147850037 0.17929165065288544 0.5222225785255432
0.4534091651439667 0.10474664717912674 0.5892533659934998
0.41215163469314575 0.23468762636184692 0.5200828909873962
0.43119654059410095 0.20836006104946136 0.583007276058197
0.5327999591827393 0.216767355799675 0.4091121554374695
0.46057623624801636 0.19567391276359558 0.5114730596542358
0.4510454535484314 0.22283731400966644 0.5464686155319214
0.37622255086898804 0.169474795460701 0.537057638168335
0.466901034116745 0.24649642407894135 0.45005372166633606
0.5341256260871887 0.22286319732666016 0.41966766119003296
0.4647757112979889 0.14164122939109802 0.5222946405410767
0.5308441519737244 0.11698825657367706 0.3993566334247589
0.4255481958389282 0.11209525167942047 0.4127829670906067
0.4104783236980438 0.2475205510854721 0.44694650173187256
0.46591824293136597 0.1221897155046463 0.3972936272621155
0.5234023928642273 0.11313948780298233 0.4263880252838135
0.4921444058418274 0.10513651371002197 0.4677960276603699
0.502659022808075 0.16906948387622833 0.592117190361023
0.3801628053188324 0.2506332993507385 0.5727642178535461
0.4261780083179474 0.13324026763439178 0.5644332766532898
0.3675505816936493 0.16102425754070282 0.5889084935188293
0.35773202776908875 0.1437682956457138 0.5214222073554993
0.4970187246799469 0.1893346905708313 0.467276394367218
0.35762250423431396 0.16256023943424225 0.542632520198822
0.518782913684845 0.24834556877613068 0.5992314219474792
0.515689492225647 0.11914768815040588 0.49935245513916016
0.5134073495864868 0.12295296043157578 0.5765382051467896
0.5459004044532776 0.23239365220069885 0.48274993896484375
0.3711230754852295 0.12675228714942932 0.4470083713531494
0.4691520631313324 0.13825556635856628 0.5569010972976685
0.4107905328273773 0.23906710743904114 0.5652415752410889
0.42620736360549927 0.255850613117218 0.49633195996284485
0.5179651379585266 0.14202184975147247 0.4067894518375397
0.5147993564605713 0.22821612656116486 0.5548361539840698
0.3949759900569916 0.12047453224658966 0.5598030686378479
0.5549693703651428 0.11546111851930618 0.5649881362915039
0.47634369134902954 0.1811044067144394 0.5771878957748413
0.352120041847229 0.15685440599918365 0.4733993113040924
0.4096579849720001 0.1292968988418579 0.565605878829956
0.5534197092056274 0.24021922051906586 0.4128212034702301
0.3973316550254822 0.21129359304904938 0.4850778877735138
0.4425741732120514 0.1805768758058548 0.4105703830718994
0.46887242794036865 0.1366131752729416 0.400809109210968
0.392004132270813 0.2525898218154907 0.5895623564720154
0.39350584149360657 0.22185778617858887 0.5583711266517639
0.4255327582359314 0.11143210530281067 0.540836751461029
0.48761311173439026 0.1693388670682907 0.5589724779129028
0.5148607492446899 0.1520712971687317 0.5143906474113464
0.484027624130249 0.25034940242767334 0.44049644470214844
0.3514171838760376 0.20834286510944366 0.4361652135848999
0.42486900091171265 0.13765457272529602 0.5960758328437805
0.3657718300819397 0.19544456899166107 0.5064612627029419
0.3908092677593231 0.22847071290016174 0.45308661460876465
0.5431565046310425 0.2532683312892914 0.49089670181274414
0.43618643283843994 0.16300015151500702 0.471797913312912
0.3475240170955658 0.15137997269630432 0.5017956495285034
0.37792450189590454 0.2595279812812805 0.40592750906944275
0.4921033978462219 0.20663239061832428 0.5110337734222412
0.5528833866119385 0.15313400328159332 0.601643979549408
0.44531285762786865 0.2447095662355423 0.4227166771888733
0.377882182598114 0.11612733453512192 0.39277562499046326
0.4214286804199219 0.24295781552791595 0.42536675930023193
0.4795752763748169 0.10822713375091553 0.4281507134437561
0.4422988295555115 0.16569872200489044 0.5455350875854492
0.45031461119651794 0.24156497418880463 0.44599413871765137
0.4505782425403595 0.14777222275733948 0.5572699904441833
0.4338984787464142 0.21822118759155273 0.4875178039073944
0.5385019183158875 0.18346060812473297 0.399478018283844
0.5385019183158875 0.18346060812473297 0.399478018283844
0.3859219551086426 0.2541014850139618 0.4499625563621521
0.38159671425819397 0.23129580914974213 0.46361517906188965
0.4134121239185333 0.24974600970745087 0.43059515953063965
0.42220208048820496 0.18592670559883118 0.4029362201690674
0.42090943455696106 0.18070922791957855 0.5752267837524414
0.3723873198032379 0.15118496119976044 0.5377920866012573
0.3723873198032379 0.15118496119976044 0.5377920866012573
0.5022892355918884 0.1794329285621643 0.4147752523422241
0.41492146253585815 0.10628440976142883 0.418901652097702
0.4977578818798065 0.2057580202817917 0.5308769941329956
0.5373587608337402 0.24639439582824707 0.5112162232398987
0.4401171803474426 0.12968593835830688 0.41781264543533325
0.5353096127510071 0.17558589577674866 0.4146515429019928
0.46501266956329346 0.24662579596042633 0.45197999477386475
0.42163655161857605 0.2087317556142807 0.4746688902378082
0.4086901843547821 0.19928443431854248 0.41036272048950195
0.510486900806427 0.2381226271390915 0.5975834727287292
0.34872493147850037 0.17929165065288544 0.5222225785255432
0.4534091651439667 0.10474664717912674 0.5892533659934998
0.41215163469314575 0.23468762636184692 0.5200828909873962
0.43119654059410095 0.20836006104946136 0.583007276058197
0.5327999591827393 0.216767355799675 0.4091121554374695
0.46057623624801636 0.19567391276359558 0.5114730596542358
0.4510454535484314 0.22283731400966644 0.5464686155319214
0.4815071225166321 0.25615212321281433 0.43518543243408203
0.47921404242515564 0.15795961022377014 0.4077530801296234
0.42768171429634094 0.2092583179473877 0.5970438122749329
0.47922563552856445 0.23275944590568542 0.4800262451171875
0.49702659249305725 0.19275036454200745 0.43976256251335144
0.34586846828460693 0.1281297653913498 0.425789475440979
0.4481334984302521 0.1872820258140564 0.5644944906234741
0.42989861965179443 0.22043414413928986 0.44221293926239014
0.46591824293136597 0.1221897155046463 0.3972936272621155
0.5302361249923706 0.16472214460372925 0.4848918616771698
0.39771977066993713 0.17240600287914276 0.47752147912979126
0.44727376103401184 0.16097557544708252 0.418996125459671
0.39625564217567444 0.1891433149576187 0.4444409906864166
0.47904086112976074 0.12436927109956741 0.5179595351219177
0.5342940092086792 0.22416426241397858 0.43372586369514465
0.4761398136615753 0.12236461788415909 0.5693960189819336
0.42399510741233826 0.11368073523044586 0.4926379323005676
0.5327999591827393 0.216767355799675 0.4091121554374695
0.46057623624801636 0.19567391276359558 0.5114730596542358
0.4510454535484314 0.22283731400966644 0.5464686155319214
0.37622255086898804 0.169474795460701 0.537057638168335
0.466901034116745 0.24649642407894135 0.45005372166633606
0.5341256260871887 0.22286319732666016 0.41966766119003296
0.4343838393688202 0.1059490442276001 0.5456382036209106
0.4283834993839264 0.10433778166770935 0.5814167261123657
0.48288044333457947 0.25186887383461 0.5689361095428467
0.4259148836135864 0.10531968623399734 0.4100271165370941
0.4566843509674072 0.23352201282978058 0.5298828482627869
0.44418594241142273 0.22830742597579956 0.4278898537158966
0.4701122045516968 0.10416337847709656 0.42845436930656433
0.45719343423843384 0.14118923246860504 0.5695934295654297
0.4591641128063202 0.2567237615585327 0.5678045749664307
0.4315744936466217 0.2323760986328125 0.47787439823150635
0.5406696796417236 0.24889837205410004 0.44445326924324036
0.46525222063064575 0.1384444534778595 0.5515647530555725
0.4471696615219116 0.18432234227657318 0.5550075769424438
0.37067100405693054 0.25999969244003296 0.41962799429893494
0.4541940987110138 0.10603974014520645 0.5149985551834106
0.49514713883399963 0.17674338817596436 0.5789272785186768
0.4355407953262329 0.2382793128490448 0.4474634826183319
0.46879106760025024 0.1292073130607605 0.5448636412620544
0.5446074604988098 0.2261498123407364 0.5139895677566528
0.4969428777694702 0.11979532241821289 0.5129736661911011
0.5047845840454102 0.11125961691141129 0.5343249440193176
0.510278582572937 0.11934801936149597 0.5108858942985535
0.4333778917789459 0.11086271703243256 0.5997434258460999
0.4667523205280304 0.21833442151546478 0.4581452012062073
0.350475549697876 0.14087079465389252 0.512215256690979
0.48900774121284485 0.10676226764917374 0.38898423314094543
0.43199437856674194 0.25077685713768005 0.4052456021308899
0.4775335192680359 0.18747293949127197 0.4987747073173523
0.37458744645118713 0.14624625444412231 0.5830774903297424
0.3615741431713104 0.17533664405345917 0.5787477493286133
0.3527873456478119 0.16080421209335327 0.6031533479690552
0.3860931098461151 0.15680381655693054 0.5462022423744202
0.4305076599121094 0.2560153901576996 0.5632045865058899
0.5449119210243225 0.17852091789245605 0.41166386008262634
0.42218488454818726 0.14118452370166779 0.45230233669281006
0.44251447916030884 0.13276642560958862 0.5087898969650269
0.5540093779563904 0.14795348048210144 0.46039244532585144
0.43446093797683716 0.10661263763904572 0.46932756900787354
0.39321693778038025 0.10922345519065857 0.4853334128856659
0.39736780524253845 0.10583274811506271 0.5089520812034607
0.35355696082115173 0.18921202421188354 0.5369324684143066
0.4760906994342804 0.20208647847175598 0.5866495966911316
0.4773929715156555 0.20239722728729248 0.5193012952804565
0.3482168912887573 0.16955512762069702 0.5251680016517639
0.5002812743186951 0.110924132168293 0.5088016986846924
0.4218595325946808 0.23876556754112244 0.4135240912437439
0.45348402857780457 0.12114346027374268 0.4880252480506897
0.5500127077102661 0.15074633061885834 0.4207252562046051
0.3646600842475891 0.11561020463705063 0.41301923990249634
0.3644062578678131 0.17694658041000366 0.5735377669334412
0.4649091362953186 0.22805149853229523 0.446206271648407
0.4651768207550049 0.15131108462810516 0.5605570077896118
0.3806452751159668 0.2303914874792099 0.4279952049255371
0.4904542863368988 0.2428497076034546 0.5599089860916138
0.3636995255947113 0.16615119576454163 0.5361494421958923
0.4603584110736847 0.13296706974506378 0.39160019159317017
0.44937199354171753 0.13414297997951508 0.5505966544151306
0.3733229637145996 0.16602692008018494 0.40230098366737366
0.5341256260871887 0.22286319732666016 0.41966766119003296
0.4647757112979889 0.14164122939109802 0.5222946405410767
0.5308441519737244 0.11698825657367706 0.3993566334247589
0.4255481958389282 0.11209525167942047 0.4127829670906067
0.36787983775138855 0.2643495500087738 0.4943922460079193
0.4158100485801697 0.23057468235492706 0.5269018411636353
0.4749917685985565 0.1472720354795456 0.47959229350090027
0.543770432472229 0.20220281183719635 0.5635982155799866
0.43496036529541016 0.13582269847393036 0.556088924407959
0.40724408626556396 0.15346302092075348 0.5493349432945251
0.43836459517478943 0.1976645588874817 0.4240599274635315
0.3890024721622467 0.18650782108306885 0.5063058137893677
0.5241224765777588 0.1089644804596901 0.6091057658195496
0.5410270094871521 0.12582866847515106 0.5881126523017883
0.44179198145866394 0.11864996701478958 0.47549813985824585
0.49536868929862976 0.1904498040676117 0.4317951798439026
0.4459504783153534 0.10997571796178818 0.47969791293144226
0.4843442142009735 0.15570847690105438 0.5331671237945557
0.4049564599990845 0.25600767135620117 0.5144367218017578
0.3462160527706146 0.15142570436000824 0.43509528040885925
0.37031543254852295 0.11923626065254211 0.4098914563655853
0.42783981561660767 0.2448047548532486 0.5903509259223938
0.46794962882995605 0.20468568801879883 0.5123658776283264
0.40850597620010376 0.15237359702587128 0.5979973077774048
0.42419376969337463 0.1260531097650528 0.5599202513694763
0.5393357276916504 0.133588045835495 0.4801771938800812
0.5061405301094055 0.18561840057373047 0.5040125846862793
0.45253437757492065 0.23476718366146088 0.46642038226127625
0.5374504923820496 0.15411366522312164 0.4279683232307434
0.5358306169509888 0.2297772318124771 0.5110724568367004
0.3644137978553772 0.10982804000377655 0.6007500886917114
0.5209444165229797 0.23448757827281952 0.5843533277511597
0.5341256260871887 0.22286319732666016 0.41966766119003296
0.4647757112979889 0.14164122939109802 0.5222946405410767
0.5308441519737244 0.11698825657367706 0.3993566334247589
0.4255481958389282 0.11209525167942047 0.4127829670906067
0.36787983775138855 0.2643495500087738 0.4943922460079193
0.4158100485801697 0.23057468235492706 0.5269018411636353
0.4749917685985565 0.1472720354795456 0.47959229350090027
0.543770432472229 0.20220281183719635 0.5635982155799866
0.43496036529541016 0.13582269847393036 0.556088924407959
0.40724408626556396 0.15346302092075348 0.5493349432945251
0.43836459517478943 0.1976645588874817 0.4240599274635315
0.3890024721622467 0.18650782108306885 0.5063058137893677
0.5241224765777588 0.1089644804596901 0.6091057658195496
0.5410270094871521 0.12582866847515106 0.5881126523017883
0.44179198145866394 0.11864996701478958 0.47549813985824585
0.49536868929862976 0.1904498040676117 0.4317951798439026
0.4459504783153534 0.10997571796178818 0.47969791293144226
0.4843442142009735 0.15570847690105438 0.5331671237945557
0.35069727897644043 0.21169835329055786 0.5856372714042664
0.43580174446105957 0.12683765590190887 0.4441884160041809
0.5134978890419006 0.14154787361621857 0.5640208125114441
0.38897281885147095 0.23843596875667572 0.5375561118125916
0.5402361750602722 0.15478861331939697 0.4065741300582886
0.47264736890792847 0.13868114352226257 0.5940760970115662
0.39944449067115784 0.17289482057094574 0.4466056525707245
0.4989619255065918 0.17757712304592133 0.4845786988735199
0.5393357276916504 0.133588045835495 0.4801771938800812
0.5368921160697937 0.2018858939409256 0.4532593786716461
0.353448748588562 0.2225559502840042 0.5762035250663757
0.4860817492008209 0.10624727606773376 0.6014255285263062
0.35773202776908875 0.1437682956457138 0.5214222073554993
0.5470297336578369 0.1276852786540985 0.5776684880256653
0.4338984787464142 0.21822118759155273 0.4875178039073944
0.4580519497394562 0.2599128782749176 0.4357813000679016
0.3950943946838379 0.22233343124389648 0.4344719648361206
0.42220208048820496 0.18592670559883118 0.4029362201690674
0.42090943455696106 0.18070922791957855 0.5752267837524414
0.3723873198032379 0.15118496119976044 0.5377920866012573
0.5022892355918884 0.1794329285621643 0.4147752523422241
0.35472372174263 0.11122674494981766 0.4054080843925476
0.514629065990448 0.2185278832912445 0.5593098998069763
0.42056989669799805 0.2416534274816513 0.47940319776535034
0.5104923844337463 0.23228222131729126 0.4800663888454437
0.3912118971347809 0.15548689663410187 0.47776103019714355
0.5219874382019043 0.11387761682271957 0.4005630314350128
0.43513086438179016 0.2307424247264862 0.5370829105377197
0.46547794342041016 0.153228759765625 0.45141854882240295
0.3876360058784485 0.18475155532360077 0.5040772557258606
0.42308053374290466 0.15856017172336578 0.5555587410926819
0.4177454710006714 0.1564519703388214 0.3954210579395294
0.5081455111503601 0.21837012469768524 0.44163164496421814
0.387968510389328 0.17899897694587708 0.5528236031532288
0.37213966250419617 0.2287594974040985 0.5654451847076416
0.4977578818798065 0.2057580202817917 0.5308769941329956
0.5373587608337402 0.24639439582824707 0.5112162232398987
0.5353096127510071 0.17558589577674866 0.4146515429019928
0.46501266956329346 0.24662579596042633 0.45197999477386475
0.42163655161857605 0.2087317556142807 0.4746688902378082
0.35069727897644043 0.21169835329055786 0.5856372714042664
0.43580174446105957 0.12683765590190887 0.4441884160041809
0.5134978890419006 0.14154787361621857 0.5640208125114441
0.38897281885147095 0.23843596875667572 0.5375561118125916
0.5402361750602722 0.15478861331939697 0.4065741300582886
0.40858832001686096 0.14955171942710876 0.4507087767124176
0.4333778917789459 0.11086271703243256 0.5997434258460999
0.4708259403705597 0.15824280679225922 0.4256724715232849
0.39221087098121643 0.1099063977599144 0.477725625038147
0.37407681345939636 0.12358629703521729 0.5808070302009583
0.5141996145248413 0.18384139239788055 0.4143754243850708
0.4107905328273773 0.23906710743904114 0.5652415752410889
0.42620736360549927 0.255850613117218 0.49633195996284485
0.5179651379585266 0.14202184975147247 0.4067894518375397
0.5147993564605713 0.22821612656116486 0.5548361539840698
0.3949759900569916 0.12047453224658966 0.5598030686378479
0.5549693703651428 0.11546111851930618 0.5649881362915039
0.47634369134902954 0.1811044067144394 0.5771878957748413
0.352120041847229 0.15685440599918365 0.4733993113040924
0.4096579849720001 0.1292968988418579 0.565605878829956
0.5534197092056274 0.24021922051906586 0.4128212034702301
0.5341393351554871 0.22998671233654022 0.500170111656189
0.42083093523979187 0.10501687973737717 0.5139570236206055
0.3530741035938263 0.1286379098892212 0.604140043258667
0.39507925510406494 0.2562554180622101 0.4425267279148102
0.4530263841152191 0.12066102772951126 0.5553736090660095
0.447451651096344 0.24017076194286346 0.5973772406578064
0.3973316550254822 0.21129359304904938 0.4850778877735138
0.34362873435020447 0.11658644676208496 0.4359787106513977
0.3932153582572937 0.23713834583759308 0.4212189018726349
0.5032892823219299 0.16951029002666473 0.4175223112106323
0.46887242794036865 0.1366131752729416 0.400809109210968
0.4228018522262573 0.18858039379119873 0.5253229737281799
0.4813820421695709 0.13355128467082977 0.42437267303466797
0.39350584149360657 0.22185778617858887 0.5583711266517639
0.49676817655563354 0.22682486474514008 0.4475414752960205
0.4067540168762207 0.13711819052696228 0.4250001907348633
0.514629065990448 0.2185278832912445 0.5593098998069763
0.515689492225647 0.11914768815040588 0.49935245513916016
0.5134073495864868 0.12295296043157578 0.5765382051467896
0.4334627389907837 0.13456940650939941 0.604638934135437
0.4107905328273773 0.23906710743904114 0.5652415752410889
0.42620736360549927 0.255850613117218 0.49633195996284485
0.5179651379585266 0.14202184975147247 0.4067894518375397
0.33853811025619507 0.11206386238336563 0.40243208408355713
0.38477733731269836 0.26771506667137146 0.4224657714366913
0.428823322057724 0.1437593251466751 0.4268953800201416
0.5177258253097534 0.12571634352207184 0.5123516917228699
0.48346078395843506 0.2429145723581314 0.4128676652908325
0.42979133129119873 0.1648925244808197 0.5193792581558228
0.3973316550254822 0.21129359304904938 0.4850778877735138
0.34362873435020447 0.11658644676208496 0.4359787106513977
0.3932153582572937 0.23713834583759308 0.4212189018726349
0.5032892823219299 0.16951029002666473 0.4175223112106323
0.46887242794036865 0.1366131752729416 0.400809109210968
0.392004132270813 0.2525898218154907 0.5895623564720154
0.39350584149360657 0.22185778617858887 0.5583711266517639
0.49676817655563354 0.22682486474514008 0.4475414752960205
0.4067540168762207 0.13711819052696228 0.4250001907348633
0.37930408120155334 0.16465258598327637 0.5065743923187256
0.46386390924453735 0.11802832782268524 0.6060076355934143
0.4943566918373108 0.24564574658870697 0.5681872963905334
0.46571290493011475 0.2482481598854065 0.5163242220878601
0.5198737978935242 0.16496898233890533 0.4268753230571747
0.44890618324279785 0.23155568540096283 0.4432465732097626
0.5126631259918213 0.1412035971879959 0.5959890484809875
0.3933403789997101 0.25000277161598206 0.5435138940811157
0.4405561685562134 0.20016086101531982 0.5945837497711182
0.531846284866333 0.20830126106739044 0.43236398696899414
0.43836459517478943 0.1976645588874817 0.4240599274635315
0.4860817492008209 0.10624727606773376 0.6014255285263062
0.35773202776908875 0.1437682956457138 0.5214222073554993
0.4970187246799469 0.1893346905708313 0.467276394367218
0.5386612415313721 0.2370070517063141 0.5325870513916016
0.44001147150993347 0.1260715276002884 0.45729756355285645
0.378969669342041 0.19384557008743286 0.5185993313789368
0.3514142632484436 0.2245069295167923 0.49227169156074524
0.3986703157424927 0.2051198035478592 0.412223756313324
0.5375975370407104 0.16969050467014313 0.5431139469146729
0.4529179632663727 0.10408381372690201 0.5729334354400635
0.4989425539970398 0.20932382345199585 0.5052427053451538
0.4663352370262146 0.1527988463640213 0.5751219391822815
0.5551190972328186 0.11605613678693771 0.5318180322647095
0.4139668643474579 0.15480418503284454 0.5496290326118469
0.5451421141624451 0.24706636369228363 0.48274409770965576
0.48067694902420044 0.11622545123100281 0.4831486940383911
0.5302978157997131 0.25275880098342896 0.45717018842697144
0.5019192099571228 0.228632852435112 0.5578717589378357
0.4048483967781067 0.1928257793188095 0.565761387348175
0.4597545862197876 0.18023505806922913 0.46224746108055115
0.3823135197162628 0.16091452538967133 0.5722776651382446
0.46386390924453735 0.11802832782268524 0.6060076355934143
0.4943566918373108 0.24564574658870697 0.5681872963905334
0.46571290493011475 0.2482481598854065 0.5163242220878601
0.5198737978935242 0.16496898233890533 0.4268753230571747
0.44890618324279785 0.23155568540096283 0.4432465732097626
0.5126631259918213 0.1412035971879959 0.5959890484809875
0.3933403789997101 0.25000277161598206 0.5435138940811157
0.437585711479187 0.11681650578975677 0.48897722363471985
0.531846284866333 0.20830126106739044 0.43236398696899414
0.41007769107818604 0.1787988841533661 0.5801160931587219
0.48879724740982056 0.10742270201444626 0.5091830492019653
0.34603989124298096 0.1453467458486557 0.533755362033844
0.48811158537864685 0.22544828057289124 0.47779759764671326
0.39564836025238037 0.12805607914924622 0.4710077941417694
0.358120858669281 0.10839468240737915 0.4466727674007416
0.4333066940307617 0.12831106781959534 0.4193144142627716
0.35762250423431396 0.16256023943424225 0.542632520198822
0.518782913684845 0.24834556877613068 0.5992314219474792
0.515689492225647 0.11914768815040588 0.49935245513916016
0.5134073495864868 0.12295296043157578 0.5765382051467896
0.5459004044532776 0.23239365220069885 0.48274993896484375
0.3711230754852295 0.12675228714942932 0.4470083713531494
0.4691520631313324 0.13825556635856628 0.5569010972976685
0.3551631271839142 0.13141672313213348 0.5547235012054443
0.41878247261047363 0.15615494549274445 0.4891970753669739
0.378969669342041 0.19384557008743286 0.5185993313789368
0.3514142632484436 0.2245069295167923 0.49227169156074524
0.3986703157424927 0.2051198035478592 0.412223756313324
0.505841851234436 0.13490350544452667 0.49859553575515747
0.4603172838687897 0.16790524125099182 0.5099549889564514
0.3819690942764282 0.21165281534194946 0.4091648757457733
0.4364089071750641 0.1822177767753601 0.5202503204345703
0.45986324548721313 0.17477038502693176 0.47134295105934143
0.4596824645996094 0.14715461432933807 0.4827938675880432
0.4685399830341339 0.19704563915729523 0.5925069451332092
0.4318647086620331 0.19662390649318695 0.5495235323905945
0.3829899728298187 0.17980550229549408 0.5815719962120056
0.4695425033569336 0.10871219635009766 0.5259596705436707
0.45043566823005676 0.13281166553497314 0.45815831422805786
0.5328028202056885 0.2250950187444687 0.4471285939216614
0.5321229100227356 0.19730201363563538 0.4009127616882324
0.4766775071620941 0.19290509819984436 0.48006194829940796
0.3584764301776886 0.14623187482357025 0.39989134669303894
0.4885557293891907 0.1881217509508133 0.42644739151000977
0.5105303525924683 0.20483309030532837 0.4299197196960449
0.4929839074611664 0.19138960540294647 0.5325215458869934
0.5103662014007568 0.11008003354072571 0.44901782274246216
0.37024804949760437 0.1436317414045334 0.5385010242462158
0.4885912835597992 0.18154248595237732 0.5167668461799622
0.4571654200553894 0.20041754841804504 0.4269701838493347
0.3708038032054901 0.11582399904727936 0.4423034191131592
0.5463787317276001 0.2164413183927536 0.40248894691467285
0.4447040855884552 0.20594070851802826 0.5178983211517334
0.505841851234436 0.13490350544452667 0.49859553575515747
0.4603172838687897 0.16790524125099182 0.5099549889564514
0.3819690942764282 0.21165281534194946 0.4091648757457733
0.4364089071750641 0.1822177767753601 0.5202503204345703
0.45986324548721313 0.17477038502693176 0.47134295105934143
0.4596824645996094 0.14715461432933807 0.4827938675880432
0.4685399830341339 0.19704563915729523 0.5925069451332092
0.4318647086620331 0.19662390649318695 0.5495235323905945
0.3829899728298187 0.17980550229549408 0.5815719962120056
0.4695425033569336 0.10871219635009766 0.5259596705436707
0.5262230634689331 0.20703981816768646 0.5524413585662842
0.5242640972137451 0.15008150041103363 0.3959842324256897
0.5060256123542786 0.18973197042942047 0.5919570326805115
0.5343892574310303 0.1726578325033188 0.5528145432472229
0.4183901846408844 0.22028951346874237 0.5659564733505249
0.3833550214767456 0.2532118260860443 0.4220578968524933
0.5420126914978027 0.16073699295520782 0.5821839570999146
0.37688860297203064 0.21669192612171173 0.5133121013641357
0.4346647262573242 0.14434362947940826 0.5594428777694702
0.37556222081184387 0.26844263076782227 0.4227415919303894
0.4081117510795593 0.1270245611667633 0.43034520745277405
0.3598743677139282 0.184299498796463 0.5675169229507446
0.5087705850601196 0.2225039005279541 0.4126780927181244
0.48944875597953796 0.2299487441778183 0.5292390584945679
0.5027282238006592 0.14310933649539948 0.44602692127227783
0.5419158935546875 0.16067194938659668 0.5393386483192444
0.36015498638153076 0.12079017609357834 0.4934946596622467
0.47013163566589355 0.20387864112854004 0.5773362517356873
0.47108176350593567 0.22432655096054077 0.42239996790885925
0.3494422733783722 0.1041589081287384 0.5122984051704407
0.47432941198349 0.11127464473247528 0.5429810881614685
0.5236806273460388 0.20367760956287384 0.4262485206127167
0.3755232095718384 0.1747695952653885 0.48114949464797974
0.3610067069530487 0.1726389080286026 0.5259257555007935
0.5421724915504456 0.12485481053590775 0.4561193585395813
0.383830726146698 0.12297724932432175 0.5300993919372559
0.5266886949539185 0.2525249123573303 0.5975973606109619
0.5506644248962402 0.1861802488565445 0.5135473608970642
0.5005189180374146 0.16684846580028534 0.533242404460907
0.39935266971588135 0.20042191445827484 0.5370288491249084
0.38566461205482483 0.23655135929584503 0.5060702562332153
0.5426689982414246 0.10674171149730682 0.5219089388847351
0.44930434226989746 0.20105311274528503 0.569185733795166
0.5281755924224854 0.21278691291809082 0.40954816341400146
0.3549755811691284 0.23382651805877686 0.506395161151886
0.5440235733985901 0.14201858639717102 0.44843584299087524
0.4880109429359436 0.1948394775390625 0.5845115780830383
0.4768771529197693 0.1870073676109314 0.5516547560691833
0.3730633556842804 0.1542261391878128 0.47144582867622375
0.3996347188949585 0.14347417652606964 0.4390186071395874
0.48183760046958923 0.19732144474983215 0.4808907210826874
0.537924587726593 0.10616111755371094 0.4539644420146942
0.5023342967033386 0.19704820215702057 0.5389469861984253
0.4603584110736847 0.13296706974506378 0.39160019159317017
0.3968670070171356 0.1692408323287964 0.5247595906257629
0.5216982960700989 0.11468209326267242 0.5322973728179932
0.36350709199905396 0.2033153921365738 0.5823991298675537
0.48293963074684143 0.13041244447231293 0.42728477716445923
0.44872692227363586 0.1175025925040245 0.45426908135414124
0.4052456319332123 0.24487793445587158 0.4446745216846466
0.537631630897522 0.10855212807655334 0.4355158805847168
0.508263885974884 0.1397392898797989 0.5587971806526184
0.4067642092704773 0.12523676455020905 0.42292043566703796
0.3832591474056244 0.22659119963645935 0.42672669887542725
0.4402368664741516 0.23948431015014648 0.5388782024383545
0.5097501873970032 0.11192043870687485 0.545728862285614
0.41894182562828064 0.1350388079881668 0.5458837151527405
0.3493405282497406 0.1310172975063324 0.48956722021102905
0.36549806594848633 0.13093282282352448 0.5240887999534607
0.4251454174518585 0.24747306108474731 0.42854881286621094
0.4022933840751648 0.18978187441825867 0.4053003787994385
0.38816025853157043 0.11885111778974533 0.5678711533546448
0.542956531047821 0.19438625872135162 0.5344237685203552
0.4887405335903168 0.10846898704767227 0.5567228198051453
0.5510492324829102 0.12331690639257431 0.4516771137714386
0.4037458896636963 0.20406067371368408 0.5349529385566711
0.46064701676368713 0.10327696800231934 0.4706664979457855
0.4493393003940582 0.234935462474823 0.5084505677223206
0.36236822605133057 0.12030460685491562 0.592847466468811
0.41464051604270935 0.19462452828884125 0.4915253520011902
0.35879871249198914 0.21519772708415985 0.41410085558891296
0.42789801955223083 0.17703552544116974 0.43680715560913086
0.47422876954078674 0.15669523179531097 0.40924951434135437
0.4519105553627014 0.10909362882375717 0.42301228642463684
0.4133903384208679 0.13195201754570007 0.43810296058654785
0.47634369134902954 0.1811044067144394 0.5771878957748413
0.4318647086620331 0.19662390649318695 0.5495235323905945
0.43151986598968506 0.17746961116790771 0.4761873185634613
0.5174313187599182 0.10812009871006012 0.40374791622161865
