ply
format ascii 1.0
element vertex 832
property float x
property float y
property float z
end_header
0.27651846408843994 0.5726895332336426 0.5391351580619812
0.41692811250686646 0.46894291043281555 0.48475879430770874
0.4007457196712494 0.5179898142814636 0.5947747826576233
0.323235422372818 0.4193558096885681 0.5427501797676086
0.29382914304733276 0.43158993124961853 0.41734635829925537
0.2792513072490692 0.44901183247566223 0.4735872447490692
0.29255643486976624 0.5056887865066528 0.464267760515213
0.3739464581012726 0.5686039328575134 0.5890040397644043
0.3952886164188385 0.5678815841674805 0.5258368253707886
0.4335658848285675 0.5916231870651245 0.5157604217529297
0.4140098989009857 0.6142839789390564 0.46608489751815796
0.2650648355484009 0.4275503158569336 0.4766598343849182
0.32643765211105347 0.49466028809547424 0.4457741677761078
0.3473661541938782 0.614686131477356 0.5944828987121582
0.4425341784954071 0.46770381927490234 0.5565890669822693
0.2505669593811035 0.461306631565094 0.5451186299324036
0.3054339587688446 0.5410672426223755 0.5903106927871704
0.35029372572898865 0.4730108976364136 0.4415929615497589
0.2807421088218689 0.5331785678863525 0.43176427483558655
0.4059987962245941 0.5751141309738159 0.40293651819229126
0.30012986063957214 0.5223994851112366 0.5920389294624329
0.44620466232299805 0.5412266254425049 0.45415937900543213
0.41063621640205383 0.45896115899086 0.4576580822467804
0.39526817202568054 0.6145968437194824 0.4828110933303833
0.30562976002693176 0.4831141531467438 0.5162399411201477
0.26027247309684753 0.44415396451950073 0.4820360839366913
0.42414918541908264 0.5404773354530334 0.4201173484325409
0.2801738679409027 0.4636496305465698 0.4507582187652588
0.27406787872314453 0.5687028765678406 0.5649815201759338
0.4455001652240753 0.44681164622306824 0.597505509853363
0.4333036541938782 0.5869902968406677 0.5743077993392944
0.36470234394073486 0.4498732089996338 0.49032095074653625
0.26463252305984497 0.4681761562824249 0.4565238356590271
0.37236952781677246 0.6014928817749023 0.4676826000213623
0.4183289706707001 0.4295826554298401 0.4317884147167206
0.36182913184165955 0.5382322669029236 0.5394471287727356
0.36216026544570923 0.4535321295261383 0.5826965570449829
0.37693294882774353 0.5543591380119324 0.46464067697525024
0.34979143738746643 0.4625875949859619 0.5855388641357422
0.39839887619018555 0.5570929646492004 0.5077335834503174
0.27465954422950745 0.506077229976654 0.5128699541091919
0.4117601811885834 0.4357462525367737 0.44716790318489075
0.4425341784954071 0.46770381927490234 0.5565890669822693
0.2505669593811035 0.461306631565094 0.5451186299324036
0.3054339587688446 0.5410672426223755 0.5903106927871704
0.35029372572898865 0.4730108976364136 0.4415929615497589
0.2807421088218689 0.5331785678863525 0.43176427483558655
0.4059987962245941 0.5751141309738159 0.40293651819229126
0.30012986063957214 0.5223994851112366 0.5920389294624329
0.44620466232299805 0.5412266254425049 0.45415937900543213
0.41063621640205383 0.45896115899086 0.4576580822467804
0.39526817202568054 0.6145968437194824 0.4828110933303833
0.30562976002693176 0.4831141531467438 0.5162399411201477
0.26027247309684753 0.44415396451950073 0.4820360839366913
0.42414918541908264 0.5404773354530334 0.4201173484325409
0.3448861837387085 0.5301421284675598 0.43481001257896423
0.2639611065387726 0.51513671875 0.49498334527015686
0.4181433320045471 0.5891416072845459 0.5673139095306396
0.25765708088874817 0.444400429725647 0.45696696639060974
0.44537028670310974 0.430104523897171 0.44946539402008057
0.2702569365501404 0.511385977268219 0.5621920824050903
0.4135264754295349 0.4216420650482178 0.48452404141426086
0.3461078405380249 0.5360982418060303 0.4609096646308899
0.3050065040588379 0.509880006313324 0.5846523642539978
0.3325447738170624 0.5331985950469971 0.42908617854118347
0.2508481442928314 0.5976039171218872 0.46326881647109985
0.37451446056365967 0.5605036020278931 0.451371431350708
0.35593029856681824 0.4365445375442505 0.5387915968894958
0.4345891773700714 0.6144763827323914 0.4640982151031494
0.35148826241493225 0.5838131308555603 0.5226272940635681
0.28292369842529297 0.5652881264686584 0.522764265537262
0.2742193043231964 0.6139780879020691 0.5196150541305542
0.32444632053375244 0.5188220143318176 0.4428727924823761
0.2777572274208069 0.45056477189064026 0.44007739424705505
0.2523724436759949 0.4565916359424591 0.42689070105552673
0.3753710091114044 0.455915242433548 0.4378947615623474
0.3460346758365631 0.5114485025405884 0.5440788865089417
0.3682803809642792 0.48499616980552673 0.4194599688053131
0.43830356001853943 0.5441612601280212 0.5537458062171936
0.44609683752059937 0.4245075285434723 0.5275042057037354
0.26268792152404785 0.6043185591697693 0.4284350275993347
0.31136706471443176 0.4564339518547058 0.5913520455360413
0.44012513756752014 0.4832497537136078 0.443929523229599
0.28679975867271423 0.547792375087738 0.4608228802680969
0.42043012380599976 0.540233850479126 0.5530304908752441
0.3309422433376312 0.5341103672981262 0.4877181649208069
0.37874656915664673 0.580439031124115 0.4556858539581299
0.3461196720600128 0.48008325695991516 0.40727701783180237
0.3287273943424225 0.4199267625808716 0.5657020211219788
0.3979860842227936 0.4987955689430237 0.49365004897117615
0.3546343445777893 0.509850263595581 0.45692723989486694
0.44084498286247253 0.5747520327568054 0.5334877371788025
0.27328768372535706 0.5355672836303711 0.5524327158927917
0.4209176003932953 0.485090047121048 0.5869641304016113
0.28644272685050964 0.4929647147655487 0.44712120294570923
0.36294105648994446 0.581157922744751 0.5197799205780029
0.42146483063697815 0.5704535245895386 0.4502946436405182
0.2926315367221832 0.5305413603782654 0.43345776200294495
0.326413094997406 0.4820421040058136 0.591350257396698
0.3310658931732178 0.4872380197048187 0.5957768559455872
0.2625235915184021 0.4281664490699768 0.5556327700614929
0.4178743362426758 0.5435020923614502 0.46314737200737
0.4131941795349121 0.5855825543403625 0.584646463394165
0.2587793469429016 0.5584648251533508 0.5872324705123901
0.3576852083206177 0.49847185611724854 0.5257904529571533
0.29464954137802124 0.4351080060005188 0.4559938907623291
0.26248183846473694 0.42153823375701904 0.5197120308876038
0.26955246925354004 0.56204754114151 0.4769139587879181
0.4482628405094147 0.5999601483345032 0.4629781246185303
0.26268792152404785 0.6043185591697693 0.4284350275993347
0.31136706471443176 0.4564339518547058 0.5913520455360413
0.44012513756752014 0.4832497537136078 0.443929523229599
0.3214389681816101 0.5824135541915894 0.4439280033111572
0.3724941313266754 0.5985314249992371 0.5044833421707153
0.26399731636047363 0.4460231363773346 0.47348007559776306
0.4269471764564514 0.5456598997116089 0.5284180641174316
0.3442552983760834 0.46138086915016174 0.46348223090171814
0.2918458878993988 0.5623033046722412 0.4852689206600189
0.2524440586566925 0.49876630306243896 0.5983709692955017
0.3546343445777893 0.509850263595581 0.45692723989486694
0.3409636616706848 0.6009708642959595 0.5437051653862
0.3374999761581421 0.46416473388671875 0.49641501903533936
0.3873545229434967 0.5057874917984009 0.4994843006134033
0.26333269476890564 0.45843830704689026 0.4427123963832855
0.4209176003932953 0.485090047121048 0.5869641304016113
0.28644272685050964 0.4929647147655487 0.44712120294570923
0.36294105648994446 0.581157922744751 0.5197799205780029
0.42146483063697815 0.5704535245895386 0.4502946436405182
0.2926315367221832 0.5305413603782654 0.43345776200294495
0.326413094997406 0.4820421040058136 0.591350257396698
0.4135853052139282 0.6032047271728516 0.4284389615058899
0.4178743362426758 0.5435020923614502 0.46314737200737
0.4131941795349121 0.5855825543403625 0.584646463394165
0.2587793469429016 0.5584648251533508 0.5872324705123901
0.40549859404563904 0.5997293591499329 0.5443211793899536
0.3809187412261963 0.557231068611145 0.4364628493785858
0.42807304859161377 0.5991711020469666 0.5772528052330017
0.26268792152404785 0.6043185591697693 0.4284350275993347
0.31136706471443176 0.4564339518547058 0.5913520455360413
0.44012513756752014 0.4832497537136078 0.443929523229599
0.28679975867271423 0.547792375087738 0.4608228802680969
0.2867996394634247 0.5477922558784485 0.4608229994773865
0.26399731636047363 0.4460231363773346 0.47348007559776306
0.4269471764564514 0.5456598997116089 0.5284180641174316
0.3442552983760834 0.46138086915016174 0.46348223090171814
0.43249377608299255 0.49624893069267273 0.5389411449432373
0.3287273943424225 0.4199267625808716 0.5657020211219788
0.2524440586566925 0.49876630306243896 0.5983709692955017
0.3861452043056488 0.614066481590271 0.5367506742477417
0.3409636616706848 0.6009708642959595 0.5437051653862
0.3873545229434967 0.5057874917984009 0.4994843006134033
0.2671207785606384 0.5434468388557434 0.45139795541763306
0.36738547682762146 0.5391750335693359 0.4398002326488495
0.27272072434425354 0.5198936462402344 0.42817121744155884
0.3888309597969055 0.4209204912185669 0.4624323844909668
0.29703736305236816 0.42726820707321167 0.4587916135787964
0.315581738948822 0.43631628155708313 0.5030120015144348
0.3548411726951599 0.4533107280731201 0.5169202089309692
0.3364730179309845 0.48904258012771606 0.5405687689781189
0.4394296109676361 0.5065517425537109 0.4991125464439392
0.4400266408920288 0.4899117648601532 0.4320790767669678
0.35963836312294006 0.48963603377342224 0.5733036994934082
0.36551421880722046 0.42496457695961 0.5415552258491516
0.26543790102005005 0.5240060687065125 0.4282008409500122
0.42499083280563354 0.4344606399536133 0.4221612513065338
0.41764938831329346 0.6010777950286865 0.4543500542640686
0.4245279133319855 0.5159174799919128 0.4791320562362671
0.26169124245643616 0.5384997725486755 0.47880449891090393
0.30857476592063904 0.5221323370933533 0.4800378084182739
0.25810202956199646 0.5899871587753296 0.5339910984039307
0.31465694308280945 0.4808829724788666 0.5897302031517029
0.4086965024471283 0.5270827412605286 0.5073938369750977
0.4360901415348053 0.5210198163986206 0.4561230540275574
0.34213268756866455 0.6077781915664673 0.5381823182106018
0.3004668951034546 0.5833088159561157 0.5052570700645447
0.4044837951660156 0.579649031162262 0.5742105841636658
0.30195674300193787 0.5818973779678345 0.42665234208106995
0.3434871733188629 0.5425333380699158 0.5509053468704224
0.31872767210006714 0.4284000098705292 0.5149326324462891
0.2615694999694824 0.6165764331817627 0.4559631943702698
0.3739958703517914 0.5867727398872375 0.5160441994667053
0.40145638585090637 0.5763400197029114 0.47460705041885376
0.34585660696029663 0.5890787839889526 0.5921016931533813
0.29360640048980713 0.46885067224502563 0.5821359753608704
0.41023561358451843 0.5551590919494629 0.5217254757881165
0.4122113287448883 0.418879896402359 0.5210215449333191
0.40165039896965027 0.585096538066864 0.5799239277839661
0.4209176003932953 0.485090047121048 0.5869641304016113
0.4382970631122589 0.5927086472511292 0.4915846884250641
0.38133788108825684 0.5169382095336914 0.42585450410842896
0.38536423444747925 0.6074020266532898 0.4857347011566162
0.43895256519317627 0.4252477288246155 0.40504518151283264
0.3740367591381073 0.5097730159759521 0.43198081851005554
0.3317878246307373 0.5131679177284241 0.4740300178527832
0.2717854380607605 0.5611597299575806 0.47261548042297363
0.26130399107933044 0.5942411422729492 0.4739986062049866
0.375950425863266 0.45406055450439453 0.5380433201789856
0.3095356225967407 0.47452878952026367 0.4948332607746124
0.41086578369140625 0.4928571581840515 0.5089849233627319
0.2516656517982483 0.56477952003479 0.4038173258304596
0.3360614776611328 0.6055580377578735 0.5202533006668091
0.3422020971775055 0.5780435800552368 0.5923235416412354
0.3325502276420593 0.4639032781124115 0.49703091382980347
0.26855921745300293 0.4591183066368103 0.5578100085258484
0.3638654053211212 0.5722594261169434 0.49225398898124695
0.2898007929325104 0.5771426558494568 0.487135648727417
0.44464054703712463 0.5569807291030884 0.5054813027381897
0.3924614489078522 0.42078444361686707 0.5755557417869568
0.3209993541240692 0.4952239990234375 0.4473206102848053
0.2713676691055298 0.5012935400009155 0.5660009980201721
0.3654603660106659 0.4558921456336975 0.5841936469078064
0.44152605533599854 0.47653329372406006 0.4780634343624115
0.2840530276298523 0.5683541297912598 0.5903038382530212
0.41233476996421814 0.42076894640922546 0.5303096771240234
0.30243825912475586 0.4967705309391022 0.5852051377296448
0.2953445315361023 0.49002355337142944 0.4976485073566437
0.4095447063446045 0.47694262862205505 0.43692678213119507
0.4244171679019928 0.48284924030303955 0.5543935894966125
0.29762980341911316 0.46986305713653564 0.5529447793960571
0.2639611065387726 0.51513671875 0.49498334527015686
0.2691498100757599 0.5148734450340271 0.5045990943908691
0.3638441860675812 0.5589461922645569 0.5586497783660889
0.315581738948822 0.43631628155708313 0.5030120015144348
0.3548411726951599 0.4533107280731201 0.5169202089309692
0.3364730179309845 0.48904258012771606 0.5405687689781189
0.4394296109676361 0.5065517425537109 0.4991125464439392
0.4400266408920288 0.4899117648601532 0.4320790767669678
0.35963836312294006 0.48963603377342224 0.5733036994934082
0.36551421880722046 0.42496457695961 0.5415552258491516
0.26543790102005005 0.5240060687065125 0.4282008409500122
0.42499083280563354 0.4344606399536133 0.4221612513065338
0.41764938831329346 0.6010777950286865 0.4543500542640686
0.4245279133319855 0.5159174799919128 0.4791320562362671
0.26169124245643616 0.5384997725486755 0.47880449891090393
0.3066580891609192 0.5408992767333984 0.5828588604927063
0.26427075266838074 0.4802588224411011 0.5399137735366821
0.40840765833854675 0.5769190788269043 0.5957183241844177
0.3068932294845581 0.5789032578468323 0.5107520222663879
0.41156160831451416 0.6061403751373291 0.40687739849090576
0.4270063042640686 0.4214288592338562 0.5129546523094177
0.26796185970306396 0.6084294319152832 0.4238019585609436
0.37053292989730835 0.48490503430366516 0.45390477776527405
0.2985239624977112 0.5157663822174072 0.5583078265190125
0.3132975995540619 0.5043514370918274 0.40255236625671387
0.41865721344947815 0.47258394956588745 0.5655607581138611
0.4227217733860016 0.41891252994537354 0.40668073296546936
0.4132325351238251 0.4523223042488098 0.5549641251564026
0.25635671615600586 0.6023392081260681 0.44913339614868164
0.418260782957077 0.5824416279792786 0.40904566645622253
0.39744409918785095 0.46442463994026184 0.5732494592666626
0.3252246081829071 0.5711881518363953 0.5135294795036316
0.4181433320045471 0.5891416072845459 0.5673139095306396
0.2717854380607605 0.5611597299575806 0.47261548042297363
0.26130399107933044 0.5942411422729492 0.4739986062049866
0.375950425863266 0.45406055450439453 0.5380433201789856
0.3095356225967407 0.47452878952026367 0.4948332607746124
0.41086578369140625 0.4928571581840515 0.5089849233627319
0.2516656517982483 0.56477952003479 0.4038173258304596
0.3360614776611328 0.6055580377578735 0.5202533006668091
0.3422020971775055 0.5780435800552368 0.5923235416412354
0.3325502276420593 0.4639032781124115 0.49703091382980347
0.3243948221206665 0.46667322516441345 0.44652292132377625
0.2686736285686493 0.4588419795036316 0.5575360655784607
0.36372825503349304 0.6098875403404236 0.4925471544265747
0.25267380475997925 0.5778030157089233 0.5972586870193481
0.31941747665405273 0.5197241902351379 0.5057652592658997
0.3991605341434479 0.44720911979675293 0.464220255613327
0.4194992780685425 0.4338696002960205 0.4395633637905121
0.4125576615333557 0.5900297164916992 0.5187066197395325
0.2713676691055298 0.5012935400009155 0.5660009980201721
0.3654603660106659 0.4558921456336975 0.5841936469078064
0.44152605533599854 0.47653329372406006 0.4780634343624115
0.2840530276298523 0.5683541297912598 0.5903038382530212
0.41233476996421814 0.42076894640922546 0.5303096771240234
0.30243825912475586 0.4967705309391022 0.5852051377296448
0.2953445315361023 0.49002355337142944 0.4976485073566437
0.3144775331020355 0.5819421410560608 0.5384997725486755
0.4103827178478241 0.5076360106468201 0.5730448365211487
0.4244171679019928 0.48284924030303955 0.5543935894966125
0.29762980341911316 0.46986305713653564 0.5529447793960571
0.40685567259788513 0.565230667591095 0.5798376202583313
0.4413069784641266 0.437098890542984 0.5957539081573486
0.44722995162010193 0.531721830368042 0.48928332328796387
0.26027247309684753 0.44415396451950073 0.4820360839366913
0.2717854380607605 0.5611597299575806 0.47261548042297363
0.3095356225967407 0.47452878952026367 0.4948332607746124
0.41086578369140625 0.4928571581840515 0.5089849233627319
0.2516656517982483 0.56477952003479 0.4038173258304596
0.3360614776611328 0.6055580377578735 0.5202533006668091
0.3422020971775055 0.5780435800552368 0.5923235416412354
0.3243948221206665 0.46667322516441345 0.44652292132377625
0.2686736285686493 0.4588419795036316 0.5575360655784607
0.36372825503349304 0.6098875403404236 0.4925471544265747
0.25267380475997925 0.5778030157089233 0.5972586870193481
0.31941747665405273 0.5197241902351379 0.5057652592658997
0.3991605341434479 0.44720911979675293 0.464220255613327
0.4194992780685425 0.4338696002960205 0.4395633637905121
0.4125576615333557 0.5900297164916992 0.5187066197395325
0.27368706464767456 0.49466434121131897 0.4827711284160614
0.44084957242012024 0.4917294383049011 0.4966791570186615
0.3697238862514496 0.5965597033500671 0.5938965082168579
0.3262782692909241 0.5543902516365051 0.5266847610473633
0.4166671633720398 0.6132405400276184 0.48474761843681335
0.39553606510162354 0.5077983140945435 0.5375811457633972
0.26728954911231995 0.5017054080963135 0.5770193934440613
0.3635237514972687 0.5115342140197754 0.4999978542327881
0.25294384360313416 0.49069467186927795 0.46354570984840393
0.4244171679019928 0.48284924030303955 0.5543935894966125
0.29762980341911316 0.46986305713653564 0.5529447793960571
0.40685567259788513 0.565230667591095 0.5798376202583313
0.4413069784641266 0.437098890542984 0.5957539081573486
0.44722995162010193 0.531721830368042 0.48928332328796387
0.31028497219085693 0.4740089178085327 0.44943130016326904
0.2518221139907837 0.5880094766616821 0.48155441880226135
0.3415839970111847 0.5199446678161621 0.5850054025650024
0.4350634515285492 0.5707821249961853 0.403193861246109
0.36551421880722046 0.42496457695961 0.5415552258491516
0.26543790102005005 0.5240060687065125 0.4282008409500122
0.42499083280563354 0.4344606399536133 0.4221612513065338
0.41764938831329346 0.6010777950286865 0.4543500542640686
0.4245279133319855 0.5159174799919128 0.4791320562362671
0.26169124245643616 0.5384997725486755 0.47880449891090393
0.30857476592063904 0.5221323370933533 0.4800378084182739
0.25810202956199646 0.5899871587753296 0.5339910984039307
0.31465694308280945 0.4808829724788666 0.5897302031517029
0.28901374340057373 0.5860055088996887 0.4523390233516693
0.40318208932876587 0.4780522584915161 0.5601115822792053
0.27547386288642883 0.5213331580162048 0.56069415807724
0.3081825077533722 0.5730467438697815 0.4194047152996063
0.3210357129573822 0.6133690476417542 0.474780797958374
0.43321847915649414 0.5446856617927551 0.42173123359680176
0.4029257595539093 0.5679314136505127 0.4213719964027405
0.3851754367351532 0.548647403717041 0.553176999092102
0.27224642038345337 0.513327956199646 0.49194514751434326
0.3070850074291229 0.49002429842948914 0.45550012588500977
0.3916507959365845 0.4242902100086212 0.5013465881347656
0.35311222076416016 0.48707565665245056 0.4623382091522217
0.36322343349456787 0.5085921883583069 0.45400604605674744
0.29072481393814087 0.472851037979126 0.43007907271385193
0.367378294467926 0.6062794327735901 0.5242602229118347
0.30078136920928955 0.4662281274795532 0.4766378700733185
0.42772138118743896 0.43631839752197266 0.4293367266654968
0.44949132204055786 0.617095410823822 0.5920166373252869
0.29684892296791077 0.5661767721176147 0.5894330739974976
0.2771153748035431 0.460979163646698 0.5310221910476685
0.30744457244873047 0.5865219831466675 0.5776076912879944
0.4269428253173828 0.5450447201728821 0.5289615392684937
0.3448861837387085 0.5301421284675598 0.43481001257896423
0.30857476592063904 0.5221323370933533 0.4800378084182739
0.25810202956199646 0.5899871587753296 0.5339910984039307
0.31465694308280945 0.4808829724788666 0.5897302031517029
0.4086965024471283 0.5270827412605286 0.5073938369750977
0.4360901415348053 0.5210198163986206 0.4561230540275574
0.34213268756866455 0.6077781915664673 0.5381823182106018
0.3004668951034546 0.5833088159561157 0.5052570700645447
0.4044837951660156 0.579649031162262 0.5742105841636658
0.30195674300193787 0.5818973779678345 0.42665234208106995
0.3434871733188629 0.5425333380699158 0.5509053468704224
0.31872767210006714 0.4284000098705292 0.5149326324462891
0.2615694999694824 0.6165764331817627 0.4559631943702698
0.3739958703517914 0.5867727398872375 0.5160441994667053
0.40145638585090637 0.5763400197029114 0.47460705041885376
0.3442355692386627 0.5872613191604614 0.5173829197883606
0.40000593662261963 0.4438110291957855 0.413544625043869
0.42515242099761963 0.44432419538497925 0.5617453455924988
0.2886865735054016 0.5632020235061646 0.46672523021698
0.4043629765510559 0.4327619671821594 0.4635574519634247
0.31100699305534363 0.532977283000946 0.5213350653648376
0.40054142475128174 0.5079113841056824 0.5781548023223877
0.4381198287010193 0.4572603702545166 0.4326266050338745
0.4394317865371704 0.42092257738113403 0.43519750237464905
0.43778109550476074 0.5277751684188843 0.5206257104873657
0.27628520131111145 0.5575525164604187 0.44000476598739624
0.3706040382385254 0.5236397385597229 0.5960397720336914
0.3471004068851471 0.4912067949771881 0.5571226477622986
0.3226163983345032 0.5201071500778198 0.4859726130962372
0.32542309165000916 0.564593493938446 0.4240802824497223
0.26350295543670654 0.5070860981941223 0.5671313405036926
0.33340007066726685 0.5392776131629944 0.48365214467048645
0.3448861837387085 0.5301421284675598 0.43481001257896423
0.331807017326355 0.5723206996917725 0.5390532612800598
0.44666317105293274 0.5302751064300537 0.5331562757492065
0.3996739089488983 0.5994053483009338 0.5068095326423645
0.41363224387168884 0.42495468258857727 0.5214844346046448
0.2582547664642334 0.6077948808670044 0.5091314315795898
0.3202223479747772 0.5317254066467285 0.4595242142677307
0.2886773645877838 0.4214661419391632 0.4339304566383362
0.43934324383735657 0.5547982454299927 0.5239173769950867
0.26387035846710205 0.5826051831245422 0.5649613738059998
0.3252246081829071 0.5711881518363953 0.5135294795036316
0.3637729287147522 0.49636179208755493 0.5977586507797241
0.37700387835502625 0.46433383226394653 0.4110165536403656
0.2683992087841034 0.47524556517601013 0.5832503437995911
0.27695977687835693 0.6008781790733337 0.5265854001045227
0.250815212726593 0.5323721766471863 0.5643782615661621
0.36414122581481934 0.42254507541656494 0.5894590020179749
0.3408639132976532 0.5979864597320557 0.49516186118125916
0.3184173107147217 0.552924633026123 0.5512799024581909
0.25741273164749146 0.5221169590950012 0.4016059339046478
0.3583214282989502 0.5227075815200806 0.5900935530662537
0.3084246516227722 0.5675261616706848 0.4938286244869232
0.2600073218345642 0.5258671641349792 0.524796187877655
0.2657698690891266 0.42705896496772766 0.44186151027679443
0.3243623673915863 0.5959140062332153 0.492573082447052
0.41237232089042664 0.6151459813117981 0.48388710618019104
0.25288376212120056 0.577065646648407 0.5362191200256348
0.28827545046806335 0.5640059113502502 0.5857672095298767
0.3469577729701996 0.5793952345848083 0.41367974877357483
0.3392347991466522 0.5863057971000671 0.5121781229972839
0.3699547052383423 0.519335925579071 0.5430066585540771
0.2838078737258911 0.6083183288574219 0.48582661151885986
0.2639611065387726 0.51513671875 0.49498334527015686
0.4189879596233368 0.4385821223258972 0.5551304221153259
0.42679810523986816 0.4780276119709015 0.4899423122406006
0.4086153507232666 0.49857059121131897 0.5332480669021606
0.2952823340892792 0.5860788226127625 0.454425573348999
0.3917681574821472 0.5147051215171814 0.43795499205589294
0.3258042335510254 0.4244708716869354 0.41003429889678955
0.3698000907897949 0.5160114169120789 0.5332293510437012
0.3167787194252014 0.4336891174316406 0.46570807695388794
0.4049599766731262 0.5961672067642212 0.45055729150772095
0.43374180793762207 0.5291537046432495 0.4359782934188843
0.25753355026245117 0.4341099262237549 0.4475681781768799
0.36796772480010986 0.6131957769393921 0.4627964496612549
0.4045310318470001 0.5341100692749023 0.560563862323761
0.32263725996017456 0.4620056748390198 0.5019152760505676
0.347746342420578 0.5318872928619385 0.5830116868019104
0.2912602722644806 0.42781561613082886 0.4974299371242523
0.35601183772087097 0.4853169023990631 0.511426568031311
0.37431973218917847 0.4657975435256958 0.5895490646362305
0.38414523005485535 0.491598904132843 0.533146858215332
0.44002097845077515 0.5643669366836548 0.4354005753993988
0.40296638011932373 0.5252428650856018 0.4877783954143524
0.4042806923389435 0.42691490054130554 0.5638983845710754
0.3397383689880371 0.5260085463523865 0.42033854126930237
0.3438885807991028 0.5391014814376831 0.5611748695373535
0.355073481798172 0.5351135730743408 0.5828772187232971
0.3794161379337311 0.4214419722557068 0.5706040859222412
0.3532049357891083 0.4315280020236969 0.5194171667098999
0.25809112191200256 0.5107974410057068 0.5782861113548279
0.3166274130344391 0.4967862367630005 0.5758882164955139
0.39162376523017883 0.5212122201919556 0.4644228219985962
0.3063391447067261 0.5976234078407288 0.580621063709259
0.3374999761581421 0.46416473388671875 0.49641501903533936
0.37485992908477783 0.5788547992706299 0.5181612968444824
0.27702078223228455 0.5086148381233215 0.5982475280761719
0.28738728165626526 0.4487004280090332 0.4579630196094513
0.3946894705295563 0.4673334062099457 0.4321058392524719
0.4202727675437927 0.5285907983779907 0.5168357491493225
0.25975650548934937 0.5736326575279236 0.46011409163475037
0.3879707455635071 0.5555611252784729 0.5834484696388245
0.2767208516597748 0.5282372832298279 0.5827835202217102
0.39300066232681274 0.5172786116600037 0.5327854156494141
0.35668879747390747 0.4955444633960724 0.5879937410354614
0.44290223717689514 0.5992948412895203 0.4930722713470459
0.33679765462875366 0.5543462634086609 0.4920712113380432
0.2878741919994354 0.4819311797618866 0.47876930236816406
0.39935868978500366 0.4518895745277405 0.42925429344177246
0.4314267635345459 0.4357997179031372 0.40406614542007446
0.3582170009613037 0.5676012635231018 0.41905298829078674
0.2608982026576996 0.4743853509426117 0.41602057218551636
0.28149086236953735 0.5363610982894897 0.5107013583183289
0.3339206874370575 0.5919556021690369 0.5918812155723572
0.4228741228580475 0.5747158527374268 0.4316721260547638
0.34729182720184326 0.5005395412445068 0.48789453506469727
0.2635807991027832 0.4786575138568878 0.44656240940093994
0.39000242948532104 0.5496179461479187 0.5810883045196533
0.3311641216278076 0.6137316226959229 0.45962953567504883
0.4188019633293152 0.5610634684562683 0.41938483715057373
0.3286261558532715 0.4512993097305298 0.43063536286354065
0.3760863244533539 0.503293514251709 0.4003852307796478
0.4100985825061798 0.5555775165557861 0.5361030101776123
0.3424687385559082 0.42701953649520874 0.49374812841415405
0.28960612416267395 0.45399361848831177 0.4302135109901428
0.4331388771533966 0.6076598763465881 0.5576469898223877
0.3873545229434967 0.5057874917984009 0.4994843006134033
0.26169124245643616 0.5384997725486755 0.47880449891090393
0.30857476592063904 0.5221323370933533 0.4800378084182739
0.25810202956199646 0.5899871587753296 0.5339910984039307
0.25810202956199646 0.5899871587753296 0.5339910984039307
0.31465694308280945 0.4808829724788666 0.5897302031517029
0.4086965024471283 0.5270827412605286 0.5073938369750977
0.4044837951660156 0.579649031162262 0.5742105841636658
0.30195674300193787 0.5818973779678345 0.42665234208106995
0.3434871733188629 0.5425333380699158 0.5509053468704224
0.31872767210006714 0.4284000098705292 0.5149326324462891
0.31872767210006714 0.4284000098705292 0.5149326324462891
0.2615694999694824 0.6165764331817627 0.4559631943702698
0.3739958703517914 0.5867727398872375 0.5160441994667053
0.3840668797492981 0.44388091564178467 0.539094090461731
0.3368966281414032 0.584794282913208 0.5772700905799866
0.4122850298881531 0.5743895173072815 0.5868656635284424
0.4154084324836731 0.5045778751373291 0.46152010560035706
0.36273786425590515 0.43543851375579834 0.505276083946228
0.2673432230949402 0.5735676884651184 0.502116322517395
0.37357982993125916 0.47252702713012695 0.45630329847335815
0.27695977687835693 0.6008781790733337 0.5265854001045227
0.24995937943458557 0.4200485944747925 0.45195272564888
0.2519042193889618 0.5352271199226379 0.41202816367149353
0.42764800786972046 0.4379485249519348 0.5822767019271851
0.3696686625480652 0.527471661567688 0.44720515608787537
0.37033140659332275 0.6104179620742798 0.5837950110435486
0.4188019633293152 0.5610634684562683 0.41938483715057373
0.3286261558532715 0.4512993097305298 0.43063536286354065
0.3760863244533539 0.503293514251709 0.4003852307796478
0.4100985825061798 0.5555775165557861 0.5361030101776123
0.3424687385559082 0.42701953649520874 0.49374812841415405
0.2717854380607605 0.5611597299575806 0.47261548042297363
0.36895132064819336 0.5572462677955627 0.5609854459762573
0.28144076466560364 0.617090106010437 0.5471599698066711
0.40585583448410034 0.5379112958908081 0.40860724449157715
0.41549134254455566 0.43487370014190674 0.5219124555587769
0.4185989201068878 0.6133812069892883 0.41888368129730225
0.3015851676464081 0.5279043912887573 0.4903959631919861
0.31649747490882874 0.5846632122993469 0.5623779296875
0.2564759850502014 0.46224555373191833 0.4399203360080719
0.3699219524860382 0.5542454123497009 0.5231671929359436
0.3479651212692261 0.5603291988372803 0.5780380368232727
0.263011634349823 0.5066332817077637 0.5869954824447632
0.32009193301200867 0.5317688584327698 0.5129672884941101
0.38210153579711914 0.592934787273407 0.44773977994918823
0.34564635157585144 0.5467584133148193 0.43516674637794495
0.36104241013526917 0.6120558977127075 0.5157396793365479
0.36875835061073303 0.5516229271888733 0.5017421841621399
0.41372445225715637 0.5687982439994812 0.46568676829338074
0.28257399797439575 0.556401252746582 0.5983585119247437
0.2551118731498718 0.52215576171875 0.502047598361969
0.2676556408405304 0.4555160105228424 0.5538780093193054
0.3047237992286682 0.4358398914337158 0.5025487542152405
0.33925023674964905 0.578630268573761 0.5732702612876892
0.4258398115634918 0.5050801634788513 0.5210690498352051
0.36144310235977173 0.4850367307662964 0.4546467959880829
0.36144310235977173 0.4850367307662964 0.4546467959880829
0.33566251397132874 0.4475325345993042 0.53128582239151
0.3692265748977661 0.46280625462532043 0.4897567629814148
0.3328867554664612 0.5263252854347229 0.47879254817962646
0.44973990321159363 0.5753967761993408 0.42545148730278015
0.37866687774658203 0.5173972249031067 0.5399793386459351
0.29061567783355713 0.4215885102748871 0.43552765250205994
0.4413069784641266 0.437098890542984 0.5957539081573486
0.4258398115634918 0.5050801634788513 0.5210690498352051
0.36144310235977173 0.4850367307662964 0.4546467959880829
0.33566251397132874 0.4475325345993042 0.53128582239151
0.3692265748977661 0.46280625462532043 0.4897567629814148
0.3328867554664612 0.5263252854347229 0.47879254817962646
0.44973990321159363 0.5753967761993408 0.42545148730278015
0.37866687774658203 0.5173972249031067 0.5399793386459351
0.29061567783355713 0.4215885102748871 0.43552765250205994
0.3001341223716736 0.5228033065795898 0.43768492341041565
0.425841748714447 0.5323852300643921 0.5093043446540833
0.37447959184646606 0.5327205657958984 0.4229499399662018
0.25232642889022827 0.49476689100265503 0.5424703359603882
0.39907440543174744 0.5631008148193359 0.48122283816337585
0.26128464937210083 0.5771832466125488 0.515121579170227
0.27650579810142517 0.5450413823127747 0.4367668032646179
0.3048233091831207 0.477556437253952 0.5683731436729431
0.41385775804519653 0.4416922628879547 0.46851417422294617
0.307151734828949 0.5928888320922852 0.5845530033111572
0.32615968585014343 0.45280587673187256 0.5470298528671265
0.4472099542617798 0.5740494132041931 0.4523203372955322
0.2601867914199829 0.4252597391605377 0.42528924345970154
0.3779843747615814 0.4490092396736145 0.547348141670227
0.4337702989578247 0.6023873090744019 0.5051481127738953
0.2685246467590332 0.4911700487136841 0.4673973619937897
0.4057140350341797 0.583938717842102 0.5071712136268616
0.4025285542011261 0.5727782845497131 0.47738489508628845
0.3171064257621765 0.6005577445030212 0.44595620036125183
0.4189879596233368 0.4385821223258972 0.5551304221153259
0.36174073815345764 0.4449378550052643 0.500290036201477
0.39507240056991577 0.5384169816970825 0.5689924359321594
0.4440512955188751 0.5825186371803284 0.5199555158615112
0.37584686279296875 0.4354427754878998 0.5366771221160889
0.3328867554664612 0.5263252854347229 0.47879254817962646
0.44973990321159363 0.5753967761993408 0.42545148730278015
0.37866687774658203 0.5173972249031067 0.5399793386459351
0.29061567783355713 0.4215885102748871 0.43552765250205994
0.4039151668548584 0.5721989870071411 0.46288400888442993
0.35821086168289185 0.6127959489822388 0.4355461895465851
0.35716962814331055 0.5560560822486877 0.5986725687980652
0.43443676829338074 0.6134485006332397 0.46708256006240845
0.28831031918525696 0.6102352142333984 0.45030298829078674
0.3626764714717865 0.465223491191864 0.5968478322029114
0.28217944502830505 0.616030752658844 0.5663713216781616
0.26568636298179626 0.5841096043586731 0.4700546860694885
0.2838533818721771 0.4473845660686493 0.514228880405426
0.38148441910743713 0.5525571703910828 0.4886007606983185
0.2691498100757599 0.5148734450340271 0.5045990943908691
0.3638441860675812 0.5589461922645569 0.5586497783660889
0.315581738948822 0.43631628155708313 0.5030120015144348
0.3548411726951599 0.4533107280731201 0.5169202089309692
0.3364730179309845 0.48904258012771606 0.5405687689781189
0.4394296109676361 0.5065517425537109 0.4991125464439392
0.32615968585014343 0.45280587673187256 0.5470298528671265
0.4472099542617798 0.5740494132041931 0.4523203372955322
0.2601867914199829 0.4252597391605377 0.42528924345970154
0.3779843747615814 0.4490092396736145 0.547348141670227
0.4337702989578247 0.6023873090744019 0.5051481127738953
0.2685246467590332 0.4911700487136841 0.4673973619937897
0.4057140350341797 0.583938717842102 0.5071712136268616
0.4025285542011261 0.5727782845497131 0.47738489508628845
0.3171064257621765 0.6005577445030212 0.44595620036125183
0.4189879596233368 0.4385821223258972 0.5551304221153259
0.42679810523986816 0.4780276119709015 0.4899423122406006
0.28181979060173035 0.5733722448348999 0.5066537261009216
0.425841748714447 0.5323852300643921 0.5093043446540833
0.3103075623512268 0.47234630584716797 0.5618593692779541
0.2592026889324188 0.5559647679328918 0.5485203266143799
0.33468031883239746 0.4536896049976349 0.5474410653114319
0.2545503079891205 0.4417148232460022 0.4201725721359253
0.3594801723957062 0.5892012715339661 0.5097262859344482
0.3258042335510254 0.4244708716869354 0.41003429889678955
0.3698000907897949 0.5160114169120789 0.5332293510437012
0.3167787194252014 0.4336891174316406 0.46570807695388794
0.4049599766731262 0.5961672067642212 0.45055729150772095
0.43374180793762207 0.5291537046432495 0.4359782934188843
0.25753355026245117 0.4341099262237549 0.4475681781768799
0.36796772480010986 0.6131957769393921 0.4627964496612549
0.4045310318470001 0.5341100692749023 0.560563862323761
0.32263725996017456 0.4620056748390198 0.5019152760505676
0.347746342420578 0.5318872928619385 0.5830116868019104
0.2912602722644806 0.42781561613082886 0.4974299371242523
0.35601183772087097 0.4853169023990631 0.511426568031311
0.37431973218917847 0.4657975435256958 0.5895490646362305
0.38414523005485535 0.491598904132843 0.533146858215332
0.44002097845077515 0.5643669366836548 0.4354005753993988
0.40296638011932373 0.5252428650856018 0.4877783954143524
0.4042806923389435 0.42691490054130554 0.5638983845710754
0.3004003167152405 0.5627252459526062 0.5776599049568176
0.4304322898387909 0.49396172165870667 0.4636538624763489
0.28963515162467957 0.4316268265247345 0.5634391903877258
0.2945692837238312 0.5253955721855164 0.5900338888168335
0.3611130118370056 0.5656948089599609 0.4761843979358673
0.44973915815353394 0.6110031008720398 0.5440064072608948
0.425836443901062 0.5372254848480225 0.5253933668136597
0.25135374069213867 0.46961089968681335 0.5366643667221069
0.3626764714717865 0.465223491191864 0.5968478322029114
0.3739958703517914 0.5867727398872375 0.5160441994667053
0.3840668797492981 0.44388091564178467 0.539094090461731
0.3368966281414032 0.584794282913208 0.5772700905799866
0.4122850298881531 0.5743895173072815 0.5868656635284424
0.4154084324836731 0.5045778751373291 0.46152010560035706
0.37719279527664185 0.4172442853450775 0.5137340426445007
0.2673432230949402 0.5735676884651184 0.502116322517395
0.3733433783054352 0.47279027104377747 0.45652827620506287
0.3820701837539673 0.49401283264160156 0.5976508259773254
0.41405364871025085 0.4182033836841583 0.5130338072776794
0.3426119089126587 0.42255014181137085 0.4624897241592407
0.3978220224380493 0.6003187894821167 0.5679406523704529
0.35960283875465393 0.557228684425354 0.5854537487030029
0.3284367024898529 0.42598527669906616 0.4179183840751648
0.3286261558532715 0.4512993097305298 0.43063536286354065
0.35466885566711426 0.47420555353164673 0.4306633472442627
0.3424687385559082 0.42701953649520874 0.49374812841415405
0.26877692341804504 0.5661489367485046 0.5422472953796387
0.3460359275341034 0.5634167790412903 0.4658243954181671
0.40737369656562805 0.4352721869945526 0.5114353895187378
0.40096205472946167 0.603401780128479 0.4142269492149353
0.366280734539032 0.4957011342048645 0.4742048382759094
0.3342282772064209 0.46028369665145874 0.42567503452301025
0.31979992985725403 0.4742890000343323 0.5891913175582886
0.36125946044921875 0.5457314252853394 0.46729716658592224
0.3293534219264984 0.43277204036712646 0.5612156987190247
0.3858977258205414 0.5280365347862244 0.542644739151001
0.2955240309238434 0.532901406288147 0.5821226835250854
0.33886128664016724 0.44689032435417175 0.4879513680934906
0.3304874897003174 0.5333493947982788 0.5984856486320496
0.42717278003692627 0.6053184270858765 0.4078069031238556
0.4440512955188751 0.5825186371803284 0.5199555158615112
0.40582263469696045 0.48683658242225647 0.5763228535652161
0.4009658098220825 0.4207020103931427 0.5237140655517578
0.2785031795501709 0.44299355149269104 0.5313524007797241
0.288860946893692 0.4492948651313782 0.5397536754608154
0.30139806866645813 0.5507587194442749 0.5124567151069641
0.3163600564002991 0.5542697310447693 0.5026118755340576
0.3949977457523346 0.4520304501056671 0.4149646759033203
0.3395107388496399 0.49180734157562256 0.47525396943092346
0.2949013113975525 0.5489897727966309 0.5391454100608826
0.3181416988372803 0.44905078411102295 0.40015438199043274
0.3882797658443451 0.5073779821395874 0.4513319134712219
0.280006468296051 0.4336950480937958 0.5236602425575256
0.4155929386615753 0.5369229912757874 0.47338879108428955
0.3067227303981781 0.4868715703487396 0.5072459578514099
0.4343611001968384 0.5744446516036987 0.5157492160797119
0.3083325922489166 0.5776468515396118 0.5629968643188477
0.4073069989681244 0.5501495003700256 0.40717265009880066
0.3100709021091461 0.5817747712135315 0.42219263315200806
0.35748597979545593 0.5074742436408997 0.4650139808654785
0.3529602885246277 0.5990839004516602 0.4692571759223938
0.4153749346733093 0.4450733959674835 0.5051684379577637
0.4469802677631378 0.5473196506500244 0.41788628697395325
0.2748048007488251 0.49230068922042847 0.4710247218608856
0.25354433059692383 0.536990225315094 0.4788438081741333
0.35901620984077454 0.6007746458053589 0.45348507165908813
0.31372764706611633 0.5531713366508484 0.5048682689666748
0.3809957802295685 0.4422125220298767 0.5375040769577026
0.4178774654865265 0.5732240676879883 0.4004865288734436
0.4485696256160736 0.5362246632575989 0.56329745054245
0.41389724612236023 0.4809536933898926 0.4114384651184082
0.443440705537796 0.588969349861145 0.4768560528755188
0.39843258261680603 0.4577915668487549 0.5429877638816833
0.28436556458473206 0.4244239032268524 0.551393985748291
0.40531185269355774 0.587272584438324 0.4267304837703705
0.27595388889312744 0.5108516812324524 0.4910140931606293
0.28493115305900574 0.43305400013923645 0.47496870160102844
0.4183465242385864 0.4600825905799866 0.5639669895172119
0.30571410059928894 0.568168580532074 0.5446469783782959
0.4271364212036133 0.48498761653900146 0.4424629509449005
0.26155251264572144 0.518366813659668 0.5970192551612854
0.3292135000228882 0.4952494502067566 0.5821373462677002
0.37895816564559937 0.5349616408348083 0.47255900502204895
0.30530601739883423 0.48651689291000366 0.5072054862976074
0.3043155074119568 0.6048727035522461 0.5392784476280212
0.36450105905532837 0.601408064365387 0.49368518590927124
0.4377618134021759 0.5912443399429321 0.5017752647399902
0.33875659108161926 0.443045049905777 0.46535634994506836
0.3760146498680115 0.5100807547569275 0.5154569149017334
0.35298922657966614 0.5960525274276733 0.4858143627643585
0.40288615226745605 0.5483502149581909 0.41907230019569397
0.36624857783317566 0.5084872841835022 0.5547786355018616
0.43439817428588867 0.5471492409706116 0.4176924228668213
0.2742065191268921 0.4350731670856476 0.41804200410842896
0.3122766613960266 0.4288666248321533 0.4556862413883209
0.4204467833042145 0.49155086278915405 0.5280215740203857
0.3092244267463684 0.4587063789367676 0.5772599577903748
0.3509036898612976 0.41755276918411255 0.5735920071601868
0.2778434157371521 0.5597396492958069 0.5821083188056946
0.3977539539337158 0.4991605281829834 0.5540546178817749
0.2820812165737152 0.5102481842041016 0.4389435052871704
0.3717193305492401 0.4682638943195343 0.5070191025733948
0.32724013924598694 0.46652546525001526 0.5489508509635925
0.3833187520503998 0.4801325798034668 0.4580399990081787
0.3055918216705322 0.528584361076355 0.4651489555835724
0.26877692341804504 0.5661489367485046 0.5422472953796387
0.3460359275341034 0.5634167790412903 0.4658243954181671
0.2508946359157562 0.47869816422462463 0.43511685729026794
0.3268996477127075 0.47909387946128845 0.41030755639076233
0.32209065556526184 0.49124273657798767 0.48895737528800964
0.26418307423591614 0.5701174139976501 0.4101031720638275
0.3837045729160309 0.5702592134475708 0.5036112070083618
0.40536367893218994 0.5490787029266357 0.5729415416717529
0.32538411021232605 0.4460713267326355 0.5282571911811829
0.3408939242362976 0.553109884262085 0.4994548261165619
0.3266569674015045 0.43703150749206543 0.5168147683143616
0.2634820342063904 0.47549566626548767 0.5684301257133484
0.395098477602005 0.5697532296180725 0.4256081283092499
0.3290717601776123 0.48541906476020813 0.5457553267478943
0.3795633018016815 0.5352251529693604 0.49177300930023193
0.3881697356700897 0.6164058446884155 0.4765057861804962
0.32371658086776733 0.4448087513446808 0.5243766903877258
0.39817458391189575 0.4868171513080597 0.5011465549468994
0.2725525498390198 0.4987141191959381 0.5177396535873413
0.3047949969768524 0.5385445356369019 0.502508282661438
0.44299596548080444 0.43979552388191223 0.44972532987594604
0.2971111238002777 0.5446829795837402 0.5772552490234375
0.2588905096054077 0.5552903413772583 0.43559184670448303
0.408329576253891 0.60784912109375 0.5936732888221741
0.42207032442092896 0.4740353226661682 0.4073382318019867
0.40603935718536377 0.5986893773078918 0.5123980641365051
0.3606889247894287 0.5983198881149292 0.4519304037094116
0.3796479403972626 0.5296223163604736 0.5706431865692139
0.27065253257751465 0.5591828227043152 0.4764183759689331
0.4193812608718872 0.565787136554718 0.5589808821678162
0.28939735889434814 0.5256504416465759 0.5729503035545349
0.27695977687835693 0.6008781790733337 0.5265854001045227
0.3113086223602295 0.5661419630050659 0.5032418966293335
0.393014132976532 0.5314839482307434 0.5959456562995911
0.2703276574611664 0.5157021880149841 0.5929368138313293
0.36125946044921875 0.5457314252853394 0.46729716658592224
0.3293534219264984 0.43277204036712646 0.5612156987190247
0.3858977258205414 0.5280365347862244 0.542644739151001
0.41792187094688416 0.4976876676082611 0.4481188952922821
0.2955240309238434 0.532901406288147 0.5821226835250854
0.33886128664016724 0.44689032435417175 0.4879513680934906
0.3304874897003174 0.5333493947982788 0.5984856486320496
0.42717278003692627 0.6053184270858765 0.4078069031238556
0.3306357264518738 0.551400899887085 0.43716558814048767
0.28103864192962646 0.48686039447784424 0.4902818202972412
0.44686877727508545 0.5645009875297546 0.44835174083709717
0.2773975431919098 0.41857099533081055 0.5390564799308777
0.395579993724823 0.4340456426143646 0.4382708966732025
0.2582992911338806 0.5656617283821106 0.42766284942626953
0.34785741567611694 0.6099796891212463 0.4736453890800476
0.30673015117645264 0.5342182517051697 0.510733962059021
0.40103763341903687 0.549744725227356 0.5468326807022095
0.4098556935787201 0.4474789798259735 0.40328964591026306
0.25534722208976746 0.4265955090522766 0.5699244737625122
0.2739781141281128 0.5470060110092163 0.5125763416290283
0.25833380222320557 0.4483274221420288 0.5458194613456726
0.408329576253891 0.60784912109375 0.5936732888221741
0.42207032442092896 0.4740353226661682 0.4073382318019867
0.40603935718536377 0.5986893773078918 0.5123980641365051
0.3606889247894287 0.5983198881149292 0.4519304037094116
0.3796479403972626 0.5296223163604736 0.5706431865692139
0.27065253257751465 0.5591828227043152 0.4764183759689331
0.4193812608718872 0.565787136554718 0.5589808821678162
0.4228741228580475 0.5747158527374268 0.4316721260547638
0.3634069263935089 0.5834157466888428 0.4657454788684845
0.3491218388080597 0.5831837058067322 0.49216458201408386
0.2693714201450348 0.5230666995048523 0.5696508288383484
0.316752552986145 0.4866868853569031 0.47301873564720154
0.4124813377857208 0.5609787702560425 0.4824354946613312
0.3686359226703644 0.5200990438461304 0.5330140590667725
0.4473505914211273 0.5839347839355469 0.4687899053096771
0.44486698508262634 0.4257378876209259 0.5172078013420105
0.38380011916160583 0.605562150478363 0.4766896963119507
0.3956717550754547 0.5677854418754578 0.4378095865249634
0.30673015117645264 0.5342182517051697 0.510733962059021
0.40103763341903687 0.549744725227356 0.5468326807022095
0.4098556935787201 0.4474789798259735 0.40328964591026306
0.25534722208976746 0.4265955090522766 0.5699244737625122
0.2739781141281128 0.5470060110092163 0.5125763416290283
0.25833380222320557 0.4483274221420288 0.5458194613456726
0.408329576253891 0.60784912109375 0.5936732888221741
0.42207032442092896 0.4740353226661682 0.4073382318019867
0.40603935718536377 0.5986893773078918 0.5123980641365051
0.3606889247894287 0.5983198881149292 0.4519304037094116
0.3796479403972626 0.5296223163604736 0.5706431865692139
0.27065253257751465 0.5591828227043152 0.4764183759689331
0.4193812608718872 0.565787136554718 0.5589808821678162
0.28939735889434814 0.5256504416465759 0.5729503035545349
0.3051680326461792 0.5144544839859009 0.5410917401313782
0.3445771038532257 0.44912001490592957 0.5544055104255676
0.3912864923477173 0.4669713079929352 0.5476651787757874
0.27389422059059143 0.5666757822036743 0.4211871325969696
0.2629525363445282 0.4502508342266083 0.596832811832428
0.25914162397384644 0.5727031826972961 0.4006551504135132
0.4181051552295685 0.43685710430145264 0.42373135685920715
0.4228741228580475 0.5747158527374268 0.4316721260547638
0.2707718014717102 0.5062940120697021 0.5678696036338806
0.2932736575603485 0.5072973966598511 0.5699209570884705
0.4485364556312561 0.516460120677948 0.5266223549842834
0.366280734539032 0.4957011342048645 0.4742048382759094
