ply
format ascii 1.0
element vertex 826
property float x
property float y
property float z
end_header
0.4946712255477905 0.20370247960090637 0.5607622861862183
0.37071454524993896 0.27903541922569275 0.44504687190055847
0.405979722738266 0.19619818031787872 0.5214176177978516
0.5513942241668701 0.24054938554763794 0.5961109399795532
0.4144301116466522 0.28579601645469666 0.5487832427024841
0.4209907054901123 0.12145131081342697 0.46366143226623535
0.38202327489852905 0.21642345190048218 0.519076406955719
0.3977830111980438 0.28324177861213684 0.4514411687850952
0.5414270162582397 0.14307811856269836 0.5714255571365356
0.4760723114013672 0.13026246428489685 0.3983384668827057
0.4472212791442871 0.13631591200828552 0.4904178977012634
0.49126383662223816 0.2766497731208801 0.4676007926464081
0.5116605162620544 0.2722415030002594 0.47270387411117554
0.3488398790359497 0.1767374724149704 0.5955283641815186
0.3723604083061218 0.15808729827404022 0.45482784509658813
0.37671998143196106 0.23312270641326904 0.5389893651008606
0.5355717539787292 0.1897573322057724 0.5815253257751465
0.3826553523540497 0.2923717796802521 0.5305725932121277
0.43739408254623413 0.25681084394454956 0.5920147895812988
0.46986880898475647 0.3047478497028351 0.43238648772239685
0.3703908622264862 0.18618306517601013 0.4412752091884613
0.5130518078804016 0.21631671488285065 0.5034006237983704
0.49652087688446045 0.23450967669487 0.54941725730896
0.4136955142021179 0.24704763293266296 0.455742210149765
0.49584800004959106 0.2157575488090515 0.55133056640625
0.4214808940887451 0.28407055139541626 0.5488454103469849
0.49535709619522095 0.19373056292533875 0.4922228157520294
0.4149268865585327 0.3107847571372986 0.44257402420043945
0.4448153078556061 0.1567617654800415 0.5594916343688965
0.45323675870895386 0.25959107279777527 0.5354601740837097
0.5131387710571289 0.28563928604125977 0.4140823781490326
0.4816797375679016 0.15660935640335083 0.5187858939170837
0.39902159571647644 0.12739790976047516 0.595054566860199
0.42725878953933716 0.20652835071086884 0.4984772503376007
0.513608992099762 0.19903573393821716 0.44083112478256226
0.4409475028514862 0.1147918701171875 0.5936512351036072
0.3755764663219452 0.12992018461227417 0.5796988010406494
0.49627241492271423 0.20725536346435547 0.5063908100128174
0.5083593726158142 0.15984949469566345 0.45126065611839294
0.3558547794818878 0.1414838582277298 0.4588581323623657
0.39962857961654663 0.1563192456960678 0.45707830786705017
0.5003594756126404 0.14090527594089508 0.43668627738952637
0.4136139750480652 0.2300092875957489 0.5481376051902771
0.36720189452171326 0.15526200830936432 0.5722567439079285
0.5439736843109131 0.2186017781496048 0.4565497636795044
0.45836585760116577 0.2332882285118103 0.418109267950058
0.5327911972999573 0.27629220485687256 0.5737794637680054
0.5477758049964905 0.2445637732744217 0.4435853660106659
0.5028641223907471 0.18874751031398773 0.5412951707839966
0.42224785685539246 0.2685842514038086 0.5596031546592712
0.3965219557285309 0.1855805218219757 0.4223630130290985
0.3645736575126648 0.2842909097671509 0.4634246528148651
0.4288824200630188 0.19528815150260925 0.5326553583145142
0.36943864822387695 0.2481147050857544 0.41321367025375366
0.5031110048294067 0.2334611564874649 0.5744962692260742
0.5047902464866638 0.23214221000671387 0.49991774559020996
0.3513944745063782 0.1810799390077591 0.5632091164588928
0.34839919209480286 0.14566659927368164 0.4817187786102295
0.47104257345199585 0.1497354805469513 0.47153541445732117
0.4613785743713379 0.2520475685596466 0.577869176864624
0.3512631356716156 0.1199033260345459 0.44970494508743286
0.4158490002155304 0.14462047815322876 0.42837461829185486
0.538032054901123 0.15540678799152374 0.4572998285293579
0.38880378007888794 0.2597866654396057 0.5355271697044373
0.493385910987854 0.14157119393348694 0.40903928875923157
0.3677690029144287 0.22360120713710785 0.4262988269329071
0.353812575340271 0.21758244931697845 0.4836907386779785
0.4351034462451935 0.13937915861606598 0.41280344128608704
0.5513942241668701 0.24054938554763794 0.5961109399795532
0.4144301116466522 0.28579601645469666 0.5487832427024841
0.4209907054901123 0.12145131081342697 0.46366143226623535
0.38202327489852905 0.21642345190048218 0.519076406955719
0.35212451219558716 0.140788272023201 0.5833798050880432
0.3510899245738983 0.13719646632671356 0.4017360508441925
0.3598717749118805 0.13686411082744598 0.5452463626861572
0.47045859694480896 0.2831062078475952 0.5713918209075928
0.3627646267414093 0.2515701949596405 0.5811475515365601
0.40321066975593567 0.2079078108072281 0.5479339361190796
0.5229354500770569 0.22130520641803741 0.4274020195007324
0.48438194394111633 0.29195690155029297 0.46269306540489197
0.4489564895629883 0.2840788960456848 0.5997030735015869
0.459209680557251 0.2901169955730438 0.5341427326202393
0.43052661418914795 0.14334851503372192 0.5676596760749817
0.47800713777542114 0.22036965191364288 0.47365567088127136
0.3814123570919037 0.2871415913105011 0.4129142463207245
0.5441486239433289 0.1717100441455841 0.557509183883667
0.5125327110290527 0.14156247675418854 0.5752173662185669
0.36351197957992554 0.2650863826274872 0.5504034757614136
0.38512828946113586 0.1489771157503128 0.5065678954124451
0.46664854884147644 0.17045672237873077 0.40529748797416687
0.4974093735218048 0.2638007402420044 0.4203212261199951
0.3815244138240814 0.23782388865947723 0.5887241363525391
0.4120725393295288 0.2156137228012085 0.5959147810935974
0.5322424173355103 0.27736157178878784 0.442402720451355
0.43822312355041504 0.11529473960399628 0.4525580108165741
0.5160707831382751 0.12923187017440796 0.5263959765434265
0.43677905201911926 0.23349301517009735 0.566294252872467
0.3668685257434845 0.13652996718883514 0.5879333019256592
0.4288659989833832 0.2631683349609375 0.513119101524353
0.4654718339443207 0.12437460571527481 0.41729602217674255
0.4484845697879791 0.29185426235198975 0.536730945110321
0.5167942047119141 0.14450401067733765 0.43239209055900574
0.5285826325416565 0.23925556242465973 0.5751550197601318
0.4356693923473358 0.2537786066532135 0.5241031646728516
0.4326817989349365 0.2675451338291168 0.4395545423030853
0.38945215940475464 0.12071400880813599 0.4516232907772064
0.48856404423713684 0.2732783555984497 0.513053834438324
0.5348206162452698 0.2762613296508789 0.4500720202922821
0.43714094161987305 0.15622052550315857 0.5774210691452026
0.41339749097824097 0.16372402012348175 0.48432186245918274
0.49150481820106506 0.2713726758956909 0.41520267724990845
0.4090902507305145 0.1292293518781662 0.5000138878822327
0.4357537627220154 0.11369722336530685 0.5959044098854065
0.47728288173675537 0.2970978021621704 0.4514954686164856
0.4052686095237732 0.30673927068710327 0.5819450616836548
0.4189332127571106 0.181979238986969 0.458363801240921
0.3788202702999115 0.15714068710803986 0.42267027497291565
0.48106735944747925 0.17523042857646942 0.5736923813819885
0.5173817276954651 0.16886116564273834 0.41834327578544617
0.4317445755004883 0.14253385365009308 0.40496447682380676
0.5300809144973755 0.21513041853904724 0.5603589415550232
0.3896724581718445 0.13434164226055145 0.5474535822868347
0.3960108458995819 0.21645793318748474 0.5804475545883179
0.45469191670417786 0.17091071605682373 0.5381457209587097
0.5376747250556946 0.2609914243221283 0.5661650896072388
0.3748752176761627 0.13487660884857178 0.5462508201599121
0.44224610924720764 0.17127622663974762 0.5643678307533264
0.46880149841308594 0.2167740762233734 0.5136438012123108
0.5477346777915955 0.29766491055488586 0.4582798480987549
0.3960716426372528 0.15558019280433655 0.49550625681877136
0.4340399205684662 0.12032080441713333 0.5356225371360779
0.4195863902568817 0.1544681340456009 0.42855104804039
0.5409150719642639 0.2721525728702545 0.5041342973709106
0.4335215091705322 0.2490718811750412 0.4930430054664612
0.5202234983444214 0.2541996240615845 0.5441473126411438
0.3867923319339752 0.13276249170303345 0.4519166648387909
0.3493388593196869 0.19274002313613892 0.5112397074699402
0.5541213154792786 0.2673901319503784 0.5645356774330139
0.41385912895202637 0.12381104379892349 0.5793323516845703
0.44971954822540283 0.2856740355491638 0.4810398817062378
0.43837615847587585 0.20857466757297516 0.49915793538093567
0.4083966910839081 0.19457104802131653 0.4718400537967682
0.35869935154914856 0.2768840193748474 0.4198210537433624
0.5123581886291504 0.12021615356206894 0.40948715806007385
0.3856375217437744 0.27580299973487854 0.602864682674408
0.460129976272583 0.3018285930156708 0.5022122263908386
0.5490856170654297 0.27956417202949524 0.4177429974079132
0.4614124298095703 0.19154511392116547 0.4300990402698517
0.387609601020813 0.14797723293304443 0.49987897276878357
0.40771639347076416 0.15868185460567474 0.4880293905735016
0.5186665654182434 0.229719877243042 0.5835047960281372
0.40355610847473145 0.13415637612342834 0.4035518765449524
0.44838207960128784 0.26108166575431824 0.47686564922332764
0.44271278381347656 0.22309258580207825 0.5433525443077087
0.4327091574668884 0.12698331475257874 0.5797075033187866
0.42803657054901123 0.29400742053985596 0.4734095633029938
0.48208484053611755 0.15644191205501556 0.5239890217781067
0.35969269275665283 0.2616041898727417 0.5111764669418335
0.5020312666893005 0.11272911727428436 0.46572768688201904
0.36340010166168213 0.20047718286514282 0.4828389286994934
0.45315662026405334 0.1970944106578827 0.4945862591266632
0.4024243950843811 0.2773478925228119 0.42654949426651
0.4406849145889282 0.15479345619678497 0.4956478178501129
0.5082202553749084 0.21070684492588043 0.4204190671443939
0.47598472237586975 0.2576880156993866 0.4887969195842743
0.35468918085098267 0.2291536033153534 0.559036135673523
0.4122910499572754 0.24031122028827667 0.42259666323661804
0.40875381231307983 0.18136461079120636 0.512366533279419
0.47800713777542114 0.22036965191364288 0.47365567088127136
0.41385912895202637 0.12381104379892349 0.5793323516845703
0.44971954822540283 0.2856740355491638 0.4810398817062378
0.43837615847587585 0.20857466757297516 0.49915793538093567
0.4083966910839081 0.19457104802131653 0.4718400537967682
0.35869935154914856 0.2768840193748474 0.4198210537433624
0.5123581886291504 0.12021615356206894 0.40948715806007385
0.3856375217437744 0.27580299973487854 0.602864682674408
0.5320694446563721 0.28369030356407166 0.5296909809112549
0.3578307628631592 0.16016116738319397 0.536867082118988
0.3977823555469513 0.22834216058254242 0.5566625595092773
0.5219836831092834 0.23432528972625732 0.44094282388687134
0.422733336687088 0.2964138090610504 0.45885103940963745
0.5302984714508057 0.22445684671401978 0.504892885684967
0.539724588394165 0.13509346544742584 0.47784194350242615
0.5290273427963257 0.1323348879814148 0.552289605140686
0.4128696024417877 0.28221946954727173 0.4808053970336914
0.44767460227012634 0.2576780617237091 0.5568366050720215
0.3799392879009247 0.2069324254989624 0.41042324900627136
0.4904380738735199 0.22641953825950623 0.5412814021110535
0.4151136875152588 0.19552764296531677 0.5401543974876404
0.5437211990356445 0.2658311128616333 0.5817703604698181
0.38677337765693665 0.14651672542095184 0.5783557295799255
0.4539996087551117 0.2085203230381012 0.4982629418373108
0.3812885880470276 0.2060389518737793 0.5360734462738037
0.4012105166912079 0.23922134935855865 0.4361986219882965
0.4406849145889282 0.15479345619678497 0.4956478178501129
0.5082202553749084 0.21070684492588043 0.4204190671443939
0.47598472237586975 0.2576880156993866 0.4887969195842743
0.35468918085098267 0.2291536033153534 0.559036135673523
0.4122910499572754 0.24031122028827667 0.42259666323661804
0.40875381231307983 0.18136461079120636 0.512366533279419
0.4308766722679138 0.26927727460861206 0.5234118103981018
0.5463194847106934 0.2772062420845032 0.45404767990112305
0.4440148174762726 0.2495715320110321 0.5444241762161255
0.514184832572937 0.13233692944049835 0.409699410200119
0.46039843559265137 0.30124351382255554 0.4711310565471649
0.5250301361083984 0.20054933428764343 0.4455648958683014
0.474904865026474 0.15564733743667603 0.5942330360412598
0.43853557109832764 0.1310080885887146 0.5205995440483093
0.377419114112854 0.2982144057750702 0.47554901242256165
0.5269501209259033 0.2887989580631256 0.5092933177947998
0.35814768075942993 0.13498616218566895 0.5179114937782288
0.4218794107437134 0.266062468290329 0.4753590226173401
0.4997057020664215 0.21632947027683258 0.4138038158416748
0.5035375356674194 0.2960885763168335 0.49695509672164917
0.4408939480781555 0.13663586974143982 0.5511369705200195
0.44531193375587463 0.2822180986404419 0.5904141068458557
0.40809184312820435 0.24756142497062683 0.589404821395874
0.5229442715644836 0.19094012677669525 0.4646467864513397
0.46880149841308594 0.2167740762233734 0.5136438012123108
0.5477346777915955 0.29766491055488586 0.4582798480987549
0.3960716426372528 0.15558019280433655 0.49550625681877136
0.4340399205684662 0.12032080441713333 0.5356225371360779
0.4195863902568817 0.1544681340456009 0.42855104804039
0.5409150719642639 0.2721525728702545 0.5041342973709106
0.4335215091705322 0.2490718811750412 0.4930430054664612
0.5202234983444214 0.2541996240615845 0.5441473126411438
0.3867923319339752 0.13276249170303345 0.4519166648387909
0.4893902838230133 0.17577607929706573 0.556969940662384
0.4446549415588379 0.20032119750976562 0.40833649039268494
0.5286995768547058 0.28395265340805054 0.46277955174446106
0.38130617141723633 0.12484805285930634 0.4376986622810364
0.5385880470275879 0.250297486782074 0.5148066878318787
0.49627241492271423 0.20725536346435547 0.5063908100128174
0.3856375217437744 0.27580299973487854 0.602864682674408
0.5320694446563721 0.28369030356407166 0.5296909809112549
0.3578307628631592 0.16016116738319397 0.536867082118988
0.3977823555469513 0.22834216058254242 0.5566625595092773
0.5219836831092834 0.23432528972625732 0.44094282388687134
0.422733336687088 0.2964138090610504 0.45885103940963745
0.5302984714508057 0.22445684671401978 0.504892885684967
0.39337384700775146 0.2981172800064087 0.578728973865509
0.35858649015426636 0.23616625368595123 0.4293026030063629
0.510935366153717 0.20242300629615784 0.4022943675518036
0.4767202138900757 0.25495949387550354 0.43578052520751953
0.386372834444046 0.3039332628250122 0.5963294506072998
0.5010198354721069 0.11452767997980118 0.4685696065425873
0.5137923955917358 0.14256839454174042 0.504338264465332
0.4236748218536377 0.20887622237205505 0.5023945569992065
0.4640853703022003 0.27165207266807556 0.5766980051994324
0.4458918869495392 0.15130740404129028 0.4957093298435211
0.4562648832798004 0.14489136636257172 0.3991365432739258
0.3961772620677948 0.25263091921806335 0.5612040758132935
0.3491244316101074 0.12418636679649353 0.41066449880599976
0.47157028317451477 0.27203062176704407 0.5504664182662964
0.39185869693756104 0.18872767686843872 0.5819409489631653
0.5211582183837891 0.2929995059967041 0.5968167781829834
0.4107348620891571 0.11789534986019135 0.5440601110458374
0.4227634370326996 0.2733747065067291 0.43663087487220764
0.3722449243068695 0.20781300961971283 0.4471762776374817
0.39410415291786194 0.13085876405239105 0.40743231773376465
0.3941175639629364 0.2311306744813919 0.52901691198349
0.5452919006347656 0.2095700204372406 0.5273517966270447
0.521499514579773 0.19461485743522644 0.5512474179267883
0.4512936770915985 0.15286864340305328 0.44856277108192444
0.5083593726158142 0.15984949469566345 0.45126065611839294
0.49041619896888733 0.16664087772369385 0.48722022771835327
0.37061747908592224 0.304756760597229 0.4766872227191925
0.36330851912498474 0.15558578073978424 0.43834418058395386
0.3859458863735199 0.1453261822462082 0.5511220693588257
0.46805670857429504 0.25398585200309753 0.4373776912689209
0.43978479504585266 0.2859639525413513 0.5674168467521667
0.5093671083450317 0.2074621319770813 0.48063334822654724
0.5277278423309326 0.2668473720550537 0.43303465843200684
0.5100025534629822 0.19980737566947937 0.5887331366539001
0.3932255208492279 0.2993168830871582 0.5080458521842957
0.41196727752685547 0.2796885073184967 0.5434831380844116
0.4788670539855957 0.14901703596115112 0.572650671005249
0.5381531119346619 0.168528750538826 0.5950510501861572
0.39618054032325745 0.20804250240325928 0.4579801857471466
0.4650788903236389 0.21609577536582947 0.531129777431488
0.3869725167751312 0.11673104017972946 0.5649929046630859
0.4390332102775574 0.26944252848625183 0.47193005681037903
0.5386296510696411 0.2538595199584961 0.5261584520339966
0.5250431299209595 0.26023930311203003 0.426211953163147
0.36944717168807983 0.2628784775733948 0.5162749886512756
0.4012744426727295 0.2946503162384033 0.5977833271026611
0.5112135410308838 0.17000998556613922 0.5481528043746948
0.5279356837272644 0.25367674231529236 0.5222903490066528
0.4477529227733612 0.3104079067707062 0.49312639236450195
0.5265264511108398 0.25745725631713867 0.5566207766532898
0.38815248012542725 0.18609444797039032 0.5485342144966125
0.4923681318759918 0.12491891533136368 0.45456355810165405
0.5423063039779663 0.20583613216876984 0.5076440572738647
0.40146148204803467 0.2128857672214508 0.41190269589424133
0.5213707089424133 0.29611751437187195 0.478991836309433
0.42991602420806885 0.20847898721694946 0.5046302080154419
0.37455323338508606 0.12499449402093887 0.44613099098205566
0.3844415247440338 0.2562556564807892 0.547116756439209
0.48500755429267883 0.2288399338722229 0.48712819814682007
0.40573301911354065 0.2629118263721466 0.4568556547164917
0.3770255744457245 0.1443835198879242 0.48960453271865845
0.4043179452419281 0.2915797531604767 0.47865065932273865
0.3598631024360657 0.22058165073394775 0.4309062659740448
0.516615629196167 0.12081930786371231 0.49964624643325806
0.536942720413208 0.12002358585596085 0.5259634256362915
0.456910640001297 0.1269003003835678 0.40869656205177307
0.535402774810791 0.12878909707069397 0.4374484121799469
0.517937421798706 0.2143232375383377 0.4906936287879944
0.3562309443950653 0.13057874143123627 0.45439451932907104
0.3985099494457245 0.15017516911029816 0.43323224782943726
0.4991583824157715 0.2600294351577759 0.48974037170410156
0.5356017351150513 0.12036870419979095 0.44294241070747375
0.410378098487854 0.2412049025297165 0.5343959927558899
0.38463979959487915 0.22008545696735382 0.5833953619003296
0.389480859041214 0.2853699326515198 0.43704110383987427
0.5062710046768188 0.2549354135990143 0.47074559330940247
0.4945273697376251 0.20823346078395844 0.5796400904655457
0.5009676814079285 0.1694345325231552 0.3986583352088928
0.37184423208236694 0.30224186182022095 0.5601679682731628
0.43042150139808655 0.18146675825119019 0.5377100110054016
0.3803756535053253 0.27243801951408386 0.4500887095928192
0.3774883449077606 0.2587552070617676 0.4821982681751251
0.540658712387085 0.14711034297943115 0.4622621536254883
0.45362740755081177 0.16134311258792877 0.4780817925930023
0.4073339104652405 0.17212525010108948 0.570578932762146
0.525911808013916 0.2954697012901306 0.5412993431091309
0.4324129521846771 0.14866513013839722 0.49577927589416504
0.5033096671104431 0.12375461310148239 0.4885502755641937
0.5513942241668701 0.24054938554763794 0.5961109399795532
0.4960663914680481 0.16638724505901337 0.4873505234718323
0.5118934512138367 0.26451241970062256 0.5280474424362183
0.4148462414741516 0.17975114285945892 0.4739559292793274
0.4829496741294861 0.11204615235328674 0.5711491107940674
0.5082202553749084 0.21070684492588043 0.4204190671443939
0.47598472237586975 0.2576880156993866 0.4887969195842743
0.35468918085098267 0.2291536033153534 0.559036135673523
0.4122910499572754 0.24031122028827667 0.42259666323661804
0.40875381231307983 0.18136461079120636 0.512366533279419
0.4232904314994812 0.15060126781463623 0.5614719390869141
0.3982907235622406 0.17224626243114471 0.5913195013999939
0.5127233266830444 0.17573578655719757 0.460879385471344
0.510553240776062 0.26985257863998413 0.5756486058235168
0.41895899176597595 0.2062533050775528 0.48576468229293823
0.3890816569328308 0.2267349511384964 0.5934736728668213
0.3717639446258545 0.2446666806936264 0.4468028247356415
0.4450398087501526 0.14425188302993774 0.5318449139595032
0.5370655655860901 0.18230576813220978 0.40011128783226013
0.3846799433231354 0.14374619722366333 0.4997269809246063
0.49584585428237915 0.20268107950687408 0.41460612416267395
0.38655662536621094 0.24384304881095886 0.4683629870414734
0.486135870218277 0.16128431260585785 0.4314907193183899
0.3896687924861908 0.20305779576301575 0.5357801914215088
0.47600170969963074 0.22094404697418213 0.5473721623420715
0.3793548345565796 0.23515218496322632 0.5676953792572021
0.5320909023284912 0.13961386680603027 0.48615774512290955
0.5203679800033569 0.19186243414878845 0.46285074949264526
0.35670050978660583 0.19206751883029938 0.4985656440258026
0.5176178216934204 0.11372505873441696 0.46284326910972595
0.4334811866283417 0.152824267745018 0.5732349157333374
0.49905240535736084 0.2518202066421509 0.5103145241737366
0.4052686095237732 0.30673927068710327 0.5819450616836548
0.517937421798706 0.2143232375383377 0.4906936287879944
0.5437211990356445 0.2658311128616333 0.5817703604698181
0.4788774251937866 0.17907051742076874 0.42553943395614624
0.38905930519104004 0.16062036156654358 0.4735448956489563
0.48137226700782776 0.22971276938915253 0.4733884036540985
0.4079778790473938 0.21373526751995087 0.5984532833099365
0.4504224359989166 0.2864615023136139 0.5803204774856567
0.46070486307144165 0.18314717710018158 0.46751466393470764
0.5285391211509705 0.14701615273952484 0.43790146708488464
0.5000870823860168 0.2586480975151062 0.5761203765869141
0.4358113408088684 0.23330479860305786 0.42252907156944275
0.428207665681839 0.25103843212127686 0.557202160358429
0.3890816569328308 0.2267349511384964 0.5934736728668213
0.3717639446258545 0.2446666806936264 0.4468028247356415
0.4345844089984894 0.2733665704727173 0.5773183107376099
0.44885435700416565 0.1447618007659912 0.4848864674568176
0.37668347358703613 0.15810593962669373 0.5849771499633789
0.5152487754821777 0.14621399343013763 0.4186740517616272
0.5217812061309814 0.2921961545944214 0.46669790148735046
0.49014610052108765 0.1358017772436142 0.4477789103984833
0.45519617199897766 0.29939842224121094 0.5167663097381592
0.5317678451538086 0.22401681542396545 0.4998149871826172
0.35048726201057434 0.19054782390594482 0.5184044241905212
0.4793511629104614 0.255572110414505 0.4636060297489166
0.5111505389213562 0.18824565410614014 0.595451295375824
0.37959742546081543 0.11937835067510605 0.5358136296272278
0.3863043487071991 0.13457398116588593 0.46701472997665405
0.521676242351532 0.1692974865436554 0.4821774959564209
0.3631127178668976 0.2543966472148895 0.5028496384620667
0.5177059173583984 0.11342799663543701 0.5897989869117737
0.522784411907196 0.22316747903823853 0.4633210003376007
0.4052686095237732 0.30673927068710327 0.5819450616836548
0.3960108458995819 0.21645793318748474 0.5804475545883179
0.522458016872406 0.2538033127784729 0.48200127482414246
0.46525368094444275 0.12975870072841644 0.5117428302764893
0.41313883662223816 0.12244988232851028 0.39675644040107727
0.34454572200775146 0.14178654551506042 0.5664981603622437
0.45987454056739807 0.1587643176317215 0.5365127325057983
0.3777296543121338 0.1695360541343689 0.550748348236084
0.47813352942466736 0.246468648314476 0.4721953868865967
0.5437154173851013 0.12498045712709427 0.5566601753234863
0.4384756088256836 0.2820199429988861 0.471821665763855
0.36002856492996216 0.2650873064994812 0.5873406529426575
0.4068734347820282 0.1892169564962387 0.4694667458534241
0.5159103870391846 0.3011532425880432 0.43780380487442017
0.4738346040248871 0.17429375648498535 0.45141223073005676
0.46552228927612305 0.2142692506313324 0.47133758664131165
0.3516460061073303 0.16341032087802887 0.5372926592826843
0.4934842586517334 0.11902999877929688 0.40652719140052795
0.3653208613395691 0.1744510531425476 0.4801275134086609
0.3697498142719269 0.1348249912261963 0.5869132280349731
0.42490193247795105 0.1790645569562912 0.5207268595695496
0.5273013114929199 0.30710169672966003 0.42020612955093384
0.3959645926952362 0.12391483038663864 0.39797651767730713
0.48424509167671204 0.12794652581214905 0.5591731071472168
0.4877166450023651 0.20805080235004425 0.44030648469924927
0.5115350484848022 0.2664787471294403 0.5312670469284058
0.3913707733154297 0.2330855280160904 0.4586781859397888
0.5392573475837708 0.1385257989168167 0.529283881187439
0.5256525874137878 0.17031730711460114 0.48807328939437866
0.5329242944717407 0.20295670628547668 0.44996315240859985
0.4088420867919922 0.15261326730251312 0.445441335439682
0.3593396246433258 0.24068334698677063 0.41570430994033813
0.391755610704422 0.14252027869224548 0.5536924600601196
0.4340399205684662 0.12032080441713333 0.5356225371360779
0.4195863902568817 0.1544681340456009 0.42855104804039
0.5409150719642639 0.2721525728702545 0.5041342973709106
0.4335215091705322 0.2490718811750412 0.4930430054664612
0.5202234983444214 0.2541996240615845 0.5441473126411438
0.3867923319339752 0.13276249170303345 0.4519166648387909
0.4877166450023651 0.20805080235004425 0.44030648469924927
0.5115350484848022 0.2664787471294403 0.5312670469284058
0.3913707733154297 0.2330855280160904 0.4586781859397888
0.5392573475837708 0.1385257989168167 0.529283881187439
0.5256525874137878 0.17031730711460114 0.48807328939437866
0.4012744426727295 0.2946503162384033 0.5977833271026611
0.5112135410308838 0.17000998556613922 0.5481528043746948
0.5317678451538086 0.22401681542396545 0.4998149871826172
0.35048726201057434 0.19054782390594482 0.5184044241905212
0.4793511629104614 0.255572110414505 0.4636060297489166
0.46727657318115234 0.2520906329154968 0.42956891655921936
0.5111505389213562 0.18824565410614014 0.595451295375824
0.37959742546081543 0.11937835067510605 0.5358136296272278
0.3863043487071991 0.13457398116588593 0.46701472997665405
0.521676242351532 0.1692974865436554 0.4821774959564209
0.3950483202934265 0.22551307082176208 0.5467597842216492
0.5176178216934204 0.11372505873441696 0.46284326910972595
0.4334811866283417 0.152824267745018 0.5732349157333374
0.49905240535736084 0.2518202066421509 0.5103145241737366
0.38247165083885193 0.190308079123497 0.49795761704444885
0.38441455364227295 0.13278378546237946 0.4219152331352234
0.39860087633132935 0.17934821546077728 0.44462916254997253
0.4018174111843109 0.11817512661218643 0.44424283504486084
0.5127131342887878 0.2303326576948166 0.42254385352134705
0.40383392572402954 0.1302477866411209 0.4983486533164978
0.5086604356765747 0.124997578561306 0.5504165887832642
0.5188056826591492 0.12229949235916138 0.536082923412323
0.3780815005302429 0.1649346798658371 0.4224343001842499
0.48234182596206665 0.254194438457489 0.5581600069999695
0.5143038630485535 0.20231787860393524 0.48488083481788635
0.5148918032646179 0.14207172393798828 0.4012872874736786
0.4736326336860657 0.2112264633178711 0.502639889717102
0.5045815706253052 0.15812401473522186 0.5289698243141174
0.34946444630622864 0.15259401500225067 0.48886868357658386
0.4528007507324219 0.1628839522600174 0.5272279381752014
0.35974612832069397 0.2697182297706604 0.5795000195503235
0.5162289142608643 0.1913277804851532 0.4942646920681
0.38533806800842285 0.3088039457798004 0.40925896167755127
0.4231594204902649 0.26146984100341797 0.5565114617347717
0.5052496194839478 0.23365028202533722 0.5284968614578247
0.45489105582237244 0.11399112641811371 0.49344828724861145
0.5256780982017517 0.2267385572195053 0.5468192100524902
0.47408580780029297 0.30168089270591736 0.46089330315589905
0.3980907201766968 0.17429891228675842 0.5771359205245972
0.5362382531166077 0.13015103340148926 0.521798312664032
0.5411635041236877 0.24686452746391296 0.5937535166740417
0.5443480014801025 0.2089383602142334 0.4125133454799652
0.35332587361335754 0.16334785521030426 0.5256705284118652
0.38134896755218506 0.19206391274929047 0.4445434510707855
0.5198628902435303 0.16149143874645233 0.5625455379486084
0.3881641924381256 0.3070122003555298 0.44326767325401306
0.4210752844810486 0.2831994593143463 0.5066970586776733
0.3719728887081146 0.21830099821090698 0.587343692779541
0.4846305251121521 0.24714890122413635 0.5945621728897095
0.5162693858146667 0.26534950733184814 0.5759392976760864
0.3995646834373474 0.15406401455402374 0.5309825539588928
0.3933980464935303 0.1470625400543213 0.42918217182159424
0.5127233266830444 0.17573578655719757 0.460879385471344
0.47429969906806946 0.1788627654314041 0.4897609353065491
0.46256959438323975 0.1823301464319229 0.5796693563461304
0.40111052989959717 0.22078518569469452 0.41550183296203613
0.42226091027259827 0.2042170763015747 0.5360568761825562
0.36861538887023926 0.2784404456615448 0.5536133646965027
0.4039025902748108 0.14601875841617584 0.5559389591217041
0.46655330061912537 0.1259968876838684 0.48724618554115295
0.5093231201171875 0.22031928598880768 0.5490296483039856
0.5132800340652466 0.284273624420166 0.4572408199310303
0.3742583394050598 0.2028357982635498 0.5707371830940247
0.46843981742858887 0.17536325752735138 0.41337689757347107
0.3579258322715759 0.20738235116004944 0.5242310166358948
0.46938830614089966 0.2904956042766571 0.4805110692977905
0.5030933618545532 0.2752840220928192 0.4996638298034668
0.4233279824256897 0.16038337349891663 0.593217134475708
0.3631264567375183 0.26680371165275574 0.5815896391868591
0.4882427752017975 0.14370542764663696 0.49353066086769104
0.38429784774780273 0.2336198389530182 0.4645248055458069
0.3443664014339447 0.13313913345336914 0.45243388414382935
0.4109022617340088 0.2315671145915985 0.445926696062088
0.4152113199234009 0.2688084542751312 0.5509082078933716
0.5262240767478943 0.21073032915592194 0.5863443613052368
0.4777542054653168 0.1387546807527542 0.45615947246551514
0.4118930697441101 0.17215554416179657 0.5105394721031189
0.38755181431770325 0.23014704883098602 0.48124662041664124
0.5421146750450134 0.26519227027893066 0.5197064280509949
0.4295729398727417 0.2943190932273865 0.5162681937217712
0.4884609282016754 0.2513411045074463 0.5348194241523743
0.3976401388645172 0.1458812654018402 0.5457522869110107
0.48946765065193176 0.18705447018146515 0.44842997193336487
0.4854036271572113 0.27574121952056885 0.5524323582649231
0.4702659845352173 0.2060152292251587 0.590032160282135
0.47429969906806946 0.1788627654314041 0.4897609353065491
0.46256959438323975 0.1823301464319229 0.5796693563461304
0.40111052989959717 0.22078518569469452 0.41550183296203613
0.42226091027259827 0.2042170763015747 0.5360568761825562
0.36861538887023926 0.2784404456615448 0.5536133646965027
0.4039025902748108 0.14601875841617584 0.5559389591217041
0.46655330061912537 0.1259968876838684 0.48724618554115295
0.5093231201171875 0.22031928598880768 0.5490296483039856
0.5132800340652466 0.284273624420166 0.4572408199310303
0.3742583394050598 0.2028357982635498 0.5707371830940247
0.46843981742858887 0.17536325752735138 0.41337689757347107
0.3579258322715759 0.20738235116004944 0.5242310166358948
0.46938830614089966 0.2904956042766571 0.4805110692977905
0.39553841948509216 0.1421019732952118 0.5009469389915466
0.52199387550354 0.2531156837940216 0.46521592140197754
0.5384844541549683 0.16679824888706207 0.555442214012146
0.36538904905319214 0.285361647605896 0.411716490983963
0.4860178828239441 0.216323584318161 0.40804073214530945
0.45064210891723633 0.21808527410030365 0.4193675220012665
0.5002985000610352 0.2558039128780365 0.5552135705947876
0.41231635212898254 0.25179144740104675 0.4077909290790558
0.43069446086883545 0.2338092178106308 0.5954102873802185
0.39814868569374084 0.16858221590518951 0.5333322882652283
0.36552488803863525 0.27339670062065125 0.5788869857788086
0.5031313896179199 0.19704586267471313 0.5330472588539124
0.36854326725006104 0.12856991589069366 0.4233366847038269
0.4604625105857849 0.14000548422336578 0.41572365164756775
0.41505321860313416 0.25473079085350037 0.5297853350639343
0.5244703888893127 0.20744024217128754 0.41860923171043396
0.3670142590999603 0.19297027587890625 0.5871520638465881
0.4755419194698334 0.2506307065486908 0.422514408826828
0.5210685729980469 0.20805807411670685 0.43906620144844055
0.3643026351928711 0.1643805354833603 0.568423330783844
0.4567783772945404 0.20014280080795288 0.4675222635269165
0.4052893817424774 0.3009890615940094 0.6015879511833191
0.40142688155174255 0.13262510299682617 0.4198850095272064
0.4118792414665222 0.2086687684059143 0.5232681632041931
0.4675471782684326 0.2784000635147095 0.44983282685279846
0.5026618242263794 0.13734617829322815 0.4474378526210785
0.49487724900245667 0.2151665985584259 0.5587970018386841
0.3741901218891144 0.21262995898723602 0.5843364000320435
0.4658769369125366 0.16528037190437317 0.4942353665828705
0.44935375452041626 0.22086797654628754 0.5150841474533081
0.4975421726703644 0.24272891879081726 0.4257948696613312
0.533495306968689 0.23758259415626526 0.5904508829116821
0.46076542139053345 0.14847934246063232 0.555910050868988
0.5501347780227661 0.24962987005710602 0.5684696435928345
0.5394482016563416 0.1303796023130417 0.4214324355125427
0.4987199008464813 0.29389098286628723 0.5137308835983276
0.5014708638191223 0.27828097343444824 0.5081771612167358
0.43608397245407104 0.30489760637283325 0.4597800374031067
0.5197834372520447 0.13653729856014252 0.5622162222862244
0.42467013001441956 0.29764413833618164 0.48668602108955383
0.4682554602622986 0.25080636143684387 0.5548517107963562
0.4648873805999756 0.17364633083343506 0.5417240262031555
0.3903825581073761 0.15313294529914856 0.483198344707489
0.45106828212738037 0.2477567493915558 0.43785911798477173
0.39971923828125 0.2961757183074951 0.4932425618171692
0.4854566752910614 0.17621466517448425 0.45918038487434387
0.3567996621131897 0.2212204933166504 0.41361087560653687
0.4373511075973511 0.16669313609600067 0.591170072555542
0.49168121814727783 0.20291270315647125 0.44791465997695923
0.5187072157859802 0.24778562784194946 0.42065444588661194
0.4390332102775574 0.26944252848625183 0.47193005681037903
0.4611701965332031 0.13253653049468994 0.5054152607917786
0.3911112844944 0.31437191367149353 0.49118199944496155
0.42939430475234985 0.12541130185127258 0.5449820160865784
0.4585116505622864 0.3102288246154785 0.41852492094039917
0.4139709770679474 0.30520227551460266 0.42676419019699097
0.45491406321525574 0.20448292791843414 0.43119606375694275
0.49640586972236633 0.2578023076057434 0.4171822667121887
0.5341432690620422 0.1744692027568817 0.5944409370422363
0.5478038787841797 0.22557853162288666 0.42918381094932556
0.4078567624092102 0.31007012724876404 0.4219787120819092
0.47707071900367737 0.16008250415325165 0.49975547194480896
0.5177916884422302 0.2969474196434021 0.47201675176620483
0.4893903434276581 0.29985931515693665 0.5361014604568481
0.5029836893081665 0.2469780296087265 0.4793487787246704
0.4667484760284424 0.2130459100008011 0.5276511907577515
0.36369144916534424 0.2743602395057678 0.5264182686805725
0.39231058955192566 0.27090609073638916 0.5021970868110657
0.4778704345226288 0.24287664890289307 0.5680409669876099
0.3851917088031769 0.1849808692932129 0.5013485550880432
0.44511985778808594 0.131605327129364 0.48225992918014526
0.3581712543964386 0.25266844034194946 0.5782427191734314
0.44253697991371155 0.12242978811264038 0.5277410745620728
0.49233320355415344 0.26320332288742065 0.459306925535202
0.3909386992454529 0.19997015595436096 0.5621678233146667
0.47097331285476685 0.20305514335632324 0.5549401640892029
0.5491752624511719 0.2838968336582184 0.4474344551563263
0.4936892092227936 0.1307755708694458 0.5670774579048157
0.44722193479537964 0.13049042224884033 0.5432925224304199
0.5172901749610901 0.27730119228363037 0.5934452414512634
0.5004530549049377 0.23924893140792847 0.5568761825561523
0.38058987259864807 0.29238802194595337 0.5683117508888245
0.5370655655860901 0.18230576813220978 0.40011128783226013
0.3719728887081146 0.21830099821090698 0.587343692779541
0.4846305251121521 0.24714890122413635 0.5945621728897095
0.5162693858146667 0.26534950733184814 0.5759392976760864
0.3995646834373474 0.15406401455402374 0.5309825539588928
0.3933980464935303 0.1470625400543213 0.42918217182159424
0.43700945377349854 0.24386967718601227 0.5038161277770996
0.43700945377349854 0.24386967718601227 0.5038161277770996
0.36271747946739197 0.17950212955474854 0.5350219011306763
0.37973257899284363 0.2682074308395386 0.46066564321517944
0.5403997898101807 0.12054379284381866 0.4653727114200592
0.42873063683509827 0.14207930862903595 0.4312363564968109
0.4611701965332031 0.13253653049468994 0.5054152607917786
0.3911112844944 0.31437191367149353 0.49118199944496155
0.42939430475234985 0.12541130185127258 0.5449820160865784
0.4585116505622864 0.3102288246154785 0.41852492094039917
0.4139709770679474 0.30520227551460266 0.42676419019699097
0.4139709770679474 0.30520227551460266 0.42676419019699097
0.49843236804008484 0.251397043466568 0.42871153354644775
0.524001955986023 0.20239469408988953 0.5875543355941772
0.38006094098091125 0.2256714105606079 0.5833027362823486
0.4166584610939026 0.14916202425956726 0.4194134771823883
0.4860112965106964 0.27855974435806274 0.5312023758888245
0.5177916884422302 0.2969474196434021 0.47201675176620483
0.4893903434276581 0.29985931515693665 0.5361014604568481
0.5029836893081665 0.2469780296087265 0.4793487787246704
0.4667484760284424 0.2130459100008011 0.5276511907577515
0.36369144916534424 0.2743602395057678 0.5264182686805725
0.39231058955192566 0.27090609073638916 0.5021970868110657
0.4778704345226288 0.24287664890289307 0.5680409669876099
0.3851917088031769 0.1849808692932129 0.5013485550880432
0.44511985778808594 0.131605327129364 0.48225992918014526
0.5370655655860901 0.18230576813220978 0.40011128783226013
0.3851917088031769 0.1849808692932129 0.5013485550880432
0.44511985778808594 0.131605327129364 0.48225992918014526
0.3581712543964386 0.25266844034194946 0.5782427191734314
0.44253697991371155 0.12242978811264038 0.5277410745620728
0.49233320355415344 0.26320332288742065 0.459306925535202
0.3909386992454529 0.19997015595436096 0.5621678233146667
0.47097331285476685 0.20305514335632324 0.5549401640892029
0.5491752624511719 0.2838968336582184 0.4474344551563263
0.4936892092227936 0.1307755708694458 0.5670774579048157
0.44722193479537964 0.13049042224884033 0.5432925224304199
0.5172901749610901 0.27730119228363037 0.5934452414512634
0.5004530549049377 0.23924893140792847 0.5568761825561523
0.5368646383285522 0.1191350594162941 0.4886920750141144
0.4577412009239197 0.18263718485832214 0.49971574544906616
0.44541120529174805 0.11650843918323517 0.5307065844535828
0.5081012845039368 0.1757165491580963 0.5608990788459778
0.5043944716453552 0.2484985738992691 0.5783689618110657
0.5179449319839478 0.2856229841709137 0.5191512703895569
0.3910335898399353 0.29659929871559143 0.544965386390686
0.5465782284736633 0.2896280586719513 0.5576440095901489
0.4285162091255188 0.21217258274555206 0.5401261448860168
0.4838946461677551 0.20664376020431519 0.5433813333511353
0.42283082008361816 0.23303496837615967 0.43660902976989746
0.39632266759872437 0.22654782235622406 0.5547176599502563
0.49400532245635986 0.23845216631889343 0.5292325019836426
0.40590012073516846 0.28267109394073486 0.4984532296657562
0.5197049975395203 0.11239779740571976 0.4774549603462219
0.40444883704185486 0.16925480961799622 0.4661934971809387
0.5318518877029419 0.126268208026886 0.45345285534858704
0.4434496760368347 0.13136076927185059 0.5103722810745239
0.3835873603820801 0.24256587028503418 0.5901978611946106
0.4096835255622864 0.2679526209831238 0.45033180713653564
0.4667484760284424 0.2130459100008011 0.5276511907577515
0.36369144916534424 0.2743602395057678 0.5264182686805725
0.39231058955192566 0.27090609073638916 0.5021970868110657
0.4778704345226288 0.24287664890289307 0.5680409669876099
0.3851917088031769 0.1849808692932129 0.5013485550880432
0.44511985778808594 0.131605327129364 0.48225992918014526
0.3581712543964386 0.25266844034194946 0.5782427191734314
0.44253697991371155 0.12242978811264038 0.5277410745620728
0.49233320355415344 0.26320332288742065 0.459306925535202
0.3909386992454529 0.19997015595436096 0.5621678233146667
0.47097331285476685 0.20305514335632324 0.5549401640892029
0.5491752624511719 0.2838968336582184 0.4474344551563263
0.4936892092227936 0.1307755708694458 0.5670774579048157
0.47957104444503784 0.1477307379245758 0.5560646057128906
0.5319371223449707 0.2669748067855835 0.569562554359436
0.3961913585662842 0.14487281441688538 0.4015442728996277
0.5355982184410095 0.27860915660858154 0.4253414571285248
0.5395296216011047 0.11457717418670654 0.40033313632011414
0.35742443799972534 0.19256949424743652 0.5928741693496704
0.3673188090324402 0.25076401233673096 0.4360891878604889
0.3729369342327118 0.2693619430065155 0.4425307810306549
0.4573590159416199 0.30429601669311523 0.5642005205154419
0.5126665234565735 0.1750890463590622 0.4596050977706909
0.4756554365158081 0.20200161635875702 0.4197671413421631
0.5388427972793579 0.26569870114326477 0.5414836406707764
0.42647242546081543 0.19355431199073792 0.5023901462554932
0.5143429040908813 0.14584599435329437 0.5475433468818665
0.3760729134082794 0.1139356717467308 0.5903329849243164
0.4403018057346344 0.12276928126811981 0.5439579486846924
0.4630697965621948 0.1643151342868805 0.45762401819229126
0.5099501013755798 0.15684163570404053 0.41733765602111816
0.37959742546081543 0.11937835067510605 0.5358136296272278
0.40778979659080505 0.307954341173172 0.4765205979347229
0.45588454604148865 0.1785520315170288 0.4956696033477783
0.47532328963279724 0.2379070222377777 0.5464522838592529
0.48785117268562317 0.11588618904352188 0.5972464680671692
0.42134493589401245 0.23744751513004303 0.5757908821105957
0.36561253666877747 0.26256343722343445 0.5715811252593994
0.44767099618911743 0.21232882142066956 0.5323374271392822
0.42164862155914307 0.26428404450416565 0.43956702947616577
0.5185646414756775 0.12736910581588745 0.4814719557762146
0.4741772413253784 0.2372659295797348 0.517240047454834
0.4409194588661194 0.13335810601711273 0.479586124420166
0.41820597648620605 0.2369067370891571 0.554669201374054
0.41665786504745483 0.2881659269332886 0.5790336728096008
0.3748565912246704 0.2068454772233963 0.5005806088447571
0.4812670946121216 0.29558929800987244 0.48054513335227966
0.378569632768631 0.2283593714237213 0.41684114933013916
0.3740331828594208 0.15782806277275085 0.5799334049224854
0.4724454879760742 0.1798153668642044 0.5743356347084045
0.37454962730407715 0.13064320385456085 0.4473371207714081
0.4612354338169098 0.30112558603286743 0.6062878966331482
0.38994866609573364 0.3170942962169647 0.46528294682502747
0.5428946018218994 0.1202099472284317 0.5040202140808105
0.35074153542518616 0.16323308646678925 0.40998950600624084
0.48086705803871155 0.20646406710147858 0.5376187562942505
0.39170587062835693 0.22070179879665375 0.4722401201725006
0.4116998016834259 0.29849979281425476 0.4394298493862152
0.3879052698612213 0.2708827555179596 0.5800167322158813
0.44105222821235657 0.206599622964859 0.48790624737739563
0.37082844972610474 0.17521198093891144 0.5479347705841064
0.5117109417915344 0.2038774937391281 0.5016805529594421
0.4705500900745392 0.12161467969417572 0.4080738127231598
0.38247165083885193 0.190308079123497 0.49795761704444885
0.5006381273269653 0.2387343943119049 0.5547608733177185
0.5462768077850342 0.2821815609931946 0.4548565149307251
0.40570738911628723 0.2718295454978943 0.521404504776001
0.4264620542526245 0.18846000730991364 0.4060051441192627
0.37236183881759644 0.15626388788223267 0.5525133609771729
0.3754672408103943 0.1525755375623703 0.4910224676132202
0.5465905070304871 0.2322714477777481 0.5475515127182007
0.4409194588661194 0.13335810601711273 0.479586124420166
0.5352749824523926 0.263317734003067 0.5004913210868835
0.43914058804512024 0.27850988507270813 0.5362716317176819
0.5095528364181519 0.17587438225746155 0.4604469835758209
0.4288021922111511 0.13723011314868927 0.5230913162231445
0.36582326889038086 0.2958139181137085 0.5689196586608887
0.36651718616485596 0.28385886549949646 0.537467360496521
0.3639943599700928 0.285462349653244 0.5711874961853027
0.4120042026042938 0.21690236032009125 0.5294549465179443
0.5179913640022278 0.2560814619064331 0.4143363833427429
0.43415194749832153 0.26235073804855347 0.465821772813797
0.42690038681030273 0.28432971239089966 0.5654251575469971
0.42908281087875366 0.19935676455497742 0.5957634449005127
0.5060984492301941 0.1133507713675499 0.4914277195930481
0.3830922544002533 0.17976009845733643 0.49498507380485535
0.5242400169372559 0.18305419385433197 0.5577395558357239
0.48827850818634033 0.25370490550994873 0.4495804011821747
0.3908414840698242 0.12124805897474289 0.54859459400177
0.5187910795211792 0.11624333262443542 0.5945309400558472
0.43436992168426514 0.2871477007865906 0.5367815494537354
0.5073826313018799 0.20923958718776703 0.5809574127197266
0.48586517572402954 0.3045121431350708 0.49828216433525085
0.3524399697780609 0.1717735379934311 0.42373761534690857
0.4950757920742035 0.16099654138088226 0.5229210257530212
0.38441455364227295 0.13278378546237946 0.4219152331352234
0.49233320355415344 0.26320332288742065 0.459306925535202
0.5046423673629761 0.3072608411312103 0.4446271061897278
0.49137526750564575 0.12813663482666016 0.5768020749092102
0.3670237064361572 0.31282341480255127 0.5319878458976746
0.41236960887908936 0.181573286652565 0.4474707245826721
0.3765789866447449 0.11772152036428452 0.4718513488769531
0.34993112087249756 0.1426057517528534 0.4578592777252197
0.39943456649780273 0.2519175410270691 0.48820760846138
0.41281166672706604 0.15433217585086823 0.4517296254634857
0.43646085262298584 0.11754564940929413 0.5833072066307068
0.43914058804512024 0.27850988507270813 0.5362716317176819
0.4566047191619873 0.30513057112693787 0.519677996635437
0.43925026059150696 0.2831304669380188 0.5887519121170044
0.49489733576774597 0.1521269977092743 0.5308458209037781
0.4288021922111511 0.13723011314868927 0.5230913162231445
0.4901758134365082 0.23852534592151642 0.4518096148967743
0.36582326889038086 0.2958139181137085 0.5689196586608887
0.36651718616485596 0.28385886549949646 0.537467360496521
0.3639943599700928 0.285462349653244 0.5711874961853027
0.4120042026042938 0.21690236032009125 0.5294549465179443
0.5179913640022278 0.2560814619064331 0.4143363833427429
0.43415194749832153 0.26235073804855347 0.465821772813797
0.42690038681030273 0.28432971239089966 0.5654251575469971
0.42908281087875366 0.19935676455497742 0.5957634449005127
0.5060984492301941 0.1133507713675499 0.4914277195930481
0.3830922544002533 0.17976009845733643 0.49498507380485535
0.5242400169372559 0.18305419385433197 0.5577395558357239
0.4834958612918854 0.24173292517662048 0.5879625082015991
0.4504603147506714 0.2791067659854889 0.5145989656448364
0.36016160249710083 0.25309520959854126 0.5352945923805237
0.3918609023094177 0.28347405791282654 0.45200732350349426
0.5200310349464417 0.1364106982946396 0.42486822605133057
0.4091648757457733 0.1665576696395874 0.48576292395591736
0.43619751930236816 0.24280978739261627 0.45909538865089417
0.4784654378890991 0.11725938320159912 0.46995604038238525
0.487394243478775 0.2801041007041931 0.5091009736061096
0.510644793510437 0.2882164418697357 0.431510865688324
0.3840383291244507 0.20533543825149536 0.4381614625453949
0.5329728722572327 0.2747982144355774 0.4236256182193756
0.5520730018615723 0.25075316429138184 0.5161498188972473
0.3631249964237213 0.27267012000083923 0.45201024413108826
0.44805657863616943 0.14032918214797974 0.4646218419075012
0.38164976239204407 0.21552066504955292 0.4827469289302826
0.3712013065814972 0.13662773370742798 0.5861240029335022
0.36464935541152954 0.22341006994247437 0.5678426027297974
0.5435159802436829 0.16695354878902435 0.4596949815750122
0.44287827610969543 0.26810458302497864 0.46211886405944824
0.4758152663707733 0.15774470567703247 0.4388345181941986
0.44316840171813965 0.15711820125579834 0.5311327576637268
