ply
format ascii 1.0
element vertex 828
property float x
property float y
property float z
end_header
0.31046685576438904 0.49997779726982117 0.5797538161277771
0.3645660877227783 0.4991198480129242 0.5154975652694702
0.39998000860214233 0.5027666091918945 0.41439151763916016
0.28991061449050903 0.38098374009132385 0.57382732629776
0.27952590584754944 0.34595078229904175 0.4471051096916199
0.4433344304561615 0.4663178622722626 0.5297431349754333
0.3464677929878235 0.4242366850376129 0.5746598839759827
0.35782739520072937 0.38807374238967896 0.43458452820777893
0.4152400493621826 0.40057241916656494 0.5872337818145752
0.4215560555458069 0.47122782468795776 0.40223386883735657
0.4156935214996338 0.4461757242679596 0.4344063103199005
0.42267683148384094 0.36937519907951355 0.43459367752075195
0.3473074734210968 0.37692612409591675 0.46998560428619385
0.3531930446624756 0.4995577037334442 0.5101402401924133
0.29319316148757935 0.43570396304130554 0.5031855702400208
0.41680026054382324 0.3595411479473114 0.4069724678993225
0.31200796365737915 0.3831149637699127 0.5046063661575317
0.39246639609336853 0.3604947328567505 0.579116940498352
0.4057330787181854 0.4745420813560486 0.4438541531562805
0.3202022910118103 0.4922216832637787 0.44499996304512024
0.260012686252594 0.33741307258605957 0.4528069794178009
0.37995922565460205 0.4116820991039276 0.49652302265167236
0.33499306440353394 0.4036259651184082 0.5579164624214172
0.39998000860214233 0.5027666091918945 0.41439151763916016
0.4114239513874054 0.4707289934158325 0.5871621370315552
0.24938277900218964 0.35968971252441406 0.42067086696624756
0.42770904302597046 0.48554372787475586 0.40533390641212463
0.4240494966506958 0.5039121508598328 0.5751278400421143
0.3276253342628479 0.36750566959381104 0.4696928560733795
0.32691681385040283 0.4680272340774536 0.5973176956176758
0.3970074951648712 0.43550875782966614 0.5124382376670837
0.35338979959487915 0.4966828227043152 0.4849660396575928
0.3799420893192291 0.39321595430374146 0.40410032868385315
0.2806943655014038 0.46742695569992065 0.44235697388648987
0.2550501227378845 0.3635174632072449 0.46836772561073303
0.38101303577423096 0.4006600081920624 0.4111309051513672
0.35645967721939087 0.4904234707355499 0.4734880328178406
0.28321415185928345 0.414640873670578 0.5311923027038574
0.41400185227394104 0.5035057663917542 0.4074590504169464
0.30495843291282654 0.3800065815448761 0.4628022313117981
0.36976173520088196 0.4228112995624542 0.45382237434387207
0.28928208351135254 0.3710803687572479 0.4438614547252655
0.3204513490200043 0.3875899612903595 0.432346910238266
0.29888826608657837 0.40474793314933777 0.43834272027015686
0.4436713457107544 0.49653714895248413 0.4386509358882904
0.3524944484233856 0.5043062567710876 0.4801706075668335
0.422855406999588 0.5050051212310791 0.4798307716846466
0.272815465927124 0.5245554447174072 0.5150100588798523
0.3815474510192871 0.4565868377685547 0.530963122844696
0.41255107522010803 0.5080844759941101 0.42449018359184265
0.41583800315856934 0.3865589201450348 0.545367419719696
0.36391592025756836 0.3422628939151764 0.4236796200275421
0.28851136565208435 0.3449714779853821 0.5527464747428894
0.37220266461372375 0.4027458429336548 0.49027228355407715
0.2520841658115387 0.47583693265914917 0.43845757842063904
0.3589138686656952 0.49460363388061523 0.46520596742630005
0.28321415185928345 0.414640873670578 0.5311923027038574
0.36876028776168823 0.35034170746803284 0.5682786107063293
0.38860198855400085 0.5115759372711182 0.4424123764038086
0.3219812512397766 0.4054306149482727 0.4821050763130188
0.3584809899330139 0.3808681070804596 0.5372544527053833
0.3550700843334198 0.4247402250766754 0.48070409893989563
0.3120078444480896 0.3515360951423645 0.44497960805892944
0.3258780539035797 0.4990406334400177 0.43454986810684204
0.391072541475296 0.5143511891365051 0.5531275868415833
0.44730761647224426 0.41219016909599304 0.5933406352996826
0.37189191579818726 0.44218283891677856 0.5378811955451965
0.399091511964798 0.3442990183830261 0.5506673455238342
0.43886229395866394 0.4087198078632355 0.5796858072280884
0.31695327162742615 0.45869535207748413 0.4918208122253418
0.3967170715332031 0.40887758135795593 0.47623422741889954
0.312392920255661 0.391269713640213 0.4568670392036438
0.2629547417163849 0.3298787772655487 0.5991597175598145
0.4276745617389679 0.3450535535812378 0.4350827634334564
0.2834746241569519 0.3439500331878662 0.4447439908981323
0.25894588232040405 0.34361252188682556 0.4447942078113556
0.33456990122795105 0.4165084660053253 0.5231865644454956
0.4238695800304413 0.3810948431491852 0.4537028670310974
0.43408817052841187 0.36902105808258057 0.4221130907535553
0.3352523446083069 0.4662567973136902 0.5926886200904846
0.38116541504859924 0.3560856580734253 0.4372890889644623
0.3063255846500397 0.5122664570808411 0.5889399647712708
0.3788467049598694 0.47337907552719116 0.4365079998970032
0.3977638781070709 0.5116729140281677 0.5626589059829712
0.2722587585449219 0.3410883843898773 0.47946393489837646
0.4456115961074829 0.5051735043525696 0.4485885798931122
0.37407538294792175 0.4440269470214844 0.5212908387184143
0.3691408038139343 0.4033257067203522 0.5052924156188965
0.25478285551071167 0.4161643385887146 0.4387461841106415
0.410317063331604 0.3673025369644165 0.43273648619651794
0.38536813855171204 0.3475594222545624 0.5266607999801636
0.3054301142692566 0.3863885700702667 0.4579693377017975
0.3061927556991577 0.40569180250167847 0.49315115809440613
0.3734080493450165 0.43473750352859497 0.40766867995262146
0.41605594754219055 0.47742971777915955 0.5078002214431763
0.35601869225502014 0.434128999710083 0.5706760287284851
0.335066020488739 0.4317360818386078 0.5166880488395691
0.45009520649909973 0.46507585048675537 0.5420650839805603
0.44571807980537415 0.37726253271102905 0.4372501075267792
0.3685147166252136 0.4194221794605255 0.5888703465461731
0.4298587441444397 0.44562196731567383 0.47299274802207947
0.4353717863559723 0.36929556727409363 0.540398359298706
0.2834746241569519 0.3439500331878662 0.4447439908981323
0.39593642950057983 0.4500960111618042 0.5120832324028015
0.4102397561073303 0.47726914286613464 0.44825783371925354
0.3015119731426239 0.38548505306243896 0.44587230682373047
0.380886048078537 0.5198427438735962 0.4761585295200348
0.3507765233516693 0.4808567464351654 0.5142397284507751
0.28311601281166077 0.42322978377342224 0.5700536370277405
0.3416593074798584 0.354501873254776 0.5618584156036377
0.3387371599674225 0.41860726475715637 0.4732074439525604
0.3861425518989563 0.398185670375824 0.41716468334198
0.29202696681022644 0.3411114811897278 0.5810264348983765
0.25203752517700195 0.47027596831321716 0.4874463677406311
0.3307379484176636 0.5055835843086243 0.42837685346603394
0.4325849413871765 0.5100255608558655 0.4192506968975067
0.2806705832481384 0.3953099846839905 0.4763283133506775
0.26606130599975586 0.38614025712013245 0.5190208554267883
0.3554939925670624 0.34908297657966614 0.43845874071121216
0.27629372477531433 0.503899097442627 0.43339118361473083
0.38860198855400085 0.5115759372711182 0.4424123764038086
0.4353717863559723 0.36929556727409363 0.540398359298706
0.3550700843334198 0.4247402250766754 0.48070409893989563
0.3120078444480896 0.3515360951423645 0.44497960805892944
0.3258780539035797 0.4990406334400177 0.43454986810684204
0.391072541475296 0.5143511891365051 0.5531275868415833
0.3680712878704071 0.4779874384403229 0.5514708757400513
0.36664506793022156 0.3838672637939453 0.40551257133483887
0.3311583995819092 0.4670347571372986 0.5411641597747803
0.327603816986084 0.5106401443481445 0.523356020450592
0.42963045835494995 0.4079011380672455 0.5132785439491272
0.2551787197589874 0.34162214398384094 0.4078937768936157
0.3023698031902313 0.412242591381073 0.40706169605255127
0.4048405587673187 0.49210113286972046 0.42082223296165466
0.29009321331977844 0.5061787962913513 0.5571784377098083
0.3977638781070709 0.5116729140281677 0.5626589059829712
0.2722587585449219 0.3410883843898773 0.47946393489837646
0.4456115961074829 0.5051735043525696 0.4485885798931122
0.37407538294792175 0.4440269470214844 0.5212908387184143
0.3691408038139343 0.4033257067203522 0.5052924156188965
0.25478285551071167 0.4161643385887146 0.4387461841106415
0.410317063331604 0.3673025369644165 0.43273648619651794
0.38536813855171204 0.3475594222545624 0.5266607999801636
0.3054301142692566 0.3863885700702667 0.4579693377017975
0.27218887209892273 0.36592599749565125 0.4267374277114868
0.25701242685317993 0.49570992588996887 0.5218284130096436
0.3512928783893585 0.4532436728477478 0.5033559799194336
0.2649061679840088 0.49970731139183044 0.5728360414505005
0.4239083528518677 0.4521024227142334 0.4974610209465027
0.37822043895721436 0.4519895911216736 0.5069047808647156
0.446294367313385 0.4161747097969055 0.49721866846084595
0.28518784046173096 0.4256073534488678 0.4398000240325928
0.4250309467315674 0.4052119553089142 0.5805198550224304
0.31142282485961914 0.44605234265327454 0.41910117864608765
0.3611758053302765 0.4014090299606323 0.4410133957862854
0.3724299967288971 0.5089758038520813 0.5180611610412598
0.2682219445705414 0.3730456829071045 0.4656367599964142
0.3340896964073181 0.3824599087238312 0.44987040758132935
0.33348116278648376 0.3552921712398529 0.5012645125389099
0.4204959571361542 0.35020479559898376 0.5001103281974792
0.2994878590106964 0.3963462710380554 0.502345621585846
0.4469917118549347 0.4244309663772583 0.49627530574798584
0.30588048696517944 0.5026112794876099 0.40767765045166016
0.2974395751953125 0.4788190722465515 0.5696855783462524
0.4496634304523468 0.47090041637420654 0.47217240929603577
0.37776288390159607 0.3411049246788025 0.5856230854988098
0.2834746241569519 0.3439500331878662 0.4447439908981323
0.3977638781070709 0.5116729140281677 0.5626589059829712
0.2722587585449219 0.3410883843898773 0.47946393489837646
0.4456115961074829 0.5051735043525696 0.4485885798931122
0.37407538294792175 0.4440269470214844 0.5212908387184143
0.3691408038139343 0.4033257067203522 0.5052924156188965
0.25478285551071167 0.4161643385887146 0.4387461841106415
0.410317063331604 0.3673025369644165 0.43273648619651794
0.38536813855171204 0.3475594222545624 0.5266607999801636
0.3054301142692566 0.3863885700702667 0.4579693377017975
0.3061927556991577 0.40569180250167847 0.49315115809440613
0.3734080493450165 0.43473750352859497 0.40766867995262146
0.41605594754219055 0.47742971777915955 0.5078002214431763
0.35601869225502014 0.434128999710083 0.5706760287284851
0.335066020488739 0.4317360818386078 0.5166880488395691
0.45009520649909973 0.46507585048675537 0.5420650839805603
0.44571807980537415 0.37726253271102905 0.4372501075267792
0.3685147166252136 0.4194221794605255 0.5888703465461731
0.4298587441444397 0.44562196731567383 0.47299274802207947
0.4353717863559723 0.36929556727409363 0.540398359298706
0.3550700843334198 0.4247402250766754 0.48070409893989563
0.3120078444480896 0.3515360951423645 0.44497960805892944
0.3258780539035797 0.4990406334400177 0.43454986810684204
0.391072541475296 0.5143511891365051 0.5531275868415833
0.3680712878704071 0.4779874384403229 0.5514708757400513
0.36664506793022156 0.3838672637939453 0.40551257133483887
0.3311583995819092 0.4670347571372986 0.5411641597747803
0.2683824896812439 0.44486936926841736 0.5837055444717407
0.3944093883037567 0.35388460755348206 0.5605373382568359
0.33872416615486145 0.37157654762268066 0.5281575322151184
0.34465518593788147 0.5130161046981812 0.44289442896842957
0.44348838925361633 0.367488831281662 0.4928363561630249
0.3030503988265991 0.45636892318725586 0.5931792259216309
0.3977638781070709 0.5116729140281677 0.5626589059829712
0.38178956508636475 0.45426052808761597 0.4994587302207947
0.42541831731796265 0.5220596790313721 0.41962963342666626
0.44834861159324646 0.4996151626110077 0.41031932830810547
0.3989660441875458 0.4829177260398865 0.5392975211143494
0.4407690465450287 0.37033307552337646 0.5503900051116943
0.25347647070884705 0.496797114610672 0.5603647828102112
0.2522333562374115 0.4965187907218933 0.5573751926422119
0.2662181556224823 0.3712277412414551 0.4318382740020752
0.35856327414512634 0.3903690278530121 0.5965858101844788
0.4471385180950165 0.35210174322128296 0.42516520619392395
0.4261069595813751 0.49798232316970825 0.4403661787509918
0.2943267524242401 0.42201676964759827 0.4226277470588684
0.2770535945892334 0.45340853929519653 0.48527565598487854
0.39588531851768494 0.40168899297714233 0.4766964912414551
0.32041388750076294 0.5099996328353882 0.5178695917129517
0.26731255650520325 0.41369229555130005 0.4873197376728058
0.3024194836616516 0.48809999227523804 0.5061060190200806
0.44730761647224426 0.41219016909599304 0.5933406352996826
0.38594695925712585 0.5243645906448364 0.5027470588684082
0.3281753361225128 0.3425450325012207 0.41455456614494324
0.38704654574394226 0.3833145499229431 0.4093247652053833
0.3308395743370056 0.5216708779335022 0.42743924260139465
0.4390215277671814 0.4359908998012543 0.4536064565181732
0.39247992634773254 0.47630804777145386 0.4120277166366577
0.3789425790309906 0.4090544581413269 0.49282562732696533
0.3072865903377533 0.4879036843776703 0.419392853975296
0.364890992641449 0.3836420178413391 0.46964627504348755
0.29460039734840393 0.4438001215457916 0.535244345664978
0.41275882720947266 0.3867381811141968 0.5061488747596741
0.27794259786605835 0.44578564167022705 0.5037399530410767
0.4238695800304413 0.3810948431491852 0.4537028670310974
0.44669008255004883 0.38364091515541077 0.4350992739200592
0.34911125898361206 0.43037474155426025 0.4074651896953583
0.3771461844444275 0.44370004534721375 0.4961085021495819
0.3695668578147888 0.4939083755016327 0.4437209367752075
0.3258388638496399 0.434978187084198 0.4721006751060486
0.44457679986953735 0.49217432737350464 0.4231736361980438
0.2590002715587616 0.5084512829780579 0.46108052134513855
0.3457067608833313 0.42020368576049805 0.5660426020622253
0.3555009365081787 0.45069587230682373 0.5303156971931458
0.3594745695590973 0.43979141116142273 0.5440226793289185
0.3505176901817322 0.3854820132255554 0.4532609283924103
0.2769968509674072 0.4653855562210083 0.4633195996284485
0.28850850462913513 0.4220074713230133 0.5541489124298096
0.351236492395401 0.3894362151622772 0.5902178883552551
0.4330008924007416 0.49560531973838806 0.520379900932312
0.29433804750442505 0.4513440430164337 0.5227263569831848
0.26607546210289 0.3686389923095703 0.4897788465023041
0.25193652510643005 0.4540993869304657 0.5251404047012329
0.4030117988586426 0.4150615632534027 0.5841964483261108
0.4218623638153076 0.35580891370773315 0.5361073613166809
0.29170989990234375 0.4742065966129303 0.4464818835258484
0.39284878969192505 0.4834115505218506 0.4099377691745758
0.4105711877346039 0.456350177526474 0.4071728587150574
0.39735835790634155 0.40432414412498474 0.5016831755638123
0.29338163137435913 0.356807678937912 0.42941179871559143
0.27180105447769165 0.3925459384918213 0.5837865471839905
0.3293936550617218 0.5015628933906555 0.5861964225769043
0.2752424478530884 0.4580237865447998 0.49763888120651245
0.31752753257751465 0.4007370173931122 0.4795364439487457
0.4266681671142578 0.362213134765625 0.5342336297035217
0.44439297914505005 0.5069230198860168 0.46372345089912415
0.3645660877227783 0.4991198480129242 0.5154975652694702
0.38227272033691406 0.3494572341442108 0.5104142427444458
0.3825833797454834 0.5206262469291687 0.5994510054588318
0.38056397438049316 0.3814540505409241 0.44482868909835815
0.33400988578796387 0.4339960515499115 0.501099705696106
0.4274960458278656 0.44045117497444153 0.5667254328727722
0.2661263048648834 0.426775187253952 0.531812846660614
0.2787654995918274 0.354981392621994 0.43281853199005127
0.317361444234848 0.4803655445575714 0.5231637954711914
0.3993700444698334 0.40107494592666626 0.5582245588302612
0.43772396445274353 0.40702152252197266 0.5630039572715759
0.37639471888542175 0.3449942469596863 0.5536485314369202
0.3264802396297455 0.37752631306648254 0.4475654661655426
0.40108439326286316 0.3528349697589874 0.44806212186813354
0.43992340564727783 0.5140895843505859 0.450398325920105
0.2665042281150818 0.43263882398605347 0.4516441226005554
0.3706730902194977 0.3530915677547455 0.44591695070266724
0.37379130721092224 0.3473667800426483 0.5597832798957825
0.2537548542022705 0.4977017045021057 0.40508201718330383
0.29388466477394104 0.4376530051231384 0.5466855764389038
0.43470892310142517 0.3901878595352173 0.5651712417602539
0.3255334496498108 0.5060309767723083 0.5676683187484741
0.4487054646015167 0.3967314064502716 0.43961626291275024
0.38062584400177 0.45522570610046387 0.4907471835613251
0.2810879051685333 0.3297167718410492 0.5450867414474487
0.3863988518714905 0.3690958321094513 0.5267205834388733
0.2589588463306427 0.4077015221118927 0.5701941847801208
0.34135496616363525 0.517702043056488 0.5482051968574524
0.42038583755493164 0.5077511072158813 0.40856435894966125
0.3877422511577606 0.4779985547065735 0.5338044762611389
0.38733431696891785 0.4868697226047516 0.48535093665122986
0.34424060583114624 0.49370869994163513 0.508584201335907
0.39998000860214233 0.5027666091918945 0.41439151763916016
0.37896111607551575 0.351197749376297 0.5847007632255554
0.34251680970191956 0.5082489252090454 0.4021754562854767
0.35994967818260193 0.3384334146976471 0.4427585005760193
0.353619784116745 0.3891521692276001 0.5514099597930908
0.4369552731513977 0.3914735019207001 0.4738519787788391
0.2534618079662323 0.4015556275844574 0.40525466203689575
0.3763822317123413 0.4034060835838318 0.5054836869239807
0.292786180973053 0.37722474336624146 0.5828105807304382
0.2606842517852783 0.33851397037506104 0.44909054040908813
0.32673323154449463 0.5068989396095276 0.5444880723953247
0.2666848301887512 0.36718809604644775 0.5214114785194397
0.36739131808280945 0.42905867099761963 0.5432994961738586
0.43234941363334656 0.353524386882782 0.5817068219184875
0.26688459515571594 0.47802793979644775 0.5405650734901428
0.26638928055763245 0.4859953820705414 0.5654366612434387
0.3941804766654968 0.3820248544216156 0.5604320168495178
0.4134364426136017 0.4236432909965515 0.5816159844398499
0.28812628984451294 0.37052592635154724 0.541247546672821
0.3284532427787781 0.42302796244621277 0.5265751481056213
0.31199371814727783 0.4167867600917816 0.5432392358779907
0.3052997291088104 0.3761035203933716 0.5839316844940186
0.4449107348918915 0.4586885869503021 0.5970384478569031
0.27059406042099 0.42539137601852417 0.5003407597541809
0.3806695342063904 0.46933698654174805 0.505540132522583
0.34611156582832336 0.37036678194999695 0.42569637298583984
0.38401782512664795 0.40806031227111816 0.5392493009567261
0.44827941060066223 0.4530189633369446 0.4017019271850586
0.377499520778656 0.3716767430305481 0.40681299567222595
0.4058283567428589 0.41902604699134827 0.5007321834564209
0.42841383814811707 0.47436001896858215 0.4135989546775818
0.32758843898773193 0.35072505474090576 0.4764834940433502
0.3691408038139343 0.4033257067203522 0.5052924156188965
0.3550700843334198 0.4247402250766754 0.48070409893989563
0.3120078444480896 0.3515360951423645 0.44497960805892944
0.3258780539035797 0.4990406334400177 0.43454986810684204
0.391072541475296 0.5143511891365051 0.5531275868415833
0.3680712878704071 0.4779874384403229 0.5514708757400513
0.36664506793022156 0.3838672637939453 0.40551257133483887
0.27454447746276855 0.36428624391555786 0.572008490562439
0.26230013370513916 0.3598651587963104 0.4004209339618683
0.3700363337993622 0.4373588263988495 0.5163061022758484
0.3297227919101715 0.47714242339134216 0.5530859231948853
0.3302798569202423 0.401017427444458 0.48395684361457825
0.3890351951122284 0.39501792192459106 0.5414808988571167
0.39402660727500916 0.45038101077079773 0.5623355507850647
0.32699117064476013 0.478423535823822 0.46175557374954224
0.25914549827575684 0.35287487506866455 0.5222718715667725
0.3993366062641144 0.4004305899143219 0.43175700306892395
0.4255266487598419 0.5209777355194092 0.5879277586936951
0.4092694818973541 0.4374803900718689 0.4039648473262787
0.3779640793800354 0.3899541199207306 0.4912955164909363
0.26268231868743896 0.46837711334228516 0.44227102398872375
0.30375683307647705 0.4856818616390228 0.5417078733444214
0.3297273814678192 0.43225955963134766 0.47233134508132935
0.312240868806839 0.37761354446411133 0.46310093998908997
0.38653168082237244 0.4983804523944855 0.5201884508132935
0.3693459928035736 0.3584114611148834 0.5955549478530884
0.2552507817745209 0.4359801411628723 0.4842557907104492
0.4265311062335968 0.35598132014274597 0.5059317946434021
0.29514357447624207 0.468514621257782 0.47612476348876953
0.34866997599601746 0.47182363271713257 0.40965554118156433
0.4423285722732544 0.41111889481544495 0.420329213142395
0.4489908814430237 0.34908223152160645 0.44695037603378296
0.27563461661338806 0.3571760356426239 0.4345892369747162
0.31278109550476074 0.42729663848876953 0.5028669834136963
0.27454447746276855 0.36428624391555786 0.572008490562439
0.26230013370513916 0.3598651587963104 0.4004209339618683
0.3700363337993622 0.4373588263988495 0.5163061022758484
0.3533393144607544 0.4670065939426422 0.5055020451545715
0.4309543967247009 0.37952619791030884 0.43475133180618286
0.2921893894672394 0.44431620836257935 0.4448421001434326
0.3694298267364502 0.3484870493412018 0.6011302471160889
0.3522723615169525 0.485664039850235 0.47198688983917236
0.42124494910240173 0.4490375518798828 0.518539547920227
0.36111146211624146 0.42559316754341125 0.5684970021247864
0.3857649266719818 0.390191912651062 0.4416024684906006
0.4115590453147888 0.4637182950973511 0.4573569893836975
0.349141001701355 0.4485994875431061 0.5826168656349182
0.27635544538497925 0.4797646701335907 0.43835166096687317
0.29124340415000916 0.4125048518180847 0.5953840017318726
0.3782355785369873 0.4084416627883911 0.4908706247806549
0.26219573616981506 0.46809422969818115 0.5544663071632385
0.3063899278640747 0.3745385706424713 0.5441300868988037
0.3339995741844177 0.44702398777008057 0.46156662702560425
0.323080450296402 0.4331510663032532 0.4996258318424225
0.30788686871528625 0.35460275411605835 0.5935401320457458
0.39846962690353394 0.3704625964164734 0.43702593445777893
0.4250563979148865 0.40237024426460266 0.5626700520515442
0.31894075870513916 0.35775938630104065 0.4323912262916565
0.43190327286720276 0.4234708547592163 0.5543039441108704
0.36500757932662964 0.5143884420394897 0.5108258128166199
0.44009333848953247 0.36396580934524536 0.45053115487098694
0.38865774869918823 0.40392565727233887 0.5471118092536926
0.438344269990921 0.5212412476539612 0.5079863667488098
0.32726576924324036 0.4918206036090851 0.4107392132282257
0.38860198855400085 0.5115759372711182 0.4424123764038086
0.399091511964798 0.3442990183830261 0.5506673455238342
0.43886229395866394 0.4087198078632355 0.5796858072280884
0.2927509844303131 0.36574283242225647 0.5055819749832153
0.2782074809074402 0.4985352158546448 0.40294504165649414
0.2637365460395813 0.5042468905448914 0.4562359154224396
0.4338955283164978 0.5147084593772888 0.5955530405044556
0.40232810378074646 0.38983768224716187 0.5101824402809143
0.338264137506485 0.3671269714832306 0.5154238343238831
0.3943035900592804 0.3634677529335022 0.481562077999115
0.41052061319351196 0.5075841546058655 0.409175843000412
0.37054717540740967 0.4864400029182434 0.4873431324958801
0.253021776676178 0.40549981594085693 0.53761225938797
0.34212011098861694 0.4628889262676239 0.49976444244384766
0.33484405279159546 0.4414278268814087 0.4037415683269501
0.35027289390563965 0.3497811555862427 0.5008774399757385
0.25665080547332764 0.4441998600959778 0.47319334745407104
0.3088136613368988 0.5110670924186707 0.42697030305862427
0.4224279224872589 0.4038402736186981 0.5135889053344727
0.43685781955718994 0.5047478079795837 0.47697460651397705
0.27193474769592285 0.4537447690963745 0.5225653648376465
0.3927688002586365 0.36221590638160706 0.5745111107826233
0.34856292605400085 0.4149879515171051 0.5646898150444031
0.2637941837310791 0.3528389632701874 0.5467328429222107
0.3857888877391815 0.3440324664115906 0.586311936378479
0.2874704897403717 0.399485319852829 0.46840739250183105
0.37444594502449036 0.38231146335601807 0.5297901630401611
0.3805757761001587 0.36073243618011475 0.5713397860527039
0.37997132539749146 0.3520776033401489 0.5209513902664185
0.3304835855960846 0.4150342643260956 0.4511528015136719
0.4203651547431946 0.44762468338012695 0.42987751960754395
0.33806344866752625 0.3987685739994049 0.4695790410041809
0.3120078444480896 0.3515360951423645 0.44497960805892944
0.3639466464519501 0.34083473682403564 0.5057882070541382
0.43157392740249634 0.350948303937912 0.4681730270385742
0.27487078309059143 0.42215028405189514 0.4974014163017273
0.4261506497859955 0.49328768253326416 0.5531246066093445
0.4304451644420624 0.4121231734752655 0.5325173139572144
0.3327502906322479 0.44827184081077576 0.5825908780097961
0.30645525455474854 0.44839218258857727 0.5384554266929626
0.39216068387031555 0.4449350833892822 0.5223395824432373
0.2866128981113434 0.511081874370575 0.490926057100296
0.2994997799396515 0.4251447916030884 0.4043102562427521
0.2763712406158447 0.40760383009910583 0.5653707385063171
0.37008827924728394 0.37855085730552673 0.5504321455955505
0.3215242326259613 0.48986268043518066 0.5378710031509399
0.30793124437332153 0.38676655292510986 0.4279820919036865
0.42850154638290405 0.3995574712753296 0.5443819761276245
0.44520819187164307 0.4259198307991028 0.5298380255699158
0.35005319118499756 0.4475613236427307 0.5091990232467651
0.2781561315059662 0.3774525225162506 0.57906574010849
0.27811360359191895 0.46314895153045654 0.5737445950508118
0.4293312132358551 0.36625176668167114 0.5778985023498535
0.31135812401771545 0.33281904458999634 0.5367420315742493
0.3620315492153168 0.4114803671836853 0.4506473243236542
0.34462645649909973 0.5122882127761841 0.4410554766654968
0.38830429315567017 0.45958513021469116 0.4814085364341736
0.2927904725074768 0.45387402176856995 0.513403058052063
0.31880953907966614 0.4246307611465454 0.4198276400566101
0.43030795454978943 0.4894140362739563 0.4241483807563782
0.2823343873023987 0.5126221179962158 0.5648979544639587
0.4312899112701416 0.4265054762363434 0.4228295385837555
0.3546285927295685 0.4131666421890259 0.5609062910079956
0.32167837023735046 0.41754743456840515 0.5823389887809753
0.2637365460395813 0.5042468905448914 0.4562359154224396
0.253021776676178 0.40549981594085693 0.53761225938797
0.34212011098861694 0.4628889262676239 0.49976444244384766
0.43590909242630005 0.35376667976379395 0.48852628469467163
0.4007456302642822 0.40982624888420105 0.5527058839797974
0.42603814601898193 0.38368141651153564 0.43131181597709656
0.25832128524780273 0.49531683325767517 0.4200080633163452
0.25879940390586853 0.4267265796661377 0.5148438215255737
0.43538084626197815 0.5008866190910339 0.5972251296043396
0.2760339677333832 0.4496022164821625 0.5298115611076355
0.4153570532798767 0.3869924247264862 0.5460013747215271
0.3504032790660858 0.3762587010860443 0.434901624917984
0.37637534737586975 0.43010032176971436 0.42482924461364746
0.25928381085395813 0.5183191299438477 0.4574321210384369
0.4108947217464447 0.5220876932144165 0.5707591772079468
0.410928875207901 0.35809674859046936 0.404031902551651
0.42063668370246887 0.4398750066757202 0.4565907418727875
0.44163385033607483 0.4035519063472748 0.5748360753059387
0.26729071140289307 0.51264488697052 0.47630465030670166
0.36431121826171875 0.49174532294273376 0.5065699219703674
0.41881340742111206 0.5150899887084961 0.5992664098739624
0.40844377875328064 0.47943902015686035 0.5174338221549988
0.3266870677471161 0.4123341143131256 0.41042590141296387
0.4483200013637543 0.4627586603164673 0.461609810590744
0.33162420988082886 0.4352433681488037 0.5990206003189087
0.3795084059238434 0.511961817741394 0.5817010998725891
0.44572192430496216 0.3586408495903015 0.4100288152694702
0.35502439737319946 0.3368704617023468 0.47704485058784485
0.3206903338432312 0.35102853178977966 0.5767602324485779
0.32109981775283813 0.5182890295982361 0.5622571110725403
0.31410059332847595 0.4125947058200836 0.5003883838653564
0.26092758774757385 0.48496532440185547 0.59926438331604
0.39216068387031555 0.4449350833892822 0.5223395824432373
0.3118150234222412 0.4823828637599945 0.5820255875587463
0.3750513792037964 0.42807096242904663 0.5910521745681763
0.36600837111473083 0.5049034357070923 0.5545850396156311
0.39963415265083313 0.3529219925403595 0.4729868471622467
0.39029157161712646 0.38869598507881165 0.529207706451416
0.40376076102256775 0.37403377890586853 0.42275479435920715
0.369927316904068 0.36120089888572693 0.5375715494155884
0.36301153898239136 0.4662104547023773 0.5230326652526855
0.41993650794029236 0.34278810024261475 0.5129500031471252
0.2752179503440857 0.4415191113948822 0.4456840753555298
0.38980382680892944 0.46386435627937317 0.415080189704895
0.4001513123512268 0.43754294514656067 0.466254323720932
0.406973272562027 0.5000444054603577 0.4412735402584076
0.2597513496875763 0.3827885091304779 0.46766695380210876
0.2877539396286011 0.34650593996047974 0.4367504119873047
0.402952641248703 0.5050615668296814 0.5877625346183777
0.2927904725074768 0.45387402176856995 0.513403058052063
0.31880953907966614 0.4246307611465454 0.4198276400566101
0.43030795454978943 0.4894140362739563 0.4241483807563782
0.2823343873023987 0.5126221179962158 0.5648979544639587
0.4312899112701416 0.4265054762363434 0.4228295385837555
0.3546285927295685 0.4131666421890259 0.5609062910079956
0.32167837023735046 0.41754743456840515 0.5823389887809753
0.25137677788734436 0.3685033619403839 0.4499759078025818
0.25872090458869934 0.4653012752532959 0.41957294940948486
0.3630514144897461 0.45343074202537537 0.4476911723613739
0.32144302129745483 0.4194226861000061 0.5509213209152222
0.36173564195632935 0.3538246154785156 0.40841761231422424
0.3493960201740265 0.3561541736125946 0.47008413076400757
0.41277068853378296 0.47005704045295715 0.41662347316741943
0.34320947527885437 0.3491440713405609 0.5084110498428345
0.43005290627479553 0.3999329209327698 0.48730170726776123
0.3275949954986572 0.5025784969329834 0.5364469885826111
0.27098533511161804 0.3270057737827301 0.5436598062515259
0.2951892018318176 0.4753333032131195 0.415153443813324
0.2719573676586151 0.5161604285240173 0.557415783405304
0.4338605999946594 0.4422617256641388 0.47006842494010925
0.28155115246772766 0.4528588354587555 0.5383892059326172
0.3550105094909668 0.45958003401756287 0.5411930084228516
0.2562839984893799 0.39475303888320923 0.5667640566825867
0.25393176078796387 0.4008847177028656 0.42718106508255005
0.348466157913208 0.49553802609443665 0.4188634157180786
0.26266583800315857 0.44379866123199463 0.5570731163024902
0.2849421203136444 0.3352850377559662 0.40823033452033997
0.3221777677536011 0.3697635233402252 0.45333993434906006
0.3670332133769989 0.35385310649871826 0.5433068871498108
0.43543240427970886 0.4551607370376587 0.5256186127662659
0.267063170671463 0.3910316526889801 0.5751563310623169
0.4001571238040924 0.42572668194770813 0.40372276306152344
0.3906010389328003 0.39452576637268066 0.40874943137168884
0.3134836256504059 0.4186069369316101 0.5832254886627197
0.32926878333091736 0.4231223464012146 0.5616330504417419
0.2778097093105316 0.48901015520095825 0.4130901098251343
0.4249155819416046 0.41143640875816345 0.5079573392868042
0.3124619424343109 0.39630717039108276 0.5386233329772949
0.37483319640159607 0.35030829906463623 0.5441609621047974
0.44494014978408813 0.5234124064445496 0.42690134048461914
0.41018036007881165 0.4142422378063202 0.536266565322876
0.4042462110519409 0.39899805188179016 0.5843875408172607
0.44373559951782227 0.4901953935623169 0.5185193419456482
0.3029974102973938 0.36310532689094543 0.4235629439353943
0.3793522119522095 0.41278043389320374 0.5326575636863708
0.3989502191543579 0.4500400424003601 0.5281469821929932
0.36332792043685913 0.36350202560424805 0.44822630286216736
0.31947389245033264 0.48331165313720703 0.5798751711845398
0.30549511313438416 0.48501887917518616 0.4226572513580322
0.34347543120384216 0.4626387059688568 0.4747971296310425
0.385206937789917 0.4583624005317688 0.49548643827438354
0.28593286871910095 0.4661787450313568 0.506234347820282
0.25065088272094727 0.4824082553386688 0.4811624586582184
0.4483200013637543 0.4627586603164673 0.461609810590744
0.33162420988082886 0.4352433681488037 0.5990206003189087
0.4218623638153076 0.35580891370773315 0.5361073613166809
0.3166123330593109 0.3803926110267639 0.46179890632629395
0.4105711877346039 0.456350177526474 0.4071728587150574
0.44595232605934143 0.4019061028957367 0.4775257408618927
0.31214088201522827 0.4802604913711548 0.4371412694454193
0.3852500319480896 0.5039727687835693 0.4711752235889435
0.29542186856269836 0.3263813555240631 0.5752366185188293
0.32464638352394104 0.4438861012458801 0.4036712348461151
0.2761973440647125 0.36835792660713196 0.5503228902816772
0.26137736439704895 0.46414369344711304 0.49146395921707153
0.40267080068588257 0.40743324160575867 0.5505172610282898
0.3438059687614441 0.5127578973770142 0.4487563371658325
0.3818731904029846 0.36358070373535156 0.5651264786720276
0.28879767656326294 0.4500460922718048 0.4842243492603302
0.3589271306991577 0.47834286093711853 0.40913552045822144
0.43565109372138977 0.503075361251831 0.4194384813308716
0.3510053753852844 0.3904597759246826 0.44870758056640625
0.39597398042678833 0.37403449416160583 0.5435545444488525
0.25658804178237915 0.39444392919540405 0.4283907413482666
0.3079555332660675 0.37411320209503174 0.5443242192268372
0.26663514971733093 0.4639938473701477 0.584745466709137
0.401466429233551 0.46784332394599915 0.5268582701683044
0.3203725516796112 0.44278445839881897 0.461466908454895
0.29388466477394104 0.4376530051231384 0.5466855764389038
0.32926878333091736 0.4231223464012146 0.5616330504417419
0.2778097093105316 0.48901015520095825 0.4130901098251343
0.4249155819416046 0.41143640875816345 0.5079573392868042
0.3124619424343109 0.39630717039108276 0.5386233329772949
0.37483319640159607 0.35030829906463623 0.5441609621047974
0.44494014978408813 0.5234124064445496 0.42690134048461914
0.41018036007881165 0.4142422378063202 0.536266565322876
0.4042462110519409 0.39899805188179016 0.5843875408172607
0.44373559951782227 0.4901953935623169 0.5185193419456482
0.3029974102973938 0.36310532689094543 0.4235629439353943
0.3793522119522095 0.41278043389320374 0.5326575636863708
0.3906887173652649 0.45985767245292664 0.583187997341156
0.2855071723461151 0.4518994390964508 0.4928831160068512
0.3888419270515442 0.37200599908828735 0.47748687863349915
0.28207826614379883 0.4419653117656708 0.4912067651748657
0.3194170594215393 0.35276511311531067 0.4540744721889496
0.295407772064209 0.507451057434082 0.4050132930278778
0.42406776547431946 0.3515792191028595 0.42358624935150146
0.39857953786849976 0.4062155485153198 0.5522431135177612
0.43600672483444214 0.5164832472801208 0.4488377869129181
0.260783314704895 0.49996235966682434 0.586669385433197
0.3233100175857544 0.413457989692688 0.5507249236106873
0.4307189881801605 0.3464621901512146 0.48628470301628113
0.3530333638191223 0.3687937557697296 0.501616895198822
0.3790457546710968 0.3602698743343353 0.44402968883514404
0.4473561644554138 0.450526624917984 0.4802638292312622
0.43538254499435425 0.5145474076271057 0.4617249667644501
0.41057470440864563 0.508552610874176 0.41620251536369324
0.42900678515434265 0.37665820121765137 0.4519778788089752
0.25204840302467346 0.42772048711776733 0.5707506537437439
0.3516750633716583 0.3797641098499298 0.5232893228530884
0.4330008924007416 0.49560531973838806 0.520379900932312
0.4001571238040924 0.42572668194770813 0.40372276306152344
0.3906010389328003 0.39452576637268066 0.40874943137168884
0.3134836256504059 0.4186069369316101 0.5832254886627197
0.32926878333091736 0.4231223464012146 0.5616330504417419
0.2778097093105316 0.48901015520095825 0.4130901098251343
0.4249155819416046 0.41143640875816345 0.5079573392868042
0.3124619424343109 0.39630717039108276 0.5386233329772949
0.37483319640159607 0.35030829906463623 0.5441609621047974
0.44494014978408813 0.5234124064445496 0.42690134048461914
0.41018036007881165 0.4142422378063202 0.536266565322876
0.4042462110519409 0.39899805188179016 0.5843875408172607
0.44373559951782227 0.4901953935623169 0.5185193419456482
0.3029974102973938 0.36310532689094543 0.4235629439353943
0.3793522119522095 0.41278043389320374 0.5326575636863708
0.3989502191543579 0.4500400424003601 0.5281469821929932
0.4234619736671448 0.5114423036575317 0.5050267577171326
0.30074191093444824 0.41243287920951843 0.46704286336898804
0.4466763436794281 0.423858106136322 0.4328964948654175
0.32675158977508545 0.459138423204422 0.44808876514434814
0.32823628187179565 0.4069117605686188 0.4943733811378479
0.295255571603775 0.4925367832183838 0.4619894325733185
0.2787725329399109 0.5165765881538391 0.596302330493927
0.26180946826934814 0.3296181559562683 0.5012792348861694
0.44588083028793335 0.45935359597206116 0.49497759342193604
0.35389381647109985 0.3761969208717346 0.46327996253967285
0.3623308539390564 0.44509464502334595 0.48633256554603577
0.27296552062034607 0.3428105413913727 0.5253228545188904
0.28247833251953125 0.36957916617393494 0.4295783042907715
0.36398425698280334 0.42512500286102295 0.5512024164199829
0.35161450505256653 0.5012426972389221 0.4243459701538086
0.44985365867614746 0.45530378818511963 0.48905065655708313
0.26120737195014954 0.3322860896587372 0.4692833125591278
0.32109981775283813 0.5182890295982361 0.5622571110725403
0.2724590301513672 0.35108911991119385 0.5625903010368347
0.32167837023735046 0.41754743456840515 0.5823389887809753
0.25137677788734436 0.3685033619403839 0.4499759078025818
0.25872090458869934 0.4653012752532959 0.41957294940948486
0.3630514144897461 0.45343074202537537 0.4476911723613739
0.38084813952445984 0.41478267312049866 0.4879817068576813
0.41686582565307617 0.4171227812767029 0.5696308016777039
0.405308336019516 0.4598308801651001 0.4485471844673157
0.261195570230484 0.4661162495613098 0.5167818069458008
0.3641180396080017 0.3749946653842926 0.5054519772529602
0.2507343888282776 0.35163095593452454 0.45684945583343506
0.3651580512523651 0.37761157751083374 0.4048929810523987
0.2673576772212982 0.4877011179924011 0.4164249300956726
0.42247864603996277 0.4060693383216858 0.46947237849235535
0.38222503662109375 0.3510086238384247 0.47127097845077515
0.2531433403491974 0.47335928678512573 0.5895390510559082
0.28284814953804016 0.37895429134368896 0.5964146256446838
0.3359540104866028 0.44959262013435364 0.48905739188194275
0.3949529230594635 0.39387384057044983 0.5727146863937378
0.3811301290988922 0.4916728436946869 0.5427871346473694
0.38954976201057434 0.3596283197402954 0.450648695230484
0.31928589940071106 0.5132261514663696 0.45101478695869446
0.3295818567276001 0.33331558108329773 0.42429834604263306
0.3662111759185791 0.5132817029953003 0.483050137758255
0.4267047047615051 0.484892874956131 0.48368018865585327
0.3495013117790222 0.36921635270118713 0.5788144469261169
0.34392428398132324 0.412916362285614 0.569375216960907
0.4492303133010864 0.48806026577949524 0.46340832114219666
0.429879754781723 0.3441005349159241 0.4338722229003906
0.32303786277770996 0.37614843249320984 0.5498976707458496
0.4468587636947632 0.4897511899471283 0.40883147716522217
0.4105711877346039 0.456350177526474 0.4071728587150574
0.39735835790634155 0.40432414412498474 0.5016831755638123
0.29338163137435913 0.356807678937912 0.42941179871559143
0.40346211194992065 0.5055917501449585 0.4099983870983124
0.3589477241039276 0.34987372159957886 0.49699732661247253
0.3682645559310913 0.38657957315444946 0.4620100259780884
0.3456367552280426 0.5148751139640808 0.4971589148044586
0.3130109906196594 0.4482642710208893 0.4328928589820862
0.29180726408958435 0.48549264669418335 0.5235995054244995
0.31658655405044556 0.36850348114967346 0.5455880761146545
0.2599908709526062 0.5168128609657288 0.4771639108657837
0.3006629943847656 0.5138810873031616 0.5838249325752258
0.35877400636672974 0.4514879882335663 0.5837433934211731
0.2712549865245819 0.44136831164360046 0.5018951296806335
0.4174584150314331 0.46403926610946655 0.5961462259292603
0.2529189884662628 0.5230569243431091 0.45425164699554443
0.3935255706310272 0.3641810417175293 0.4914218783378601
0.31411245465278625 0.42368561029434204 0.5980187654495239
0.36060625314712524 0.5103129744529724 0.591214656829834
0.35864850878715515 0.39293599128723145 0.45381441712379456
0.2732454240322113 0.36076056957244873 0.4616052210330963
0.3547059893608093 0.49016040563583374 0.5057911276817322
0.2915191650390625 0.4950752556324005 0.5996665358543396
0.39482536911964417 0.48169803619384766 0.5902624130249023
0.3586059808731079 0.346612811088562 0.4908089339733124
0.3463926315307617 0.47366979718208313 0.5351017117500305
0.2593587636947632 0.3270876109600067 0.5252718925476074
0.4364323616027832 0.3467349112033844 0.4083458483219147
0.44514819979667664 0.4182654023170471 0.5667428970336914
0.35710904002189636 0.44610530138015747 0.4209349751472473
0.2536773681640625 0.33809807896614075 0.5313661694526672
0.43543240427970886 0.4551607370376587 0.5256186127662659
0.2925785183906555 0.32864293456077576 0.5210461020469666
0.34657394886016846 0.37616682052612305 0.5806868076324463
0.4187121093273163 0.5135358572006226 0.5151016712188721
0.3682645559310913 0.38657957315444946 0.4620100259780884
0.3456367552280426 0.5148751139640808 0.4971589148044586
0.3130109906196594 0.4482642710208893 0.4328928589820862
0.2707841396331787 0.5007266998291016 0.5400512218475342
0.3457880914211273 0.3505512773990631 0.5128583908081055
0.2797989547252655 0.39127111434936523 0.5354366898536682
0.26766180992126465 0.4975798726081848 0.4300626814365387
0.414930522441864 0.3576141893863678 0.463731050491333
0.3765259087085724 0.4353789687156677 0.5550945401191711
0.3378654718399048 0.5176753401756287 0.4917990267276764
0.374022513628006 0.3887545168399811 0.4430376887321472
0.2655857503414154 0.5062102675437927 0.46904680132865906
0.2880142033100128 0.44887837767601013 0.41975411772727966
0.3722350001335144 0.3408910632133484 0.5388651490211487
0.4028070271015167 0.38427919149398804 0.5369220972061157
0.35276222229003906 0.47817185521125793 0.40030959248542786
0.44446372985839844 0.3676016926765442 0.4847557842731476
0.30179262161254883 0.4203746020793915 0.5800389647483826
0.2587105333805084 0.4149295389652252 0.59454345703125
0.3719932734966278 0.42539602518081665 0.5272524952888489
0.3355289399623871 0.33612582087516785 0.49295347929000854
0.26075997948646545 0.34201210737228394 0.5638117790222168
0.2549363076686859 0.33439648151397705 0.5575183033943176
0.36490166187286377 0.5049288272857666 0.4127984642982483
0.29412874579429626 0.4163850247859955 0.5643472671508789
0.3406801223754883 0.396950364112854 0.5084448456764221
0.3492119610309601 0.34517189860343933 0.5548732876777649
0.368418425321579 0.49730080366134644 0.5257484912872314
0.32167837023735046 0.41754743456840515 0.5823389887809753
0.25137677788734436 0.3685033619403839 0.4499759078025818
0.25872090458869934 0.4653012752532959 0.41957294940948486
0.3630514144897461 0.45343074202537537 0.4476911723613739
0.32144302129745483 0.4194226861000061 0.5509213209152222
0.36173564195632935 0.3538246154785156 0.40841761231422424
0.3493960201740265 0.3561541736125946 0.47008413076400757
0.41277068853378296 0.47005704045295715 0.41662347316741943
0.34320947527885437 0.3491440713405609 0.5084110498428345
0.261195570230484 0.4661162495613098 0.5167818069458008
0.3641180396080017 0.3749946653842926 0.5054519772529602
0.25337091088294983 0.35535967350006104 0.4594639539718628
0.4215896725654602 0.349750280380249 0.45634546875953674
0.3254811465740204 0.5033441185951233 0.5716360211372375
0.3254373073577881 0.4417361319065094 0.514049232006073
0.3506578207015991 0.443708211183548 0.5022847056388855
0.27716386318206787 0.38639992475509644 0.507462739944458
0.4427558183670044 0.35743433237075806 0.5137271881103516
0.2765221893787384 0.4457395672798157 0.4375390410423279
0.4503524899482727 0.515919029712677 0.44684314727783203
0.3512456715106964 0.3568839430809021 0.44829609990119934
0.2997633218765259 0.4220830798149109 0.49453166127204895
0.4352171719074249 0.4357815682888031 0.41660216450691223
0.4267047047615051 0.484892874956131 0.48368018865585327
0.3495013117790222 0.36921635270118713 0.5788144469261169
0.4064931571483612 0.48634904623031616 0.4945451617240906
0.43229565024375916 0.38819918036460876 0.5802191495895386
0.4492303133010864 0.48806026577949524 0.46340832114219666
0.4297652542591095 0.5147350430488586 0.5744957327842712
0.32303786277770996 0.37614843249320984 0.5498976707458496
0.4018891453742981 0.3844437897205353 0.5132584571838379
0.25153249502182007 0.4693821966648102 0.5036174058914185
0.36712202429771423 0.3552328050136566 0.5189418792724609
0.3772415220737457 0.3523463308811188 0.498993843793869
0.3558374345302582 0.49263784289360046 0.5152239203453064
0.38431283831596375 0.5221734046936035 0.475026935338974
0.3518534004688263 0.48639529943466187 0.5913403034210205
0.38493356108665466 0.38836097717285156 0.4595511257648468
0.3939586281776428 0.41176852583885193 0.42249172925949097
0.2520695626735687 0.4951584041118622 0.4992511570453644
0.37609899044036865 0.3422211706638336 0.4908454716205597
0.3836124837398529 0.4058399498462677 0.4398058354854584
0.2977140545845032 0.3402096927165985 0.48761773109436035
0.2920283079147339 0.38348832726478577 0.5644247531890869
0.3495013117790222 0.36921635270118713 0.5788144469261169
0.4064931571483612 0.48634904623031616 0.4945451617240906
0.43229565024375916 0.38819918036460876 0.5802191495895386
0.43133148550987244 0.511824369430542 0.5996867418289185
0.33340775966644287 0.4434507489204407 0.5002952814102173
0.3216639757156372 0.48584187030792236 0.5002651214599609
0.2900207042694092 0.3815944790840149 0.5128217339515686
0.25243961811065674 0.39469194412231445 0.4354088604450226
0.32672441005706787 0.43840718269348145 0.44557908177375793
0.3071194887161255 0.3512296676635742 0.5131685137748718
0.26759493350982666 0.4853815734386444 0.43483883142471313
0.29301580786705017 0.41243332624435425 0.5378473997116089
0.27068814635276794 0.33669453859329224 0.5341196656227112
0.2774829566478729 0.4093838334083557 0.4316350817680359
0.365790456533432 0.5166977643966675 0.4596979022026062
0.3575001657009125 0.3967278003692627 0.5205609798431396
0.40163320302963257 0.4678204655647278 0.4182203710079193
0.27014052867889404 0.34583374857902527 0.4171866178512573
0.38619139790534973 0.4495200514793396 0.42334532737731934
0.3448946177959442 0.3641118109226227 0.5026264190673828
0.3451714515686035 0.39957505464553833 0.5553974509239197
0.34320947527885437 0.3491440713405609 0.5084110498428345
0.41119468212127686 0.3890224099159241 0.5833896994590759
0.33785760402679443 0.4515438675880432 0.40779033303260803
0.40951165556907654 0.39767250418663025 0.5593153834342957
0.2835664451122284 0.37927624583244324 0.4154415726661682
0.31911203265190125 0.3809210956096649 0.5430519580841064
0.29559698700904846 0.49775558710098267 0.511360764503479
0.38051775097846985 0.40692228078842163 0.5045202374458313
0.3673860430717468 0.47263121604919434 0.5808728933334351
0.31325647234916687 0.39529332518577576 0.44251367449760437
0.3097260594367981 0.41505205631256104 0.4310000240802765
0.3324114680290222 0.38416507840156555 0.5204917192459106
0.4035063087940216 0.515288233757019 0.45163053274154663
0.26745831966400146 0.5157318115234375 0.5855729579925537
0.3646637201309204 0.44401514530181885 0.5246142745018005
0.42076751589775085 0.3788139820098877 0.48259371519088745
0.41301238536834717 0.41471076011657715 0.5013453364372253
0.3684318959712982 0.3394911289215088 0.41056209802627563
0.393053263425827 0.4663280248641968 0.5028728246688843
0.3156089782714844 0.34623950719833374 0.41950780153274536
0.2902291417121887 0.34251317381858826 0.5288708806037903
