ply
format ascii 1.0
element vertex 827
property float x
property float y
property float z
end_header
0.2736034691333771 0.3653821349143982 0.509109616279602
0.28837376832962036 0.3000175952911377 0.429218053817749
0.3599879741668701 0.4010768234729767 0.5724882483482361
0.2740655541419983 0.40991997718811035 0.5032387971878052
0.3940219581127167 0.3579174280166626 0.47282251715660095
0.41707316040992737 0.4244360029697418 0.4795043170452118
0.36696887016296387 0.33385953307151794 0.46582743525505066
0.4445631504058838 0.35559186339378357 0.5042341351509094
0.344717800617218 0.44470494985580444 0.5368306636810303
0.26321855187416077 0.4603186249732971 0.48061639070510864
0.31164199113845825 0.32731273770332336 0.5210742950439453
0.34939447045326233 0.3251880705356598 0.42724737524986267
0.2870631515979767 0.287667453289032 0.49994179606437683
0.37308618426322937 0.43611422181129456 0.5192939043045044
0.32132241129875183 0.4690572917461395 0.5477137565612793
0.3418926000595093 0.33208462595939636 0.4448923170566559
0.4500480592250824 0.4275323450565338 0.48488205671310425
0.3460136353969574 0.33594420552253723 0.5703182816505432
0.420425146818161 0.4301334321498871 0.4321388304233551
0.34393611550331116 0.36585357785224915 0.5028795003890991
0.36554911732673645 0.37162160873413086 0.5795729160308838
0.3165578544139862 0.4621168375015259 0.4458908438682556
0.3052114248275757 0.3411329388618469 0.5281396508216858
0.37790876626968384 0.4123953878879547 0.4394514262676239
0.347457617521286 0.41187483072280884 0.5038660168647766
0.26201045513153076 0.389881432056427 0.43745097517967224
0.33442422747612 0.34856170415878296 0.5710024237632751
0.3460678458213806 0.3344126045703888 0.576045572757721
0.26991966366767883 0.36847391724586487 0.45554816722869873
0.3842199146747589 0.31708621978759766 0.5986811518669128
0.38686662912368774 0.3467431366443634 0.4708227217197418
0.30678263306617737 0.32597097754478455 0.4144226908683777
0.4229545295238495 0.3881148397922516 0.5760120153427124
0.344803124666214 0.3917537033557892 0.526074230670929
0.2575048804283142 0.2999539375305176 0.5319563746452332
0.337105929851532 0.43134358525276184 0.4308866858482361
0.306368887424469 0.3528830111026764 0.43420833349227905
0.3026044964790344 0.4141261577606201 0.45728573203086853
0.43176305294036865 0.35334521532058716 0.5180891752243042
0.40868353843688965 0.4672548472881317 0.4703734219074249
0.42691299319267273 0.34370312094688416 0.3946017920970917
0.29783645272254944 0.3318718671798706 0.5668037533760071
0.40161189436912537 0.33519041538238525 0.585395336151123
0.38327649235725403 0.4341060519218445 0.4195988178253174
0.4107096493244171 0.38222160935401917 0.5851825475692749
0.45172637701034546 0.33480462431907654 0.5079221129417419
0.4459698796272278 0.4470498561859131 0.4864062964916229
0.269027978181839 0.4053865671157837 0.546935498714447
0.42589572072029114 0.46449217200279236 0.5116971731185913
0.33212727308273315 0.42015954852104187 0.4060326814651489
0.37054139375686646 0.4565593898296356 0.5244588851928711
0.367062509059906 0.3617275357246399 0.4456827938556671
0.3940819799900055 0.36957603693008423 0.40250155329704285
0.3933723568916321 0.3316693603992462 0.5468804836273193
0.35764697194099426 0.41113799810409546 0.500782310962677
0.39317458868026733 0.3846524953842163 0.559051513671875
0.28789132833480835 0.47106051445007324 0.44857504963874817
0.35358020663261414 0.4645512104034424 0.576564610004425
0.36009329557418823 0.4678543508052826 0.4042295813560486
0.2811499536037445 0.3438590168952942 0.5296379327774048
0.2664024233818054 0.32584089040756226 0.5945186018943787
0.436921626329422 0.3544713854789734 0.5558099150657654
0.2689690589904785 0.3143090605735779 0.5038149952888489
0.3761150538921356 0.4617259204387665 0.5180354118347168
0.4358547031879425 0.4709906280040741 0.5972638130187988
0.34632304310798645 0.38394299149513245 0.5725544691085815
0.4337562620639801 0.338329941034317 0.5360602736473083
0.3080413341522217 0.44818511605262756 0.462848961353302
0.29777753353118896 0.28357821702957153 0.4067070484161377
0.25410592555999756 0.3710297644138336 0.590648889541626
0.32254263758659363 0.3109092712402344 0.5530058145523071
0.2820788621902466 0.3170070946216583 0.4182569086551666
0.42427879571914673 0.4659597873687744 0.5708376169204712
0.2918160557746887 0.4086230397224426 0.5838084816932678
0.3693836033344269 0.34631088376045227 0.4439122676849365
0.2778330445289612 0.29943951964378357 0.4903618395328522
0.44484758377075195 0.37113332748413086 0.5942901968955994
0.351996511220932 0.3526589572429657 0.5651630163192749
0.3909855782985687 0.407897025346756 0.5920042395591736
0.314130574464798 0.382672518491745 0.454222708940506
0.286031574010849 0.2977999150753021 0.39880454540252686
0.367757111787796 0.45539310574531555 0.599593997001648
0.3917556405067444 0.44512858986854553 0.5208885669708252
0.2776740491390228 0.29844245314598083 0.40979915857315063
0.3374820947647095 0.4040924310684204 0.4253946542739868
0.25005489587783813 0.38058778643608093 0.4834325313568115
0.3628564774990082 0.3486136794090271 0.5399518013000488
0.42821478843688965 0.38322579860687256 0.4495317041873932
0.40166229009628296 0.32423779368400574 0.4718535542488098
0.3460678458213806 0.3344126045703888 0.576045572757721
0.26991966366767883 0.36847391724586487 0.45554816722869873
0.3842199146747589 0.31708621978759766 0.5986811518669128
0.38686662912368774 0.3467431366443634 0.4708227217197418
0.30678263306617737 0.32597097754478455 0.4144226908683777
0.395331472158432 0.4291492998600006 0.5168281197547913
0.3720099925994873 0.3261009156703949 0.4109615683555603
0.4445631504058838 0.35559186339378357 0.5042341351509094
0.3056682050228119 0.34556320309638977 0.4806937575340271
0.4378053843975067 0.4249817430973053 0.47814109921455383
0.33853471279144287 0.3366128206253052 0.5680019855499268
0.3282577693462372 0.39512646198272705 0.48143288493156433
0.26876336336135864 0.4416559636592865 0.4285944700241089
0.2660302221775055 0.3760637640953064 0.42479702830314636
0.306028813123703 0.33126601576805115 0.502952516078949
0.2805100381374359 0.40792861580848694 0.5087805390357971
0.34632304310798645 0.38394299149513245 0.5725544691085815
0.3680722415447235 0.35262173414230347 0.5739291906356812
0.3922311067581177 0.4126240313053131 0.5377317070960999
0.31133171916007996 0.44936585426330566 0.5731832981109619
0.44629964232444763 0.33449146151542664 0.44088777899742126
0.3315601944923401 0.3290594220161438 0.46563708782196045
0.28423064947128296 0.46152064204216003 0.5511952638626099
0.3971167206764221 0.37984925508499146 0.46256980299949646
0.3647582232952118 0.3431341350078583 0.4128648340702057
0.35153037309646606 0.3604632318019867 0.46193766593933105
0.29538479447364807 0.4474664330482483 0.5907503366470337
0.4269971549510956 0.4537944197654724 0.4548041522502899
0.3643677830696106 0.34267058968544006 0.4424184262752533
0.3888564109802246 0.3355642855167389 0.4445071220397949
0.2794262766838074 0.34108826518058777 0.4848726987838745
0.41821426153182983 0.3279646337032318 0.42302781343460083
0.37484925985336304 0.40170979499816895 0.5171318650245667
0.28515973687171936 0.4519086182117462 0.5336557030677795
0.2738131880760193 0.39536717534065247 0.5065886974334717
0.34734782576560974 0.3351077735424042 0.49292778968811035
0.41702964901924133 0.3380862772464752 0.48138731718063354
0.38327592611312866 0.35673847794532776 0.3975965678691864
0.33767127990722656 0.4374236464500427 0.4779437184333801
0.344717800617218 0.44470494985580444 0.5368306636810303
0.33853471279144287 0.3366128206253052 0.5680019855499268
0.3282577693462372 0.39512646198272705 0.48143288493156433
0.26876336336135864 0.4416559636592865 0.4285944700241089
0.2660302221775055 0.3760637640953064 0.42479702830314636
0.2805100381374359 0.40792861580848694 0.5087805390357971
0.34632304310798645 0.38394299149513245 0.5725544691085815
0.4337562620639801 0.338329941034317 0.5360602736473083
0.3080413341522217 0.44818511605262756 0.462848961353302
0.3922311067581177 0.4126240313053131 0.5377317070960999
0.31133171916007996 0.44936585426330566 0.5731832981109619
0.44629964232444763 0.33449146151542664 0.44088777899742126
0.3315601944923401 0.3290594220161438 0.46563708782196045
0.28423064947128296 0.46152064204216003 0.5511952638626099
0.2820788621902466 0.3170070946216583 0.4182569086551666
0.3647582232952118 0.3431341350078583 0.4128648340702057
0.35153037309646606 0.3604632318019867 0.46193766593933105
0.29538479447364807 0.4474664330482483 0.5907503366470337
0.37484925985336304 0.40170979499816895 0.5171318650245667
0.28515973687171936 0.4519086182117462 0.5336557030677795
0.2738131880760193 0.39536717534065247 0.5065886974334717
0.34734782576560974 0.3351077735424042 0.49292778968811035
0.41702964901924133 0.3380862772464752 0.48138731718063354
0.3831290304660797 0.35423141717910767 0.5427226424217224
0.42440783977508545 0.36749979853630066 0.5872811675071716
0.4210216701030731 0.4249371886253357 0.490169882774353
0.3460678458213806 0.3344126045703888 0.576045572757721
0.29298874735832214 0.4235851466655731 0.5123926997184753
0.3513290584087372 0.42726829648017883 0.49207255244255066
0.3900943696498871 0.44756513833999634 0.5860753655433655
0.3233528733253479 0.4079747200012207 0.5950684547424316
0.2575048804283142 0.2999539375305176 0.5319563746452332
0.3403601050376892 0.4259074628353119 0.451861709356308
0.3225557506084442 0.4715927541255951 0.5887072682380676
0.2705029845237732 0.29782235622406006 0.49623903632164
0.31016653776168823 0.3868233263492584 0.5478959083557129
0.3559338450431824 0.38689249753952026 0.5383685827255249
0.4411965310573578 0.3681012690067291 0.4808584153652191
0.3604688048362732 0.46980905532836914 0.4075429439544678
0.32656991481781006 0.3563941419124603 0.5076643228530884
0.41942664980888367 0.3469862639904022 0.4467312693595886
0.3385281562805176 0.36755719780921936 0.5746558308601379
0.3188649117946625 0.3326927721500397 0.4830704629421234
0.39987197518348694 0.34745123982429504 0.524459958076477
0.2639208137989044 0.41903725266456604 0.5905976891517639
0.2748476266860962 0.3644915223121643 0.46633395552635193
0.2520293593406677 0.44527667760849 0.5637660026550293
0.4187333285808563 0.3858661353588104 0.484310120344162
0.37794947624206543 0.3790247440338135 0.5576003789901733
0.34455087780952454 0.33822688460350037 0.40589872002601624
0.32715922594070435 0.3231668770313263 0.44076186418533325
0.43380361795425415 0.4189107418060303 0.5235416889190674
0.35455194115638733 0.4218980669975281 0.5207112431526184
0.3787563443183899 0.3134711980819702 0.48666632175445557
0.3606894612312317 0.42312943935394287 0.585263192653656
0.36059117317199707 0.3634301424026489 0.5328174829483032
0.3430991768836975 0.4034607708454132 0.4538455903530121
0.3338937759399414 0.3368809223175049 0.40875762701034546
0.2591210603713989 0.33388981223106384 0.4737885892391205
0.3261597454547882 0.3624337911605835 0.40261635184288025
0.40301966667175293 0.4009403586387634 0.45982179045677185
0.2599613070487976 0.37437501549720764 0.5161710977554321
0.3488180637359619 0.3367783725261688 0.5221362709999084
0.434238076210022 0.39126265048980713 0.5348307490348816
0.44538912177085876 0.3622440993785858 0.4204005002975464
0.2776740491390228 0.29844245314598083 0.40979915857315063
0.3374820947647095 0.4040924310684204 0.4253946542739868
0.25005489587783813 0.38058778643608093 0.4834325313568115
0.3628564774990082 0.3486136794090271 0.5399518013000488
0.42821478843688965 0.38322579860687256 0.4495317041873932
0.40166229009628296 0.32423779368400574 0.4718535542488098
0.3460678458213806 0.3344126045703888 0.576045572757721
0.26991966366767883 0.36847391724586487 0.45554816722869873
0.2884998917579651 0.3979061245918274 0.48346981406211853
0.3560098111629486 0.4445645809173584 0.48563870787620544
0.41447582840919495 0.40052059292793274 0.5793395042419434
0.3596830368041992 0.354835569858551 0.5800187587738037
0.4485975205898285 0.39112749695777893 0.420482337474823
0.34493690729141235 0.4441758692264557 0.40026792883872986
0.31228315830230713 0.45900145173072815 0.5683945417404175
0.30372652411460876 0.44394451379776 0.5034029483795166
0.3070674538612366 0.2819477915763855 0.4088607430458069
0.3757458031177521 0.3487682640552521 0.5142588019371033
0.4158681631088257 0.4499060809612274 0.5481892824172974
0.45082369446754456 0.3506525456905365 0.5941234827041626
0.38930049538612366 0.4445514976978302 0.4562602639198303
0.4484662413597107 0.42148786783218384 0.5228864550590515
0.4234869182109833 0.3429734408855438 0.41878920793533325
0.36075451970100403 0.45408251881599426 0.5295389294624329
0.288868248462677 0.44316720962524414 0.546410858631134
0.28835102915763855 0.32249268889427185 0.5737800002098083
0.3115711212158203 0.4644342362880707 0.4694933593273163
0.34512564539909363 0.38221579790115356 0.5268380641937256
0.39977526664733887 0.45725899934768677 0.5871997475624084
0.2667633593082428 0.45552366971969604 0.530271589756012
0.44378912448883057 0.4040061831474304 0.44058462977409363
0.44236835837364197 0.36079490184783936 0.5817026495933533
0.37484925985336304 0.40170979499816895 0.5171318650245667
0.39532387256622314 0.4341048002243042 0.5655926465988159
0.36979174613952637 0.45053282380104065 0.5427797436714172
0.27185145020484924 0.3194454610347748 0.49370092153549194
0.3479498624801636 0.396599680185318 0.4091660678386688
0.42268022894859314 0.36272141337394714 0.5031017065048218
0.33429527282714844 0.4522111713886261 0.4797579050064087
0.344803124666214 0.3917537033557892 0.526074230670929
0.2575048804283142 0.2999539375305176 0.5319563746452332
0.337105929851532 0.43134358525276184 0.4308866858482361
0.306368887424469 0.3528830111026764 0.43420833349227905
0.3026044964790344 0.4141261577606201 0.45728573203086853
0.43176305294036865 0.35334521532058716 0.5180891752243042
0.32888948917388916 0.3472403883934021 0.5214279294013977
0.3154107332229614 0.46112513542175293 0.5376774668693542
0.275328129529953 0.41538646817207336 0.5780702233314514
0.36783164739608765 0.3137650489807129 0.44562244415283203
0.30171021819114685 0.2920730412006378 0.592205286026001
0.2608128488063812 0.3548666834831238 0.502607524394989
0.4118365943431854 0.3210744261741638 0.43176770210266113
0.3593383729457855 0.4141693711280823 0.44688084721565247
0.2830924391746521 0.3563118875026703 0.43673694133758545
0.4050392210483551 0.42136910557746887 0.5204741358757019
0.32691511511802673 0.4690435230731964 0.4012397825717926
0.369570255279541 0.31990528106689453 0.4389011561870575
0.3755415976047516 0.3637448251247406 0.40291398763656616
0.25690627098083496 0.3745807707309723 0.5084491968154907
0.29744285345077515 0.3641433119773865 0.5544177889823914
0.3906278908252716 0.3248755931854248 0.5640560388565063
0.27990537881851196 0.3650946319103241 0.5758943557739258
0.38555896282196045 0.3321625888347626 0.40601271390914917
0.3631567358970642 0.35312116146087646 0.4464709460735321
0.42440783977508545 0.36749979853630066 0.5872811675071716
0.4210216701030731 0.4249371886253357 0.490169882774353
0.3588201105594635 0.36281561851501465 0.46607309579849243
0.4502720236778259 0.4056721031665802 0.472449392080307
0.41277459263801575 0.34464478492736816 0.5058993101119995
0.25421029329299927 0.449306845664978 0.5693182349205017
0.3998714089393616 0.3400481939315796 0.4409409761428833
0.4175131022930145 0.4453573226928711 0.5623552799224854
0.3535518944263458 0.33363163471221924 0.5148096680641174
0.41169390082359314 0.33174729347229004 0.39699625968933105
0.3301923871040344 0.32456544041633606 0.4135398864746094
0.41907998919487 0.4714707136154175 0.46635380387306213
0.26617640256881714 0.28908848762512207 0.500454306602478
0.3675075173377991 0.4109521806240082 0.489288866519928
0.2814640998840332 0.34995976090431213 0.5848999619483948
0.3566417098045349 0.4633824825286865 0.4991932809352875
0.3901151120662689 0.431791752576828 0.4152762293815613
0.3423551321029663 0.350008100271225 0.5605876445770264
0.2991449534893036 0.34576860070228577 0.47981947660446167
0.40724727511405945 0.39308905601501465 0.5856314301490784
0.26017019152641296 0.40250059962272644 0.47554972767829895
0.3510674238204956 0.3797106444835663 0.5312666296958923
0.33290883898735046 0.45545122027397156 0.4663221836090088
0.3009626567363739 0.38327401876449585 0.4328511357307434
0.34406691789627075 0.37489739060401917 0.5727022290229797
0.35007449984550476 0.4348955750465393 0.5646137595176697
0.4245680570602417 0.34111106395721436 0.4732625186443329
0.4318852126598358 0.372156023979187 0.47115546464920044
0.44314059615135193 0.4495627284049988 0.49696993827819824
0.4019068777561188 0.3526345193386078 0.47783926129341125
0.3018471896648407 0.3809860646724701 0.5965372323989868
0.38708367943763733 0.43435418605804443 0.5588235855102539
0.29941633343696594 0.3896813690662384 0.5088739991188049
0.28253239393234253 0.2939179241657257 0.46636828780174255
0.44348734617233276 0.3463747203350067 0.5515181422233582
0.28748729825019836 0.3474253714084625 0.4671221673488617
0.4356689155101776 0.410277783870697 0.5255306363105774
0.3051888346672058 0.35174375772476196 0.460959255695343
0.25780603289604187 0.31050458550453186 0.5688266158103943
0.40787404775619507 0.32502225041389465 0.5238338708877563
0.4324345588684082 0.44061601161956787 0.47823694348335266
0.3840683102607727 0.3202797472476959 0.4799862802028656
0.36218568682670593 0.47214260697364807 0.5759187340736389
0.4243030548095703 0.3237563371658325 0.4413953423500061
0.26088738441467285 0.3804550766944885 0.5670590400695801
0.4034218192100525 0.3493633568286896 0.510664165019989
0.295620858669281 0.4543455243110657 0.5189409255981445
0.3194127082824707 0.4406527280807495 0.40216755867004395
0.2820824980735779 0.31534573435783386 0.48228052258491516
0.2666718065738678 0.32017189264297485 0.5571907162666321
0.4385868012905121 0.33977583050727844 0.46683651208877563
0.2789054811000824 0.4215976893901825 0.47625720500946045
0.3903707265853882 0.3571861982345581 0.4922735393047333
0.43900084495544434 0.4634549617767334 0.4159126281738281
0.34828147292137146 0.41521748900413513 0.42256930470466614
0.450936883687973 0.3362286686897278 0.5873239636421204
0.3766464293003082 0.41236552596092224 0.5693507790565491
0.2565176486968994 0.43472063541412354 0.46970561146736145
0.3706112205982208 0.47082459926605225 0.5024656057357788
0.32686489820480347 0.43813273310661316 0.5431621670722961
0.36036115884780884 0.3413219153881073 0.5517386198043823
0.27369722723960876 0.36153069138526917 0.4686422348022461
0.32582342624664307 0.42049795389175415 0.5680391788482666
0.3108893930912018 0.36203545331954956 0.5799666047096252
0.2776849567890167 0.30529630184173584 0.5924339294433594
0.38294243812561035 0.47021618485450745 0.44129127264022827
0.43668264150619507 0.35316649079322815 0.45242592692375183
0.3610363304615021 0.4201114773750305 0.5458788275718689
0.360957533121109 0.4208545684814453 0.4066146910190582
0.4159601330757141 0.3475232422351837 0.48961037397384644
0.2594650387763977 0.30595383048057556 0.5492779612541199
0.2930256426334381 0.3099081516265869 0.5523409247398376
0.3263082802295685 0.29290932416915894 0.5122398138046265
0.3717625141143799 0.31657999753952026 0.5483583807945251
0.4249376952648163 0.4009612202644348 0.5478565096855164
0.4107435345649719 0.4675647020339966 0.5349684357643127
0.367985337972641 0.36256593465805054 0.4821113348007202
0.3894208073616028 0.36419913172721863 0.43571701645851135
0.3624271750450134 0.3321780860424042 0.5658427476882935
0.3510499596595764 0.3199636936187744 0.4505879580974579
0.39116325974464417 0.4655611515045166 0.4546036124229431
0.37457332015037537 0.43712231516838074 0.40015703439712524
0.40263935923576355 0.3929251730442047 0.6014533042907715
0.4115387499332428 0.389816015958786 0.4122515618801117
0.3437933623790741 0.32303276658058167 0.5437129735946655
0.4212612807750702 0.3845343291759491 0.40362367033958435
0.2834681570529938 0.45480599999427795 0.5246419310569763
0.27570199966430664 0.43825986981391907 0.5230898857116699
0.292702853679657 0.34739598631858826 0.5033732056617737
0.42643341422080994 0.416278213262558 0.5005790591239929
0.40842732787132263 0.3482120633125305 0.5692294239997864
0.3095445930957794 0.44303396344184875 0.43746984004974365
0.2864947021007538 0.39049309492111206 0.4837144613265991
0.4278813898563385 0.3899378776550293 0.6008458137512207
0.3124593496322632 0.32284554839134216 0.4567872881889343
0.3108893930912018 0.36203545331954956 0.5799666047096252
0.40868353843688965 0.4672548472881317 0.4703734219074249
0.42691299319267273 0.34370312094688416 0.3946017920970917
0.29783645272254944 0.3318718671798706 0.5668037533760071
0.40161189436912537 0.33519041538238525 0.585395336151123
0.38327649235725403 0.4341060519218445 0.4195988178253174
0.4107096493244171 0.38222160935401917 0.5851825475692749
0.45172637701034546 0.33480462431907654 0.5079221129417419
0.4459698796272278 0.4470498561859131 0.4864062964916229
0.269027978181839 0.4053865671157837 0.546935498714447
0.42589572072029114 0.46449217200279236 0.5116971731185913
0.33212727308273315 0.42015954852104187 0.4060326814651489
0.37054139375686646 0.4565593898296356 0.5244588851928711
0.367062509059906 0.3617275357246399 0.4456827938556671
0.3940819799900055 0.36957603693008423 0.40250155329704285
0.3933723568916321 0.3316693603992462 0.5468804836273193
0.35764697194099426 0.41113799810409546 0.500782310962677
0.39317458868026733 0.3846524953842163 0.559051513671875
0.28789132833480835 0.47106051445007324 0.44857504963874817
0.35358020663261414 0.4645512104034424 0.576564610004425
0.36009329557418823 0.4678543508052826 0.4042295813560486
0.43080487847328186 0.3542866110801697 0.4292391538619995
0.3040059208869934 0.3221950829029083 0.4463615417480469
0.24922117590904236 0.32277950644493103 0.44475528597831726
0.38363325595855713 0.3931221067905426 0.47363948822021484
0.32169651985168457 0.29109829664230347 0.4228217899799347
0.38806554675102234 0.4344569146633148 0.40013590455055237
0.2619095742702484 0.4480530321598053 0.4726850688457489
0.3748319745063782 0.44382452964782715 0.419466495513916
0.3417169451713562 0.39223232865333557 0.5802515745162964
0.27864140272140503 0.4396771788597107 0.5433866381645203
0.2873254418373108 0.4624750316143036 0.4628133773803711
0.40166229009628296 0.32423779368400574 0.4718535542488098
0.3152809143066406 0.3098415732383728 0.524345338344574
0.27864140272140503 0.4396771788597107 0.5433866381645203
0.2873254418373108 0.4624750316143036 0.4628133773803711
0.442979633808136 0.4317089021205902 0.5588898658752441
0.3700820803642273 0.31682437658309937 0.6067517995834351
0.2549618184566498 0.4179092049598694 0.46710601449012756
0.3029940128326416 0.3771854639053345 0.5183771848678589
0.43934211134910583 0.3296336829662323 0.5101591348648071
0.39884766936302185 0.4660823345184326 0.4204520881175995
0.4101291298866272 0.415632039308548 0.5394796133041382
0.31050923466682434 0.4448396563529968 0.5061022043228149
0.30362388491630554 0.3688052296638489 0.5261495113372803
0.34440532326698303 0.3916250467300415 0.5623664259910583
0.25742462277412415 0.45792531967163086 0.4036811888217926
0.3238716423511505 0.32667550444602966 0.5360347628593445
0.293818861246109 0.469767689704895 0.48718246817588806
0.3239594101905823 0.45659253001213074 0.44247671961784363
0.3587057888507843 0.4145077168941498 0.4008200764656067
0.30463728308677673 0.36911866068840027 0.48132598400115967
0.39667201042175293 0.42976313829421997 0.45318320393562317
0.4325055778026581 0.3359273672103882 0.40948551893234253
0.3349243104457855 0.43643927574157715 0.536681056022644
0.34864458441734314 0.3068668246269226 0.40710312128067017
0.3794005811214447 0.3367534279823303 0.5751305222511292
0.29059314727783203 0.29866495728492737 0.490966260433197
0.2788851857185364 0.43225398659706116 0.518010139465332
0.2788851857185364 0.43225398659706116 0.518010139465332
0.32979974150657654 0.35816216468811035 0.4360393285751343
0.3473411798477173 0.39339134097099304 0.41032978892326355
0.3473411798477173 0.39339134097099304 0.41032978892326355
0.34030553698539734 0.399381160736084 0.41912853717803955
0.43176305294036865 0.35334521532058716 0.5180891752243042
0.442979633808136 0.4317089021205902 0.5588898658752441
0.29133719205856323 0.4442577064037323 0.47799184918403625
0.39601483941078186 0.3327403664588928 0.5784847736358643
0.2549618184566498 0.4179092049598694 0.46710601449012756
0.3029940128326416 0.3771854639053345 0.5183771848678589
0.43934211134910583 0.3296336829662323 0.5101591348648071
0.39884766936302185 0.4660823345184326 0.4204520881175995
0.4101291298866272 0.415632039308548 0.5394796133041382
0.37591996788978577 0.36714786291122437 0.4786917567253113
0.368703693151474 0.31352028250694275 0.4691857695579529
0.3378361761569977 0.41337254643440247 0.5859723091125488
0.30362388491630554 0.3688052296638489 0.5261495113372803
0.34440532326698303 0.3916250467300415 0.5623664259910583
0.25742462277412415 0.45792531967163086 0.4036811888217926
0.3238716423511505 0.32667550444602966 0.5360347628593445
0.3239594101905823 0.45659253001213074 0.44247671961784363
0.3587057888507843 0.4145077168941498 0.4008200764656067
0.30463728308677673 0.36911866068840027 0.48132598400115967
0.39667201042175293 0.42976313829421997 0.45318320393562317
0.4325055778026581 0.3359273672103882 0.40948551893234253
0.3349243104457855 0.43643927574157715 0.536681056022644
0.34864458441734314 0.3068668246269226 0.40710312128067017
0.3315522074699402 0.44872376322746277 0.4500792622566223
0.3794005811214447 0.3367534279823303 0.5751305222511292
0.29059314727783203 0.29866495728492737 0.490966260433197
0.2788851857185364 0.43225398659706116 0.518010139465332
0.32979974150657654 0.35816216468811035 0.4360393285751343
0.3473411798477173 0.39339134097099304 0.41032978892326355
0.2785378098487854 0.30142778158187866 0.43704909086227417
0.34030553698539734 0.399381160736084 0.41912853717803955
0.2684003710746765 0.2844991981983185 0.5804742574691772
0.43176305294036865 0.35334521532058716 0.5180891752243042
0.32489973306655884 0.42364174127578735 0.5373895168304443
0.2853624224662781 0.34783628582954407 0.48604005575180054
0.3076823353767395 0.316008985042572 0.5488486289978027
0.266961932182312 0.45674464106559753 0.5224482417106628
0.4322645664215088 0.4102994501590729 0.5483781695365906
0.3638240694999695 0.4433976113796234 0.5261464715003967
0.3607521057128906 0.43383315205574036 0.554929256439209
0.35557058453559875 0.3389855623245239 0.432130366563797
0.4105292856693268 0.40744727849960327 0.487303763628006
0.3514763116836548 0.32785576581954956 0.5417914390563965
0.3724156320095062 0.43220067024230957 0.49834170937538147
0.36011257767677307 0.39283618330955505 0.41553613543510437
0.3937946856021881 0.35858917236328125 0.4055812358856201
0.27784356474876404 0.3971884548664093 0.5340033173561096
0.30103799700737 0.29383140802383423 0.5257022380828857
0.3665750324726105 0.42765599489212036 0.5682232975959778
0.3394896388053894 0.42198237776756287 0.5125317573547363
0.3488966226577759 0.4305233657360077 0.5071050524711609
0.4491920471191406 0.37807485461235046 0.5494800209999084
0.36576682329177856 0.38142216205596924 0.4671836495399475
0.31500452756881714 0.30949732661247253 0.4516179859638214
0.3711656928062439 0.3184783458709717 0.4409415125846863
0.28240567445755005 0.4316180646419525 0.4764966368675232
0.2612350881099701 0.4062991142272949 0.43611326813697815
0.27228987216949463 0.3427511751651764 0.46787571907043457
0.2985468804836273 0.3544120192527771 0.5233579277992249
0.3384731113910675 0.4019048810005188 0.41636720299720764
0.24984362721443176 0.28677448630332947 0.43233925104141235
0.4397270381450653 0.36530035734176636 0.4390074908733368
0.3040059208869934 0.3221950829029083 0.4463615417480469
0.24922117590904236 0.32277950644493103 0.44475528597831726
0.30372652411460876 0.44394451379776 0.5034029483795166
0.4101291298866272 0.415632039308548 0.5394796133041382
0.37591996788978577 0.36714786291122437 0.4786917567253113
0.368703693151474 0.31352028250694275 0.4691857695579529
0.3378361761569977 0.41337254643440247 0.5859723091125488
0.30362388491630554 0.3688052296638489 0.5261495113372803
0.34440532326698303 0.3916250467300415 0.5623664259910583
0.4468054175376892 0.4733802378177643 0.5056992173194885
0.4119483530521393 0.39174139499664307 0.4701433777809143
0.2999436557292938 0.3412233591079712 0.4114064872264862
0.3909212350845337 0.45793917775154114 0.4537980854511261
0.2751244902610779 0.42601972818374634 0.4586203396320343
0.34764018654823303 0.3833008110523224 0.5171221494674683
0.37166038155555725 0.3548983335494995 0.43596720695495605
0.27013546228408813 0.41335728764533997 0.4961678981781006
0.28862011432647705 0.396976113319397 0.4094330072402954
0.39206820726394653 0.3310963213443756 0.42600908875465393
0.328508198261261 0.45379769802093506 0.47792214155197144
0.29451683163642883 0.4540141224861145 0.40539923310279846
0.36268356442451477 0.33754605054855347 0.40299418568611145
0.25577273964881897 0.37547045946121216 0.5693918466567993
0.28471577167510986 0.33226534724235535 0.5179507732391357
0.3354741632938385 0.4093853533267975 0.5022771954536438
0.3603476881980896 0.31393805146217346 0.5806319713592529
0.4200044572353363 0.4293808043003082 0.4340597093105316
0.3363878130912781 0.29689309000968933 0.4404067397117615
0.25409987568855286 0.42163848876953125 0.45168378949165344
0.3135499358177185 0.3337416350841522 0.5271310210227966
0.41257694363594055 0.391018271446228 0.4194912910461426
0.2654756009578705 0.42666515707969666 0.5507736206054688
0.25166454911231995 0.3527159094810486 0.5328784584999084
0.28954821825027466 0.4602554738521576 0.5741202235221863
0.3437933623790741 0.32303276658058167 0.5437129735946655
0.3591679036617279 0.47274690866470337 0.5784487128257751
0.4023049473762512 0.3778153955936432 0.466210275888443
0.34947100281715393 0.41930460929870605 0.512610912322998
0.26846224069595337 0.39675065875053406 0.4797010123729706
0.34393295645713806 0.3566209077835083 0.5283480882644653
0.4383164942264557 0.360073447227478 0.4861740469932556
0.44250619411468506 0.39959457516670227 0.43936991691589355
0.4317902624607086 0.372931569814682 0.597264289855957
0.4105967581272125 0.3355778753757477 0.4422913193702698
0.3715905249118805 0.3567328453063965 0.5395013093948364
0.3512347638607025 0.47194284200668335 0.5655468106269836
0.32100844383239746 0.2938693165779114 0.47042033076286316
0.4189283549785614 0.40650513768196106 0.426901638507843
0.43452969193458557 0.3776938319206238 0.5911211371421814
0.2704290449619293 0.3275664448738098 0.5427964925765991
0.43030795454978943 0.43040743470191956 0.4805280864238739
0.35664257407188416 0.33042052388191223 0.5543583631515503
0.3533076345920563 0.361624151468277 0.4919704794883728
0.4211864173412323 0.44273263216018677 0.4561211168766022
0.32302409410476685 0.43902480602264404 0.4842066466808319
0.3518783450126648 0.4183855950832367 0.5912432074546814
0.40270113945007324 0.38388723134994507 0.5097880363464355
0.4016130268573761 0.34401214122772217 0.5172096490859985
0.30901333689689636 0.32115837931632996 0.5028985142707825
0.4201472997665405 0.3254871964454651 0.5656349062919617
0.3798147737979889 0.40768495202064514 0.4195164740085602
0.28258779644966125 0.4621967673301697 0.5141879320144653
0.40037649869918823 0.3716472089290619 0.436149537563324
0.3917466700077057 0.4226129949092865 0.5359985828399658
0.345527708530426 0.3740048110485077 0.5465015769004822
0.4468054175376892 0.4733802378177643 0.5056992173194885
0.436921626329422 0.3544713854789734 0.5558099150657654
0.3085422217845917 0.4361813962459564 0.5811156630516052
0.29654166102409363 0.4349652826786041 0.5818124413490295
0.4177562892436981 0.3798806965351105 0.4460899829864502
0.4099530875682831 0.33140885829925537 0.601957380771637
0.33342859148979187 0.41667917370796204 0.5109801888465881
0.26356127858161926 0.3229570686817169 0.4996960461139679
0.25985294580459595 0.3757072687149048 0.4565507173538208
0.31690075993537903 0.3069973886013031 0.5323681831359863
0.31476083397865295 0.42961224913597107 0.4179770052433014
0.2778622806072235 0.37259358167648315 0.4050578474998474
0.28736773133277893 0.4650869071483612 0.5746259093284607
0.33392593264579773 0.39191240072250366 0.4534474015235901
0.4244227707386017 0.3884149193763733 0.4937831163406372
0.4070708751678467 0.39604586362838745 0.4403133690357208
0.4334159791469574 0.3841353952884674 0.4207012355327606
0.35064956545829773 0.4599865972995758 0.43844693899154663
0.4102030396461487 0.3560718297958374 0.49377620220184326
0.2552819848060608 0.37397149205207825 0.4488327205181122
0.26701200008392334 0.4330981373786926 0.45893579721450806
0.4009372889995575 0.45367738604545593 0.40200120210647583
0.2664848864078522 0.3101183772087097 0.5582336187362671
0.3565349280834198 0.3647089898586273 0.4410581886768341
0.3069535791873932 0.3566988706588745 0.5350976586341858
0.32883572578430176 0.35836830735206604 0.4839877784252167
0.3675689995288849 0.4142634868621826 0.5964268445968628
0.30999934673309326 0.28916165232658386 0.5558537244796753
0.38909563422203064 0.36682599782943726 0.510124921798706
0.3768627643585205 0.4450984299182892 0.5105870366096497
0.34851035475730896 0.4703115224838257 0.5291842818260193
0.31575655937194824 0.36340099573135376 0.4099941849708557
0.4333605468273163 0.3352850675582886 0.44261059165000916
0.3706112205982208 0.47082459926605225 0.5024656057357788
0.31200867891311646 0.4227503538131714 0.4100598394870758
0.3486725986003876 0.3229594826698303 0.584574282169342
0.25616151094436646 0.3786086142063141 0.4650427997112274
0.3414236605167389 0.3443244695663452 0.5147022008895874
0.36518749594688416 0.37399545311927795 0.4418269395828247
0.2745339274406433 0.41792991757392883 0.5462181568145752
0.3557620942592621 0.45868197083473206 0.5229699611663818
0.34241965413093567 0.3792923092842102 0.4679248631000519
0.2901791036128998 0.43593332171440125 0.40563079714775085
0.29589545726776123 0.41506078839302063 0.5904415249824524
0.38864344358444214 0.39961710572242737 0.4704620838165283
0.3799406886100769 0.3358725607395172 0.5215154886245728
0.422902375459671 0.36988142132759094 0.562466561794281
0.3939402103424072 0.33053678274154663 0.5196159482002258
0.30547818541526794 0.3505653440952301 0.5385158658027649
0.3754446804523468 0.4343661665916443 0.5247929096221924
0.3938586115837097 0.41277870535850525 0.501072108745575
0.3857456147670746 0.39551082253456116 0.5091345906257629
0.32677072286605835 0.30934369564056396 0.49975934624671936
0.4280630946159363 0.32745927572250366 0.507103681564331
0.310304194688797 0.377633661031723 0.503738284111023
0.44382065534591675 0.4153488278388977 0.5618224740028381
0.3436098098754883 0.4014826714992523 0.5749102234840393
0.43990686535835266 0.3393712341785431 0.4216485023498535
0.27607885003089905 0.43108028173446655 0.481715589761734
0.2860080301761627 0.3826082646846771 0.47297751903533936
0.37553808093070984 0.4130915105342865 0.49881669878959656
0.4109417200088501 0.38507118821144104 0.47327542304992676
0.2523260712623596 0.29524093866348267 0.40614429116249084
0.38181164860725403 0.4018501043319702 0.425312340259552
0.3240339756011963 0.44060835242271423 0.4929579496383667
0.40301966667175293 0.4009403586387634 0.45982179045677185
0.251517117023468 0.40637534856796265 0.5668763518333435
0.27634504437446594 0.42320960760116577 0.5927435159683228
0.35431668162345886 0.3742090165615082 0.5927157402038574
0.3730674684047699 0.42407262325286865 0.549669623374939
0.32875844836235046 0.3469023108482361 0.47903022170066833
0.428324431180954 0.4415138065814972 0.5592506527900696
0.36541658639907837 0.46828022599220276 0.42670589685440063
0.3370244801044464 0.3605109453201294 0.4266170561313629
0.32046210765838623 0.32476264238357544 0.47949469089508057
0.2609685957431793 0.2786223292350769 0.5291890501976013
0.25327789783477783 0.3631627559661865 0.4193706512451172
0.34378308057785034 0.3007354438304901 0.41458460688591003
0.4377764165401459 0.3631955683231354 0.5521844625473022
0.4083368480205536 0.3685895800590515 0.5038735270500183
0.3275199234485626 0.30554723739624023 0.4931873381137848
0.34847360849380493 0.3023492395877838 0.49930503964424133
0.3869207203388214 0.45543697476387024 0.4299532175064087
0.32462069392204285 0.32187899947166443 0.6025317907333374
0.32501938939094543 0.30019065737724304 0.5013642907142639
0.33300530910491943 0.3810748755931854 0.5954041481018066
0.4445566236972809 0.4250123202800751 0.5032201409339905
0.35231977701187134 0.4598364531993866 0.5943799018859863
0.2976650893688202 0.3599897623062134 0.5257818698883057
0.40206241607666016 0.42761340737342834 0.5356552600860596
0.44704681634902954 0.40404775738716125 0.4283703863620758
0.37445834279060364 0.4681372344493866 0.5618387460708618
0.2955438792705536 0.42303112149238586 0.45274585485458374
0.3892374634742737 0.3231591582298279 0.5659692287445068
0.41574594378471375 0.39805540442466736 0.41964754462242126
0.28357994556427 0.3262369930744171 0.4598180949687958
0.32195693254470825 0.3942243754863739 0.4302990436553955
0.36036115884780884 0.3413219153881073 0.5517386198043823
0.28258779644966125 0.4621967673301697 0.5141879320144653
0.40037649869918823 0.3716472089290619 0.436149537563324
0.3917466700077057 0.4226129949092865 0.5359985828399658
0.4468054175376892 0.4733802378177643 0.5056992173194885
0.4119483530521393 0.39174139499664307 0.4701433777809143
0.2999436557292938 0.3412233591079712 0.4114064872264862
0.3909212350845337 0.45793917775154114 0.4537980854511261
0.2751244902610779 0.42601972818374634 0.4586203396320343
0.34764018654823303 0.3833008110523224 0.5171221494674683
0.37166038155555725 0.3548983335494995 0.43596720695495605
0.34764018654823303 0.3833008110523224 0.5171221494674683
0.37166038155555725 0.3548983335494995 0.43596720695495605
0.27013546228408813 0.41335728764533997 0.4961678981781006
0.28862011432647705 0.396976113319397 0.4094330072402954
0.39206820726394653 0.3310963213443756 0.42600908875465393
0.328508198261261 0.45379769802093506 0.47792214155197144
0.29451683163642883 0.4540141224861145 0.40539923310279846
0.36268356442451477 0.33754605054855347 0.40299418568611145
0.25577273964881897 0.37547045946121216 0.5693918466567993
0.28471577167510986 0.33226534724235535 0.5179507732391357
0.3354741632938385 0.4093853533267975 0.5022771954536438
0.3603476881980896 0.31393805146217346 0.5806319713592529
0.3949020802974701 0.40841546654701233 0.5910649299621582
0.32861247658729553 0.44529303908348083 0.427482008934021
0.29154762625694275 0.44379758834838867 0.5525619983673096
0.31111475825309753 0.4573919475078583 0.5117014050483704
0.33487528562545776 0.3546893894672394 0.5255668759346008
0.32236984372138977 0.4692136347293854 0.5610731244087219
0.3796886205673218 0.33900323510169983 0.5334721803665161
0.42567431926727295 0.3556230664253235 0.475630521774292
0.318528950214386 0.46184244751930237 0.4350340664386749
0.28337642550468445 0.3933158814907074 0.4998812973499298
0.3939402103424072 0.33053678274154663 0.5196159482002258
0.30547818541526794 0.3505653440952301 0.5385158658027649
0.36343368887901306 0.40956440567970276 0.5410882234573364
0.35871970653533936 0.38311055302619934 0.5189873576164246
0.32677072286605835 0.30934369564056396 0.49975934624671936
0.4280630946159363 0.32745927572250366 0.507103681564331
0.310304194688797 0.377633661031723 0.503738284111023
0.26733535528182983 0.3050404489040375 0.4054158329963684
0.29940319061279297 0.454820841550827 0.5200769305229187
0.39179134368896484 0.4668898284435272 0.4786224961280823
0.37452754378318787 0.31531763076782227 0.5138170719146729
0.27607885003089905 0.43108028173446655 0.481715589761734
0.3701803386211395 0.3185066282749176 0.508861780166626
0.2860080301761627 0.3826082646846771 0.47297751903533936
0.37553808093070984 0.4130915105342865 0.49881669878959656
0.2523260712623596 0.29524093866348267 0.40614429116249084
0.29329270124435425 0.47446438670158386 0.5911144018173218
0.38181164860725403 0.4018501043319702 0.425312340259552
0.3240339756011963 0.44060835242271423 0.4929579496383667
0.3208526372909546 0.3676546514034271 0.5034202933311462
0.4446634352207184 0.45951709151268005 0.5589588284492493
0.3086032569408417 0.42233070731163025 0.4597926437854767
0.39708057045936584 0.4216846227645874 0.40949732065200806
0.4108479619026184 0.4698043167591095 0.5219751596450806
0.35274940729141235 0.3407368063926697 0.5619335770606995
0.3162176012992859 0.4591251015663147 0.41021132469177246
0.36351409554481506 0.4121477007865906 0.42833369970321655
0.2645288407802582 0.3197537064552307 0.4258628189563751
0.4167065918445587 0.44514861702919006 0.5871252417564392
0.420350044965744 0.37861159443855286 0.5866407752037048
0.2534870207309723 0.3775874078273773 0.44997695088386536
0.4149172902107239 0.46362990140914917 0.5284492373466492
0.3730674684047699 0.42407262325286865 0.549669623374939
0.32875844836235046 0.3469023108482361 0.47903022170066833
0.428324431180954 0.4415138065814972 0.5592506527900696
0.34380897879600525 0.3191729485988617 0.42397764325141907
0.37618526816368103 0.3635999858379364 0.5486694574356079
0.3370244801044464 0.3605109453201294 0.4266170561313629
0.39698559045791626 0.4390556514263153 0.5548867583274841
0.4079282283782959 0.4066811501979828 0.47527652978897095
0.4138617217540741 0.4084131121635437 0.5624940991401672
0.3863438665866852 0.46784454584121704 0.5618422031402588
0.4093221127986908 0.3305724859237671 0.5961496829986572
0.25135838985443115 0.3068188726902008 0.4343351125717163
0.3875121474266052 0.4224894046783447 0.4191710948944092
0.38545069098472595 0.38932374119758606 0.5170223116874695
0.41282811760902405 0.4024064540863037 0.4756927490234375
0.33495208621025085 0.3068263530731201 0.5253039002418518
0.29477381706237793 0.45181071758270264 0.5512852072715759
0.3164217174053192 0.3531609773635864 0.5550000071525574
0.40248534083366394 0.4280257523059845 0.5360391736030579
0.3407702147960663 0.3621458411216736 0.5648311972618103
0.40469399094581604 0.32236650586128235 0.5672275424003601
0.4110061824321747 0.33412545919418335 0.4853785037994385
0.3262025713920593 0.43775272369384766 0.5940185785293579
0.4279167950153351 0.3805635869503021 0.4186341464519501
0.3861106038093567 0.36325716972351074 0.44054344296455383
0.2787518799304962 0.2803175747394562 0.5171491503715515
0.3128640055656433 0.466753751039505 0.4566364586353302
0.43336722254753113 0.3429017961025238 0.4771398901939392
0.34535902738571167 0.37947043776512146 0.4478868544101715
0.3988892734050751 0.3848046362400055 0.49858003854751587
0.38775181770324707 0.3463016748428345 0.4965927004814148
0.32169651985168457 0.29109829664230347 0.4228217899799347
0.4416440427303314 0.44622713327407837 0.4571954011917114
0.37331610918045044 0.46117350459098816 0.43879446387290955
0.4315834939479828 0.4575250744819641 0.4478331506252289
0.40135714411735535 0.42198246717453003 0.5080229043960571
0.44636431336402893 0.3442906141281128 0.4979616403579712
0.27402791380882263 0.4101155400276184 0.45807236433029175
0.30110880732536316 0.446102499961853 0.4155826270580292
0.3953815996646881 0.3464690148830414 0.5465642213821411
0.251517117023468 0.40637534856796265 0.5668763518333435
0.27634504437446594 0.42320960760116577 0.5927435159683228
0.35431668162345886 0.3742090165615082 0.5927157402038574
0.3730674684047699 0.42407262325286865 0.549669623374939
0.32875844836235046 0.3469023108482361 0.47903022170066833
0.428324431180954 0.4415138065814972 0.5592506527900696
0.34380897879600525 0.3191729485988617 0.42397764325141907
0.4191318154335022 0.32797539234161377 0.5664180517196655
0.37317562103271484 0.40587562322616577 0.4260880649089813
0.3449971079826355 0.44005414843559265 0.45666590332984924
0.29566702246665955 0.4155876934528351 0.5761663913726807
0.3661101162433624 0.4393022358417511 0.5717453360557556
0.34928181767463684 0.45897576212882996 0.5304287075996399
0.28677189350128174 0.4175339341163635 0.5384767055511475
0.36997559666633606 0.3343198001384735 0.5585206747055054
0.3593677878379822 0.3564627170562744 0.5723458528518677
0.3553456962108612 0.3056415617465973 0.5274652242660522
0.36661413311958313 0.35467952489852905 0.4541824460029602
0.27682244777679443 0.29024508595466614 0.42292821407318115
0.3783237636089325 0.33734652400016785 0.47313469648361206
0.3182884752750397 0.43520838022232056 0.45309457182884216
0.25275900959968567 0.4318288266658783 0.4761129915714264
0.4002901613712311 0.4402991235256195 0.4800565838813782
0.442979633808136 0.4317089021205902 0.5588898658752441
0.3661101162433624 0.4393022358417511 0.5717453360557556
0.34928181767463684 0.45897576212882996 0.5304287075996399
0.28677189350128174 0.4175339341163635 0.5384767055511475
0.36997559666633606 0.3343198001384735 0.5585206747055054
0.3593677878379822 0.3564627170562744 0.5723458528518677
0.3553456962108612 0.3056415617465973 0.5274652242660522
0.36661413311958313 0.35467952489852905 0.4541824460029602
0.27682244777679443 0.29024508595466614 0.42292821407318115
0.3783237636089325 0.33734652400016785 0.47313469648361206
0.3182884752750397 0.43520838022232056 0.45309457182884216
0.2615710496902466 0.4294220805168152 0.4843873083591461
0.4292720556259155 0.44444939494132996 0.4478848874568939
0.3257499933242798 0.4274265766143799 0.4642539918422699
0.26982876658439636 0.301635205745697 0.43250590562820435
0.3159610629081726 0.35259127616882324 0.5948178768157959
0.30965346097946167 0.40083324909210205 0.5778305530548096
0.4468294680118561 0.4311332106590271 0.5015288591384888
0.4284205436706543 0.4567260444164276 0.40270861983299255
0.4024045765399933 0.4309237003326416 0.5076501369476318
0.40245506167411804 0.44229093194007874 0.4721142053604126
0.31061628460884094 0.3214776813983917 0.4623888432979584
0.2895852029323578 0.4605845510959625 0.44273480772972107
0.2808784544467926 0.3885630965232849 0.40761539340019226
0.3499816656112671 0.4022557735443115 0.4944935739040375
0.3879462480545044 0.4583449065685272 0.5926626324653625
0.39222803711891174 0.4405967593193054 0.41192686557769775
0.29477185010910034 0.41624531149864197 0.4543112814426422
0.3986298143863678 0.3805617392063141 0.3978307843208313
0.3991541266441345 0.38470467925071716 0.4905976951122284
0.3077049255371094 0.4577799439430237 0.5098983645439148
0.39754432439804077 0.42354217171669006 0.5235967040061951
0.38978496193885803 0.37861180305480957 0.544235110282898
0.40206241607666016 0.42761340737342834 0.5356552600860596
0.34124755859375 0.31029632687568665 0.5661432147026062
0.4211776852607727 0.36981672048568726 0.5114507675170898
0.4309016466140747 0.3465965688228607 0.403526246547699
0.4479624032974243 0.33495277166366577 0.4829270839691162
0.3879462480545044 0.4583449065685272 0.5926626324653625
0.39222803711891174 0.4405967593193054 0.41192686557769775
0.2780982553958893 0.4077647924423218 0.46922579407691956
0.39222803711891174 0.4405967593193054 0.41192686557769775
0.29477185010910034 0.41624531149864197 0.4543112814426422
0.3986298143863678 0.3805617392063141 0.3978307843208313
0.2787518799304962 0.2803175747394562 0.5171491503715515
0.3128640055656433 0.466753751039505 0.4566364586353302
0.43336722254753113 0.3429017961025238 0.4771398901939392
0.34535902738571167 0.37947043776512146 0.4478868544101715
0.3988892734050751 0.3848046362400055 0.49858003854751587
0.38775181770324707 0.3463016748428345 0.4965927004814148
0.3603166937828064 0.31659558415412903 0.6025969386100769
0.35726743936538696 0.41457465291023254 0.44761747121810913
0.3857846260070801 0.3612285554409027 0.43786096572875977
0.30709052085876465 0.3401886522769928 0.4154660701751709
0.3261074423789978 0.3225145936012268 0.592782199382782
0.39479970932006836 0.3747584819793701 0.4329439103603363
0.3170219957828522 0.28499266505241394 0.39866065979003906
0.43992674350738525 0.38137421011924744 0.47388702630996704
0.4514317214488983 0.3362225890159607 0.548000693321228
