ply
format ascii 1.0
element vertex 826
property float x
property float y
property float z
end_header
0.2995767891407013 0.26093190908432007 0.5247408151626587
0.27527302503585815 0.4168461859226227 0.5356411933898926
0.24760009348392487 0.3804003596305847 0.4975709021091461
0.3422679901123047 0.3993959128856659 0.5155556201934814
0.2763790190219879 0.33835533261299133 0.5115094184875488
0.42924579977989197 0.3564475178718567 0.5663950443267822
0.41451597213745117 0.37171778082847595 0.46015501022338867
0.2747894823551178 0.32015472650527954 0.5373361110687256
0.44602593779563904 0.3201029896736145 0.5014891028404236
0.3032222390174866 0.42116779088974 0.5900402069091797
0.3212285339832306 0.4089435040950775 0.44828593730926514
0.31636908650398254 0.3960460126399994 0.49980711936950684
0.33845245838165283 0.39419832825660706 0.488680899143219
0.2865689694881439 0.3070060610771179 0.49456194043159485
0.249242901802063 0.37698227167129517 0.4078375995159149
0.3192167282104492 0.2948627769947052 0.5955946445465088
0.35956883430480957 0.2977794110774994 0.5087137222290039
0.3218773603439331 0.41137629747390747 0.5518680810928345
0.4276011884212494 0.3221586048603058 0.5465250611305237
0.2944943308830261 0.4025633633136749 0.5077934861183167
0.2643623948097229 0.22744904458522797 0.4350224733352661
0.3710121214389801 0.34501105546951294 0.4857355058193207
0.33960244059562683 0.28480008244514465 0.5673586130142212
0.41358649730682373 0.30934658646583557 0.454557865858078
0.35253623127937317 0.28955987095832825 0.44746315479278564
0.2829636335372925 0.23432989418506622 0.5021328926086426
0.34337857365608215 0.3673560619354248 0.5521242022514343
0.34851470589637756 0.4035148322582245 0.4494694769382477
0.4294954538345337 0.37772881984710693 0.43206262588500977
0.3760499060153961 0.29742035269737244 0.4991486668586731
0.3642481565475464 0.3502388596534729 0.5601572394371033
0.3583016097545624 0.3925941288471222 0.5210704803466797
0.4432520866394043 0.3423556685447693 0.5087378025054932
0.2995767891407013 0.26093190908432007 0.5247408151626587
0.4115631580352783 0.348924845457077 0.4691562056541443
0.35608452558517456 0.29576051235198975 0.5401349663734436
0.3394913673400879 0.31112053990364075 0.47743886709213257
0.4157371520996094 0.40419211983680725 0.4647453725337982
0.30026739835739136 0.2978890538215637 0.4116388261318207
0.35460472106933594 0.3020694851875305 0.5059528350830078
0.3332832157611847 0.302523672580719 0.4392552375793457
0.32361486554145813 0.35009387135505676 0.4194457530975342
0.3902239203453064 0.29182153940200806 0.5748785734176636
0.4314403831958771 0.3205502927303314 0.5636827945709229
0.2865689694881439 0.3070060610771179 0.49456194043159485
0.32105597853660583 0.36537882685661316 0.5462906956672668
0.276419997215271 0.34783297777175903 0.5953852534294128
0.25648266077041626 0.31519442796707153 0.4615486264228821
0.28844866156578064 0.3226607143878937 0.5050824880599976
0.27266430854797363 0.31894636154174805 0.42834344506263733
0.38899409770965576 0.4111250042915344 0.5603259205818176
0.3052052855491638 0.3108194172382355 0.5525861978530884
0.3860878348350525 0.3043294847011566 0.44858065247535706
0.2996487617492676 0.39252927899360657 0.5505633354187012
0.3017449975013733 0.24014870822429657 0.5555247664451599
0.3447669446468353 0.4087684154510498 0.5160509347915649
0.44067618250846863 0.3185080289840698 0.520382821559906
0.3203626573085785 0.3739359378814697 0.44239282608032227
0.2810831665992737 0.2795802354812622 0.4645564556121826
0.44468677043914795 0.31788215041160583 0.5689265727996826
0.42653703689575195 0.38553616404533386 0.46063894033432007
0.2953062355518341 0.2852518856525421 0.41970449686050415
0.3097420334815979 0.37585654854774475 0.48095598816871643
0.3055815100669861 0.30421409010887146 0.5767643451690674
0.34432968497276306 0.3948974013328552 0.5989816188812256
0.28052443265914917 0.2720835208892822 0.4109044373035431
0.2906525731086731 0.3342442214488983 0.5991378426551819
0.39130279421806335 0.3538774251937866 0.5760622620582581
0.38052141666412354 0.31834498047828674 0.4543914198875427
0.2942724823951721 0.3339761793613434 0.5319392681121826
0.2740161418914795 0.4145961403846741 0.4439167082309723
0.4031813442707062 0.4126299023628235 0.43162021040916443
0.3744196891784668 0.32095059752464294 0.4225766658782959
0.3534664511680603 0.33757832646369934 0.4991004765033722
0.4255489408969879 0.40381091833114624 0.5860188007354736
0.38774314522743225 0.362127423286438 0.5079056620597839
0.27378973364830017 0.41777437925338745 0.4377889037132263
0.26154574751853943 0.375168114900589 0.5923821330070496
0.3192167282104492 0.2948627769947052 0.5955946445465088
0.3203626573085785 0.3739359378814697 0.44239282608032227
0.2810831665992737 0.2795802354812622 0.4645564556121826
0.44468677043914795 0.31788215041160583 0.5689265727996826
0.42653703689575195 0.38553616404533386 0.46063894033432007
0.42653703689575195 0.38553616404533386 0.46063894033432007
0.2953062355518341 0.2852518856525421 0.41970449686050415
0.2953062355518341 0.2852518856525421 0.41970449686050415
0.3097420334815979 0.37585654854774475 0.48095598816871643
0.3055815100669861 0.30421409010887146 0.5767643451690674
0.34432968497276306 0.3948974013328552 0.5989816188812256
0.28052443265914917 0.2720835208892822 0.4109044373035431
0.2906525731086731 0.3342442214488983 0.5991378426551819
0.39130279421806335 0.3538774251937866 0.5760622620582581
0.35422104597091675 0.3295985162258148 0.4416511356830597
0.30696240067481995 0.4163513481616974 0.5348309278488159
0.2740161418914795 0.4145961403846741 0.4439167082309723
0.4031813442707062 0.4126299023628235 0.43162021040916443
0.3773273527622223 0.344635546207428 0.40440860390663147
0.37676283717155457 0.39601755142211914 0.4564448893070221
0.30680862069129944 0.40108442306518555 0.47753387689590454
0.4255489408969879 0.40381091833114624 0.5860188007354736
0.38774314522743225 0.362127423286438 0.5079056620597839
0.27378973364830017 0.41777437925338745 0.4377889037132263
0.26154574751853943 0.375168114900589 0.5923821330070496
0.24429790675640106 0.31058672070503235 0.5025739073753357
0.32073774933815 0.3535929024219513 0.40231701731681824
0.32073774933815 0.3535929024219513 0.40231701731681824
0.31805330514907837 0.279291570186615 0.4634234607219696
0.2963579595088959 0.3177827298641205 0.4517158567905426
0.37487637996673584 0.358859658241272 0.58132404088974
0.25300899147987366 0.4074546992778778 0.5047765374183655
0.35956883430480957 0.2977794110774994 0.5087137222290039
0.28682640194892883 0.3669986128807068 0.5221988558769226
0.41392430663108826 0.3242419958114624 0.4454353451728821
0.40975505113601685 0.3917171359062195 0.4975016117095947
0.4360407292842865 0.35945364832878113 0.5978851914405823
0.33388084173202515 0.34966838359832764 0.46729546785354614
0.4169553518295288 0.3417569100856781 0.4971196949481964
0.42753535509109497 0.3406672179698944 0.5616884827613831
0.3826879560947418 0.3466561734676361 0.5508065223693848
0.25867512822151184 0.36641690135002136 0.5067381262779236
0.3626956641674042 0.3300172984600067 0.5563881397247314
0.3889770209789276 0.3126971423625946 0.5089976787567139
0.3436364531517029 0.3444923162460327 0.573297381401062
0.29339760541915894 0.2492941915988922 0.41703125834465027
0.3917064070701599 0.34765586256980896 0.4904536306858063
0.31088680028915405 0.3141608238220215 0.5754340291023254
0.2741021513938904 0.23261459171772003 0.5797863006591797
0.3705604374408722 0.2937585413455963 0.4985312819480896
0.3993581235408783 0.29974427819252014 0.5266696810722351
0.3470630943775177 0.3078310787677765 0.5401970744132996
0.40042608976364136 0.42390480637550354 0.4637780487537384
0.40042608976364136 0.42390480637550354 0.4637780487537384
0.24601349234580994 0.3070812523365021 0.42248842120170593
0.4085194170475006 0.40816980600357056 0.4769672155380249
0.32712775468826294 0.3687689006328583 0.4174511730670929
0.36172014474868774 0.3636838495731354 0.4129978120326996
0.38416385650634766 0.36066433787345886 0.4452665448188782
0.32652390003204346 0.33559277653694153 0.49458178877830505
0.4152830243110657 0.30007943511009216 0.4495921730995178
0.390191912651062 0.41837549209594727 0.4432571530342102
0.38347315788269043 0.29243266582489014 0.584825873374939
0.39314767718315125 0.3337049186229706 0.4430989921092987
0.2798601984977722 0.31495657563209534 0.5139080882072449
0.33388084173202515 0.34966838359832764 0.46729546785354614
0.4169553518295288 0.3417569100856781 0.4971196949481964
0.42753535509109497 0.3406672179698944 0.5616884827613831
0.3826879560947418 0.3466561734676361 0.5508065223693848
0.25867512822151184 0.36641690135002136 0.5067381262779236
0.3626956641674042 0.3300172984600067 0.5563881397247314
0.3889770209789276 0.3126971423625946 0.5089976787567139
0.3436364531517029 0.3444923162460327 0.573297381401062
0.29339760541915894 0.2492941915988922 0.41703125834465027
0.4123194217681885 0.4001578390598297 0.5029229521751404
0.2741021513938904 0.23261459171772003 0.5797863006591797
0.3705604374408722 0.2937585413455963 0.4985312819480896
0.3993581235408783 0.29974427819252014 0.5266696810722351
0.3470630943775177 0.3078310787677765 0.5401970744132996
0.40042608976364136 0.42390480637550354 0.4637780487537384
0.24601349234580994 0.3070812523365021 0.42248842120170593
0.42211517691612244 0.3996192514896393 0.4353983998298645
0.27489182353019714 0.37164953351020813 0.4899202585220337
0.37287697196006775 0.3057195544242859 0.5902572870254517
0.35863810777664185 0.3301072120666504 0.6049397587776184
0.2657424807548523 0.2724963426589966 0.426545649766922
0.3396120071411133 0.322866290807724 0.4109877347946167
0.3492547571659088 0.3680817186832428 0.44434481859207153
0.39236414432525635 0.3440433144569397 0.5337504148483276
0.3599987030029297 0.2760147154331207 0.48905789852142334
0.2700345516204834 0.29527735710144043 0.4001496136188507
0.3999828100204468 0.41860097646713257 0.4823715388774872
0.4213683009147644 0.3374171257019043 0.5663571953773499
0.2996487617492676 0.39252927899360657 0.5505633354187012
0.3017449975013733 0.24014870822429657 0.5555247664451599
0.3042236268520355 0.39032670855522156 0.4828706383705139
0.32621487975120544 0.4040151536464691 0.4047922194004059
0.40905314683914185 0.3568611145019531 0.4137646555900574
0.3940873146057129 0.3364698588848114 0.5187529921531677
0.4294552505016327 0.33642587065696716 0.564212441444397
0.2926456928253174 0.345771461725235 0.4538085460662842
0.39621520042419434 0.38027963042259216 0.40431591868400574
0.3323702812194824 0.35372281074523926 0.5777871608734131
0.2954238951206207 0.25450947880744934 0.46561869978904724
0.3920159637928009 0.3721458911895752 0.5732437968254089
0.2920375168323517 0.369947612285614 0.4493856430053711
0.287045955657959 0.29268327355384827 0.40038514137268066
0.2496468871831894 0.2528305947780609 0.4482012093067169
0.32415977120399475 0.29732078313827515 0.46128517389297485
0.33466264605522156 0.27058327198028564 0.48576557636260986
0.30008265376091003 0.2942998707294464 0.46422967314720154
0.26598498225212097 0.35490551590919495 0.5701674222946167
0.42985787987709045 0.31424957513809204 0.5676490664482117
0.3773132860660553 0.37572750449180603 0.4274252653121948
0.38642117381095886 0.398877888917923 0.3990705609321594
0.30805423855781555 0.30190399289131165 0.5584187507629395
0.3523848056793213 0.2834053933620453 0.4967626631259918
0.25291305780410767 0.23580999672412872 0.4272797703742981
0.39063525199890137 0.40044885873794556 0.4171707332134247
0.2633807063102722 0.26829418540000916 0.5615942478179932
0.33888179063796997 0.3100724220275879 0.4208650290966034
0.3622497022151947 0.27632415294647217 0.5050483345985413
0.3165549337863922 0.34952422976493835 0.539258599281311
0.3437454104423523 0.28689005970954895 0.5247767567634583
0.31430783867836 0.26314184069633484 0.4607291519641876
0.2789449095726013 0.3778832256793976 0.5983526706695557
0.25363075733184814 0.2663578391075134 0.5804604887962341
0.3470439314842224 0.3757278621196747 0.4226948022842407
0.25648266077041626 0.31519442796707153 0.4615486264228821
0.26578205823898315 0.24226802587509155 0.5267128944396973
0.2799757122993469 0.29927077889442444 0.4316278100013733
0.38373398780822754 0.3980334997177124 0.5997046828269958
0.24743573367595673 0.3676341474056244 0.4070541560649872
0.36144018173217773 0.32878896594047546 0.553961992263794
0.4140375256538391 0.40085670351982117 0.571379542350769
0.31287428736686707 0.4166038930416107 0.5772823691368103
0.4377184212207794 0.3360525965690613 0.5906022191047668
0.2618987560272217 0.2848545014858246 0.41000697016716003
0.32096466422080994 0.41128528118133545 0.58269202709198
0.3917064070701599 0.34765586256980896 0.4904536306858063
0.3712209463119507 0.3807046115398407 0.4733505845069885
0.2816447615623474 0.2479681670665741 0.555574357509613
0.4439481496810913 0.37894052267074585 0.560485303401947
0.38819870352745056 0.34607040882110596 0.4022071063518524
0.3476991653442383 0.2975534498691559 0.5214259028434753
0.3016356825828552 0.3134724497795105 0.5816994905471802
0.40184512734413147 0.3136887550354004 0.5452078580856323
0.36172014474868774 0.3636838495731354 0.4129978120326996
0.30524447560310364 0.3659179210662842 0.42884624004364014
0.3949702978134155 0.36561959981918335 0.5999801754951477
0.4219297468662262 0.38649001717567444 0.5098229050636292
0.38347315788269043 0.29243266582489014 0.584825873374939
0.39314767718315125 0.3337049186229706 0.4430989921092987
0.3599987030029297 0.2760147154331207 0.48905789852142334
0.2700345516204834 0.29527735710144043 0.4001496136188507
0.3999828100204468 0.41860097646713257 0.4823715388774872
0.4213683009147644 0.3374171257019043 0.5663571953773499
0.2996487617492676 0.39252927899360657 0.5505633354187012
0.3621596395969391 0.28441107273101807 0.5958591103553772
0.4116765856742859 0.413110613822937 0.5166028738021851
0.32086363434791565 0.341241717338562 0.5982415676116943
0.3866634964942932 0.3663899898529053 0.5551368594169617
0.4413975477218628 0.3219073712825775 0.4041002094745636
0.2695735692977905 0.2439749389886856 0.5287946462631226
0.43050462007522583 0.3536864221096039 0.562004566192627
0.4060227870941162 0.32076865434646606 0.5020718574523926
0.29981210827827454 0.24706462025642395 0.5522668361663818
0.40258944034576416 0.31504788994789124 0.39505138993263245
0.31184521317481995 0.2861247956752777 0.5568677186965942
0.3683059513568878 0.2797352373600006 0.4958796203136444
0.2791769206523895 0.2970680594444275 0.47627633810043335
0.2964845299720764 0.41317692399024963 0.4009402096271515
0.4092501699924469 0.3621237277984619 0.5985414385795593
0.34155982732772827 0.3304274082183838 0.547438383102417
0.44174903631210327 0.3571714460849762 0.4313887059688568
0.3524666428565979 0.2934029698371887 0.6060239672660828
0.4222308397293091 0.3782891631126404 0.4804218113422394
0.28071659803390503 0.3775756061077118 0.4487850069999695
0.2607326805591583 0.26223161816596985 0.5128480195999146
0.36092936992645264 0.2890453636646271 0.5130603313446045
0.36809301376342773 0.2907108664512634 0.40730738639831543
0.40426233410835266 0.3577386140823364 0.46906721591949463
0.4324161112308502 0.3537714183330536 0.5169692635536194
0.3094084858894348 0.3056996166706085 0.42473453283309937
0.37490665912628174 0.28805434703826904 0.57846599817276
0.3079421818256378 0.29834243655204773 0.47145503759384155
0.30409616231918335 0.302859365940094 0.4491526484489441
0.32887616753578186 0.42318254709243774 0.5865820646286011
0.31259360909461975 0.27209505438804626 0.5533267259597778
0.42820993065834045 0.3107488751411438 0.4046655297279358
0.27654603123664856 0.3493526577949524 0.42923328280448914
0.4363793730735779 0.3200417757034302 0.4380849301815033
0.34337857365608215 0.3673560619354248 0.5521242022514343
0.39130279421806335 0.3538774251937866 0.5760622620582581
0.38052141666412354 0.31834498047828674 0.4543914198875427
0.2942724823951721 0.3339761793613434 0.5319392681121826
0.2740161418914795 0.4145961403846741 0.4439167082309723
0.4031813442707062 0.4126299023628235 0.43162021040916443
0.3744196891784668 0.32095059752464294 0.4225766658782959
0.3534664511680603 0.33757832646369934 0.4991004765033722
0.4255489408969879 0.40381091833114624 0.5860188007354736
0.38774314522743225 0.362127423286438 0.5079056620597839
0.26154574751853943 0.375168114900589 0.5923821330070496
0.34155982732772827 0.3304274082183838 0.547438383102417
0.44174903631210327 0.3571714460849762 0.4313887059688568
0.3524666428565979 0.2934029698371887 0.6060239672660828
0.4222308397293091 0.3782891631126404 0.4804218113422394
0.360443115234375 0.27878889441490173 0.5573066473007202
0.28071659803390503 0.3775756061077118 0.4487850069999695
0.2607326805591583 0.26223161816596985 0.5128480195999146
0.36092936992645264 0.2890453636646271 0.5130603313446045
0.36809301376342773 0.2907108664512634 0.40730738639831543
0.40426233410835266 0.3577386140823364 0.46906721591949463
0.4437048137187958 0.31746619939804077 0.4555839002132416
0.2649334967136383 0.3262554705142975 0.5163489580154419
0.3153753876686096 0.26901739835739136 0.4150477945804596
0.4177740514278412 0.3222450911998749 0.48578616976737976
0.3745473325252533 0.28290867805480957 0.48016124963760376
0.3668048679828644 0.3740394413471222 0.46405190229415894
0.2562181353569031 0.321097731590271 0.42696210741996765
0.31958696246147156 0.31848445534706116 0.46265164017677307
0.2952779531478882 0.320200651884079 0.4923836886882782
0.31656593084335327 0.41193801164627075 0.5001738667488098
0.287293940782547 0.31237274408340454 0.5651664733886719
0.34337857365608215 0.3673560619354248 0.5521242022514343
0.40905314683914185 0.3568611145019531 0.4137646555900574
0.25982749462127686 0.369510293006897 0.45501720905303955
0.28238481283187866 0.3353409767150879 0.4135601222515106
0.43615326285362244 0.4263147711753845 0.5258576273918152
0.32800042629241943 0.2711471915245056 0.5294172167778015
0.37053537368774414 0.3472770154476166 0.3957638442516327
0.2739623785018921 0.25818783044815063 0.5639665722846985
0.3041825592517853 0.3665027618408203 0.471054345369339
0.32907676696777344 0.2771507501602173 0.5219395756721497
0.3681076765060425 0.31007522344589233 0.5554092526435852
0.2879253625869751 0.25055843591690063 0.42811641097068787
0.3051106333732605 0.30801278352737427 0.4939165711402893
0.299382746219635 0.39336636662483215 0.4548192620277405
0.36988529562950134 0.3169749975204468 0.5606318712234497
0.35019606351852417 0.3033128082752228 0.486098051071167
0.3083740174770355 0.3369596600532532 0.45947444438934326
0.336966335773468 0.292975515127182 0.39626598358154297
0.27199968695640564 0.321056604385376 0.534535825252533
0.3692251145839691 0.39067918062210083 0.4298279583454132
0.26231810450553894 0.3070577383041382 0.5607482194900513
0.2597976326942444 0.32681623101234436 0.5867381691932678
0.4393700659275055 0.35471609234809875 0.4878864288330078
0.43854933977127075 0.3216741383075714 0.5596214532852173
0.4043979048728943 0.4257569909095764 0.4956527650356293
0.42070361971855164 0.33867377042770386 0.43162277340888977
0.3464576005935669 0.38021957874298096 0.4082639217376709
0.424459308385849 0.3091302812099457 0.45407232642173767
0.3150234818458557 0.26293039321899414 0.46091845631599426
0.2588830888271332 0.4039865732192993 0.44150081276893616
0.2589058578014374 0.4218931198120117 0.5805835127830505
0.37884530425071716 0.42538896203041077 0.4633296728134155
0.3211848735809326 0.41484275460243225 0.5593371987342834
0.2863830029964447 0.2989392876625061 0.5456071496009827
0.30151283740997314 0.32305818796157837 0.4473536014556885
0.43718838691711426 0.38826656341552734 0.579038679599762
0.3098689317703247 0.39202162623405457 0.5105172991752625
0.254904568195343 0.27337202429771423 0.5568758249282837
0.3040708601474762 0.32523873448371887 0.48400047421455383
0.26617705821990967 0.2656592130661011 0.4842657446861267
0.2684768736362457 0.26161032915115356 0.5452315807342529
0.2907702922821045 0.3234052062034607 0.5849971175193787
0.2692691683769226 0.32206228375434875 0.4506262540817261
0.32641512155532837 0.3357550799846649 0.39849746227264404
0.3042263090610504 0.3087286949157715 0.45740193128585815
0.39373624324798584 0.3297770023345947 0.6008176803588867
0.3706316351890564 0.31744927167892456 0.5975528955459595
0.4169905483722687 0.3254801034927368 0.5638890862464905
0.3628430962562561 0.3239016830921173 0.47429710626602173
0.4109424650669098 0.34758374094963074 0.3998039960861206
0.37987300753593445 0.308648020029068 0.510111391544342
0.3154221475124359 0.2967584729194641 0.5814398527145386
0.2950669825077057 0.2912670373916626 0.4527820348739624
0.35696691274642944 0.29761675000190735 0.5884882211685181
0.4247846305370331 0.32608863711357117 0.45530909299850464
0.41416096687316895 0.3033144772052765 0.42520779371261597
0.4026162028312683 0.3125220835208893 0.5636307001113892
0.35452011227607727 0.3502526581287384 0.49833396077156067
0.35052937269210815 0.3695871829986572 0.4827553331851959
0.42244845628738403 0.3748745024204254 0.5463748574256897
0.40845316648483276 0.3549605906009674 0.4024052917957306
0.35319870710372925 0.3660357892513275 0.46456512808799744
0.4407149851322174 0.4205987751483917 0.5643193125724792
0.33779892325401306 0.29193609952926636 0.4381762742996216
0.3158748745918274 0.3421366810798645 0.5223930478096008
0.38449352979660034 0.31367602944374084 0.5184718370437622
0.2863830029964447 0.2989392876625061 0.5456071496009827
0.30151283740997314 0.32305818796157837 0.4473536014556885
0.43718838691711426 0.38826656341552734 0.579038679599762
0.3098689317703247 0.39202162623405457 0.5105172991752625
0.254904568195343 0.27337202429771423 0.5568758249282837
0.3040708601474762 0.32523873448371887 0.48400047421455383
0.26617705821990967 0.2656592130661011 0.4842657446861267
0.40905314683914185 0.3568611145019531 0.4137646555900574
0.3940873146057129 0.3364698588848114 0.5187529921531677
0.4294552505016327 0.33642587065696716 0.564212441444397
0.2926456928253174 0.345771461725235 0.4538085460662842
0.35522228479385376 0.27604520320892334 0.5591649413108826
0.2713717520236969 0.29369184374809265 0.4666336476802826
0.37837305665016174 0.30513107776641846 0.48247671127319336
0.4450659155845642 0.36631056666374207 0.46100568771362305
0.41599854826927185 0.3649844825267792 0.5480395555496216
0.2677972614765167 0.22802332043647766 0.5705431699752808
0.4352525770664215 0.31994515657424927 0.3894355893135071
0.35926324129104614 0.3327999711036682 0.5572399497032166
0.43976983428001404 0.31998199224472046 0.4774805009365082
0.28165581822395325 0.3979443311691284 0.44899922609329224
0.40190714597702026 0.34411346912384033 0.5359749794006348
0.4456251859664917 0.4139453172683716 0.3980855345726013
0.2553035020828247 0.276515394449234 0.4765618145465851
0.41544681787490845 0.3028886020183563 0.5049575567245483
0.41672515869140625 0.30618682503700256 0.5082517266273499
0.28591006994247437 0.26417264342308044 0.5486457347869873
0.3766736090183258 0.31905484199523926 0.5629385709762573
0.438370019197464 0.40797463059425354 0.5028432011604309
0.4084870517253876 0.421436071395874 0.5128878355026245
0.439907044172287 0.3603263199329376 0.4598011374473572
0.43718838691711426 0.38826656341552734 0.579038679599762
0.3098689317703247 0.39202162623405457 0.5105172991752625
0.254904568195343 0.27337202429771423 0.5568758249282837
0.3040708601474762 0.32523873448371887 0.48400047421455383
0.26617705821990967 0.2656592130661011 0.4842657446861267
0.40905314683914185 0.3568611145019531 0.4137646555900574
0.3940873146057129 0.3364698588848114 0.5187529921531677
0.4294552505016327 0.33642587065696716 0.564212441444397
0.2926456928253174 0.345771461725235 0.4538085460662842
0.39621520042419434 0.38027963042259216 0.40431591868400574
0.3323702812194824 0.35372281074523926 0.5777871608734131
0.2954238951206207 0.25450947880744934 0.46561869978904724
0.3920159637928009 0.3721458911895752 0.5732437968254089
0.2920375168323517 0.369947612285614 0.4493856430053711
0.287045955657959 0.29268327355384827 0.40038514137268066
0.4459010362625122 0.4090064465999603 0.5546196103096008
0.4197211265563965 0.39017757773399353 0.4611210525035858
0.3056356608867645 0.24166733026504517 0.40939614176750183
0.31577205657958984 0.3533285856246948 0.5287685990333557
0.4044615924358368 0.30057382583618164 0.40863028168678284
0.3590088188648224 0.360145628452301 0.5727060437202454
0.4409239590167999 0.34733277559280396 0.5118904709815979
0.298942506313324 0.2911010980606079 0.6023180484771729
0.2865813374519348 0.25783485174179077 0.4801674783229828
0.3767242729663849 0.31692519783973694 0.48147648572921753
0.37600627541542053 0.2875606417655945 0.4632754921913147
0.2818659842014313 0.35861632227897644 0.5846024751663208
0.44474783539772034 0.3315802216529846 0.5887532830238342
0.38475489616394043 0.4142290949821472 0.4240414798259735
0.3981752097606659 0.31037476658821106 0.5403381586074829
0.2661612033843994 0.31190454959869385 0.5666337609291077
0.3599987030029297 0.2760147154331207 0.48905789852142334
0.254904568195343 0.27337202429771423 0.5568758249282837
0.3040708601474762 0.32523873448371887 0.48400047421455383
0.26617705821990967 0.2656592130661011 0.4842657446861267
0.40905314683914185 0.3568611145019531 0.4137646555900574
0.3940873146057129 0.3364698588848114 0.5187529921531677
0.4294552505016327 0.33642587065696716 0.564212441444397
0.2926456928253174 0.345771461725235 0.4538085460662842
0.39621520042419434 0.38027963042259216 0.40431591868400574
0.3323702812194824 0.35372281074523926 0.5777871608734131
0.2954238951206207 0.25450947880744934 0.46561869978904724
0.3920159637928009 0.3721458911895752 0.5732437968254089
0.2920375168323517 0.369947612285614 0.4493856430053711
0.34328049421310425 0.2988813519477844 0.5882675647735596
0.338484525680542 0.4132315218448639 0.5932939052581787
0.3924379348754883 0.33729004859924316 0.5489159226417542
0.3582654595375061 0.2872525751590729 0.45346298813819885
0.2748088538646698 0.34468889236450195 0.4638497829437256
0.28555700182914734 0.3379398584365845 0.554559588432312
0.4126817286014557 0.43024805188179016 0.4959569275379181
0.27140089869499207 0.3249903619289398 0.4586806297302246
0.36317121982574463 0.313061386346817 0.5666431784629822
0.34625327587127686 0.3076273798942566 0.5280782580375671
0.26594090461730957 0.3047112226486206 0.49387452006340027
0.43237975239753723 0.3855822682380676 0.4008001685142517
0.43248480558395386 0.3721708059310913 0.40515702962875366
0.29983118176460266 0.28747159242630005 0.5672553777694702
0.29433488845825195 0.3870300352573395 0.5464817881584167
0.40386778116226196 0.35707005858421326 0.5788683891296387
0.42692747712135315 0.33908212184906006 0.5031291842460632
0.3817237317562103 0.2962566912174225 0.5372136831283569
0.3317996561527252 0.41250553727149963 0.5496139526367188
0.4431590139865875 0.31474339962005615 0.5804017186164856
0.42806923389434814 0.4003625810146332 0.43100419640541077
0.3566410541534424 0.3363153636455536 0.5420300960540771
0.2659855782985687 0.38481032848358154 0.41926419734954834
0.2750949263572693 0.33260029554367065 0.4915792942047119
0.4356621205806732 0.33825230598449707 0.45992588996887207
0.4114479422569275 0.3374665379524231 0.3944740295410156
0.34242886304855347 0.37376296520233154 0.40540811419487
0.42987173795700073 0.3343660235404968 0.4465286433696747
0.26294419169425964 0.25173306465148926 0.5184038281440735
0.3910568952560425 0.3381896913051605 0.49225521087646484
0.3355148136615753 0.4016302525997162 0.570898711681366
0.380997896194458 0.3694329559803009 0.45214971899986267
0.27871420979499817 0.3721427321434021 0.47960519790649414
0.2741735875606537 0.25544965267181396 0.548965573310852
0.3612014353275299 0.32869142293930054 0.5921275019645691
0.31540486216545105 0.4223167896270752 0.5042973160743713
0.3335832357406616 0.2935374677181244 0.5730294585227966
0.3797149360179901 0.35953202843666077 0.5775140523910522
0.3950539529323578 0.3875679075717926 0.4658293128013611
0.36008813977241516 0.425587922334671 0.4869462549686432
0.2838786244392395 0.29886719584465027 0.48537105321884155
0.3151102066040039 0.25675731897354126 0.4064888060092926
0.29642608761787415 0.2759013772010803 0.49797123670578003
0.3653821349143982 0.35122594237327576 0.5003755688667297
0.44780588150024414 0.38168245553970337 0.45894908905029297
0.2520368695259094 0.2870942950248718 0.5886881351470947
0.438370019197464 0.40797463059425354 0.5028432011604309
0.4084870517253876 0.421436071395874 0.5128878355026245
0.2509250044822693 0.3490930497646332 0.5965951085090637
0.3208383619785309 0.3249676525592804 0.5054277181625366
0.25472113490104675 0.23823708295822144 0.5352693200111389
0.44067618250846863 0.3185080289840698 0.520382821559906
0.43718838691711426 0.38826656341552734 0.579038679599762
0.3098689317703247 0.39202162623405457 0.5105172991752625
0.254904568195343 0.27337202429771423 0.5568758249282837
0.3040708601474762 0.32523873448371887 0.48400047421455383
0.37796130776405334 0.28452426195144653 0.5081644654273987
0.34110352396965027 0.33675864338874817 0.40048274397850037
0.3069598972797394 0.41516587138175964 0.46851813793182373
0.3085614740848541 0.2889210879802704 0.4446052312850952
0.3950263559818268 0.3754703998565674 0.5855029225349426
0.36484986543655396 0.3221158981323242 0.4847615361213684
0.36034059524536133 0.28351855278015137 0.6035178303718567
0.4118707776069641 0.35606732964515686 0.5005814433097839
0.44687625765800476 0.3184605836868286 0.4297862648963928
0.3867054879665375 0.3213889002799988 0.577258825302124
0.27093690633773804 0.39631426334381104 0.41728293895721436
0.4242723286151886 0.3235514163970947 0.5400122404098511
0.2737828195095062 0.3088398575782776 0.40675267577171326
0.42869818210601807 0.3450404107570648 0.4909140169620514
0.3067517876625061 0.27141687273979187 0.4744928777217865
0.4325389564037323 0.3211282789707184 0.4167519211769104
0.28959739208221436 0.28280678391456604 0.5431544780731201
0.2517947554588318 0.24639274179935455 0.4615516662597656
0.34217339754104614 0.33824124932289124 0.4664725065231323
0.38069358468055725 0.4014846086502075 0.42057591676712036
0.29858601093292236 0.2730555236339569 0.42801788449287415
0.364348441362381 0.4099702537059784 0.5949597358703613
0.32598772644996643 0.2779892086982727 0.5344562530517578
0.2921425700187683 0.24016159772872925 0.5659269690513611
0.36317121982574463 0.313061386346817 0.5666431784629822
0.34625327587127686 0.3076273798942566 0.5280782580375671
0.26594090461730957 0.3047112226486206 0.49387452006340027
0.24429790675640106 0.31058672070503235 0.5025739073753357
0.38449352979660034 0.31367602944374084 0.5184718370437622
0.2863830029964447 0.2989392876625061 0.5456071496009827
0.30151283740997314 0.32305818796157837 0.4473536014556885
0.43718838691711426 0.38826656341552734 0.579038679599762
0.3927626609802246 0.3321485221385956 0.3928976058959961
0.39036285877227783 0.375750869512558 0.4908844232559204
0.40230104327201843 0.2969397306442261 0.4513710141181946
0.38083139061927795 0.3844904601573944 0.5685622692108154
0.3026765286922455 0.3398907482624054 0.4291982054710388
0.36870020627975464 0.3501787781715393 0.4059860110282898
0.41755008697509766 0.3379957973957062 0.4118826687335968
0.3247133195400238 0.3386092483997345 0.522120475769043
0.3736326992511749 0.3008933961391449 0.4795868992805481
0.279744029045105 0.2535572648048401 0.4777294397354126
0.2594994008541107 0.27172404527664185 0.5525765419006348
0.4340798854827881 0.373984158039093 0.43561938405036926
0.3734634220600128 0.4231095016002655 0.43396854400634766
0.378492146730423 0.28587207198143005 0.47485455870628357
0.2897358238697052 0.28991571068763733 0.5138366222381592
0.33454394340515137 0.3448364734649658 0.5434840321540833
0.2925011217594147 0.35580623149871826 0.4428694546222687
0.4402778148651123 0.3141615688800812 0.5255671143531799
0.3874666690826416 0.3121902346611023 0.490228533744812
0.43211814761161804 0.31689655780792236 0.4283853769302368
0.29196691513061523 0.28427377343177795 0.39803045988082886
0.3620857000350952 0.3363248407840729 0.5427057147026062
0.35030412673950195 0.3124014735221863 0.42164549231529236
0.4217516779899597 0.41417914628982544 0.4633808732032776
0.3572857081890106 0.39924249053001404 0.5757728815078735
0.2800149619579315 0.26710912585258484 0.4837104380130768
0.3375137150287628 0.27345138788223267 0.6046645045280457
0.3169398009777069 0.38167765736579895 0.5337046980857849
0.43718838691711426 0.38826656341552734 0.579038679599762
0.3098689317703247 0.39202162623405457 0.5105172991752625
0.254904568195343 0.27337202429771423 0.5568758249282837
0.3040708601474762 0.32523873448371887 0.48400047421455383
0.26617705821990967 0.2656592130661011 0.4842657446861267
0.40905314683914185 0.3568611145019531 0.4137646555900574
0.3940873146057129 0.3364698588848114 0.5187529921531677
0.4294552505016327 0.33642587065696716 0.564212441444397
0.2926456928253174 0.345771461725235 0.4538085460662842
0.39621520042419434 0.38027963042259216 0.40431591868400574
0.3323702812194824 0.35372281074523926 0.5777871608734131
0.2954238951206207 0.25450947880744934 0.46561869978904724
0.3920159637928009 0.3721458911895752 0.5732437968254089
0.2920375168323517 0.369947612285614 0.4493856430053711
0.287045955657959 0.29268327355384827 0.40038514137268066
0.2496468871831894 0.2528305947780609 0.4482012093067169
0.34328049421310425 0.2988813519477844 0.5882675647735596
0.3886531591415405 0.36775583028793335 0.44779324531555176
0.44272011518478394 0.34567514061927795 0.49598342180252075
0.44169485569000244 0.374247282743454 0.6026048064231873
0.3008636236190796 0.2678554952144623 0.5624006986618042
0.28718966245651245 0.2927854657173157 0.438243567943573
0.33929935097694397 0.35660266876220703 0.4088757634162903
0.3465471863746643 0.35333094000816345 0.46040913462638855
0.40895000100135803 0.3599102199077606 0.4124346375465393
0.34625327587127686 0.3076273798942566 0.5280782580375671
0.26594090461730957 0.3047112226486206 0.49387452006340027
0.43237975239753723 0.3855822682380676 0.4008001685142517
0.3931710124015808 0.4280666708946228 0.4654536843299866
0.27984851598739624 0.37556788325309753 0.4952861964702606
0.40465831756591797 0.3780859410762787 0.4284172058105469
0.4021332859992981 0.33495965600013733 0.5409554243087769
0.2920375168323517 0.369947612285614 0.4493856430053711
0.287045955657959 0.29268327355384827 0.40038514137268066
0.2496468871831894 0.2528305947780609 0.4482012093067169
0.34328049421310425 0.2988813519477844 0.5882675647735596
0.3886531591415405 0.36775583028793335 0.44779324531555176
0.44272011518478394 0.34567514061927795 0.49598342180252075
0.44169485569000244 0.374247282743454 0.6026048064231873
0.3008636236190796 0.2678554952144623 0.5624006986618042
0.28718966245651245 0.2927854657173157 0.438243567943573
0.33929935097694397 0.35660266876220703 0.4088757634162903
0.3465471863746643 0.35333094000816345 0.46040913462638855
0.3281276822090149 0.3495040237903595 0.4463699758052826
0.2685084044933319 0.2843150794506073 0.5166389346122742
0.29470735788345337 0.33562082052230835 0.5229787826538086
0.35341519117355347 0.2842389941215515 0.48684951663017273
0.2870425879955292 0.23655617237091064 0.5919800400733948
0.3711658716201782 0.321504682302475 0.5290987491607666
0.42099902033805847 0.3198472857475281 0.4250428080558777
0.2484590858221054 0.2963430881500244 0.4834820330142975
0.2720949351787567 0.2773149311542511 0.4712608754634857
0.33196914196014404 0.34166720509529114 0.47861769795417786
0.41278281807899475 0.43148717284202576 0.41402262449264526
0.260160893201828 0.37472614645957947 0.5093143582344055
0.3919302225112915 0.3581714928150177 0.5156632661819458
0.31537535786628723 0.41485071182250977 0.47326478362083435
0.3356090784072876 0.32424938678741455 0.5048563480377197
0.4156729280948639 0.3043704926967621 0.4369066655635834
0.4407999515533447 0.4315786361694336 0.41707131266593933
0.3500436842441559 0.3536967933177948 0.5209387540817261
0.4418748915195465 0.31966936588287354 0.48880961537361145
0.30993926525115967 0.315817654132843 0.547193706035614
0.4071473777294159 0.30825862288475037 0.5293130874633789
0.34732067584991455 0.2678947448730469 0.45384979248046875
0.32773929834365845 0.27878883481025696 0.5319197177886963
0.40651679039001465 0.31804272532463074 0.469015508890152
0.4079850912094116 0.3621085286140442 0.5226354002952576
0.2945125699043274 0.28847476840019226 0.4546263515949249
0.3457605242729187 0.279335618019104 0.41587767004966736
0.4377039670944214 0.3278094232082367 0.4390709400177002
0.26699912548065186 0.3704811632633209 0.572167158126831
0.3154374063014984 0.35257020592689514 0.5683102011680603
0.4236091077327728 0.36560288071632385 0.3960159122943878
0.38389432430267334 0.3445327877998352 0.5932029485702515
0.2599552869796753 0.4139845371246338 0.4436880648136139
0.3456038236618042 0.3440284729003906 0.4058617055416107
0.41882699728012085 0.3952033519744873 0.5684699416160583
0.4024398624897003 0.35814157128334045 0.4235755503177643
0.3609130382537842 0.3852626085281372 0.408904492855072
0.3659878373146057 0.2936161458492279 0.44895076751708984
0.32128286361694336 0.33656051754951477 0.5949857234954834
0.3731599748134613 0.41728538274765015 0.5941540598869324
0.32971811294555664 0.34805214405059814 0.48851829767227173
0.32228389382362366 0.374702513217926 0.39895498752593994
0.3001951277256012 0.4014785885810852 0.5369319319725037
0.2728957235813141 0.3295202851295471 0.4611416459083557
0.2968360185623169 0.3560645282268524 0.4493134617805481
0.2581745684146881 0.42106425762176514 0.48810794949531555
0.27889227867126465 0.4165940284729004 0.5275532007217407
0.2511957287788391 0.3646867573261261 0.43732500076293945
0.2807183265686035 0.39677998423576355 0.5985665917396545
0.38429537415504456 0.29404884576797485 0.4112800657749176
0.41420045495033264 0.39937567710876465 0.4610232710838318
0.2666713297367096 0.3532368838787079 0.5161082148551941
0.4242765009403229 0.3116645812988281 0.5834311842918396
0.3732832968235016 0.3375861644744873 0.5898087620735168
0.3740903437137604 0.31131041049957275 0.394855797290802
0.2705613374710083 0.3800470530986786 0.48530274629592896
0.3595437705516815 0.33854278922080994 0.6014755964279175
0.3079332709312439 0.25625526905059814 0.5902392268180847
0.4450314939022064 0.32249125838279724 0.5073872208595276
0.4277256429195404 0.34283706545829773 0.4547930359840393
0.3274814784526825 0.28623637557029724 0.41330137848854065
0.44170987606048584 0.4139234721660614 0.43328285217285156
0.28309571743011475 0.35344594717025757 0.4141158163547516
0.25942930579185486 0.4127938747406006 0.5190649628639221
0.2739521563053131 0.3831184208393097 0.5262550115585327
0.41450801491737366 0.3484099805355072 0.4694609045982361
0.28743454813957214 0.3757815957069397 0.4650164544582367
0.317344069480896 0.39091169834136963 0.4655868113040924
0.4322350025177002 0.32102271914482117 0.49729496240615845
0.39096248149871826 0.3900845944881439 0.5282894968986511
0.40444526076316833 0.3262096047401428 0.4162020981311798
0.36472323536872864 0.4190645217895508 0.42109858989715576
0.3877752721309662 0.423080176115036 0.5715370774269104
0.4228537976741791 0.41373583674430847 0.4309602379798889
0.37017229199409485 0.2961268723011017 0.5089863538742065
0.3339604437351227 0.2944783866405487 0.40516790747642517
0.3149358630180359 0.3939038813114166 0.4883675277233124
0.3110561966896057 0.30023252964019775 0.3990308344364166
0.3127102553844452 0.42434027791023254 0.5883972644805908
0.2948942482471466 0.3671724796295166 0.44699937105178833
0.3918294310569763 0.3262854814529419 0.5915522575378418
0.2582281529903412 0.41219183802604675 0.51893150806427
0.3786205053329468 0.33943334221839905 0.5091862678527832
0.3648620545864105 0.39401084184646606 0.4265660047531128
0.42244845628738403 0.3748745024204254 0.5463748574256897
0.2705613374710083 0.3800470530986786 0.48530274629592896
0.3595437705516815 0.33854278922080994 0.6014755964279175
0.3079332709312439 0.25625526905059814 0.5902392268180847
0.4450314939022064 0.32249125838279724 0.5073872208595276
0.4277256429195404 0.34283706545829773 0.4547930359840393
0.3274814784526825 0.28623637557029724 0.41330137848854065
0.44170987606048584 0.4139234721660614 0.43328285217285156
0.28309571743011475 0.35344594717025757 0.4141158163547516
0.25942930579185486 0.4127938747406006 0.5190649628639221
0.2739521563053131 0.3831184208393097 0.5262550115585327
0.41450801491737366 0.3484099805355072 0.4694609045982361
0.28743454813957214 0.3757815957069397 0.4650164544582367
0.317344069480896 0.39091169834136963 0.4655868113040924
0.3196054995059967 0.3589598536491394 0.5902050137519836
0.4053327441215515 0.32363030314445496 0.5746511816978455
0.2991321086883545 0.4127604365348816 0.4302704930305481
0.43008139729499817 0.35536786913871765 0.3934520483016968
0.32797130942344666 0.32321223616600037 0.568812370300293
0.26482221484184265 0.3138126730918884 0.5697193741798401
0.28837934136390686 0.40107476711273193 0.5821211934089661
0.3141379952430725 0.28618624806404114 0.42672598361968994
0.340544730424881 0.3242972493171692 0.4698730409145355
0.41695189476013184 0.3819316029548645 0.465034544467926
0.25316447019577026 0.30336353182792664 0.530541718006134
0.28631457686424255 0.29290011525154114 0.4138323664665222
0.4303469657897949 0.32401543855667114 0.6059055924415588
0.4262821674346924 0.4165458679199219 0.41266077756881714
0.3606359362602234 0.2950954735279083 0.6070038676261902
0.2948054373264313 0.2554614245891571 0.5804113149642944
0.3119361698627472 0.3852153718471527 0.5977470278739929
0.27775630354881287 0.23282544314861298 0.4987594783306122
0.3208383619785309 0.3249676525592804 0.5054277181625366
0.3817237317562103 0.2962566912174225 0.5372136831283569
0.3317996561527252 0.41250553727149963 0.5496139526367188
0.37302926182746887 0.40371274948120117 0.5136846899986267
0.39746975898742676 0.39327314496040344 0.49959036707878113
0.2851209044456482 0.40382441878318787 0.40191203355789185
0.3373589813709259 0.3318136930465698 0.4497236907482147
0.30671045184135437 0.39494186639785767 0.5203171372413635
0.3652779459953308 0.32191169261932373 0.488864541053772
0.27981022000312805 0.30075809359550476 0.5221230387687683
0.2875500023365021 0.2816298007965088 0.40704837441444397
0.3293091654777527 0.3319740295410156 0.5719558000564575
0.4141830503940582 0.38924840092658997 0.4929308593273163
0.26674750447273254 0.36298274993896484 0.46169161796569824
0.3799605071544647 0.38905930519104004 0.43536242842674255
0.251511812210083 0.2839631140232086 0.5658349990844727
0.29496973752975464 0.24429678916931152 0.42841097712516785
0.4258520305156708 0.36283570528030396 0.4807066321372986
0.37441229820251465 0.4012492001056671 0.5686607360839844
0.44578781723976135 0.32695645093917847 0.5708790421485901
0.36408984661102295 0.30561724305152893 0.4420754909515381
0.300193190574646 0.28073644638061523 0.47481611371040344
0.43993285298347473 0.32787951827049255 0.4533024728298187
0.4463050067424774 0.37237998843193054 0.5475440621376038
0.3961031436920166 0.42921432852745056 0.45990124344825745
0.26974040269851685 0.24386289715766907 0.416563481092453
0.40969178080558777 0.3764458894729614 0.4369261860847473
0.3863939046859741 0.38423869013786316 0.4152304232120514
0.40652933716773987 0.42895257472991943 0.46784844994544983
0.44317322969436646 0.41776034235954285 0.5894802212715149
0.3640087842941284 0.3744485676288605 0.6021822094917297
0.2950313985347748 0.24844346940517426 0.5754951238632202
0.36317121982574463 0.313061386346817 0.5666431784629822
0.30671045184135437 0.39494186639785767 0.5203171372413635
0.3652779459953308 0.32191169261932373 0.488864541053772
0.27981022000312805 0.30075809359550476 0.5221230387687683
0.2875500023365021 0.2816298007965088 0.40704837441444397
0.3293091654777527 0.3319740295410156 0.5719558000564575
0.4141830503940582 0.38924840092658997 0.4929308593273163
0.26674750447273254 0.36298274993896484 0.46169161796569824
0.3799605071544647 0.38905930519104004 0.43536242842674255
0.251511812210083 0.2839631140232086 0.5658349990844727
0.29496973752975464 0.24429678916931152 0.42841097712516785
0.4258520305156708 0.36283570528030396 0.4807066321372986
0.2949635088443756 0.32749783992767334 0.5723668932914734
0.38289085030555725 0.4268910586833954 0.3992137014865875
0.3418790400028229 0.35639968514442444 0.5520188212394714
0.25567567348480225 0.3407738506793976 0.4851066470146179
0.3265939950942993 0.2536354064941406 0.46867382526397705
0.3800468146800995 0.3654671013355255 0.47255152463912964
0.36698460578918457 0.3776895999908447 0.46214771270751953
0.31490185856819153 0.35096263885498047 0.5588497519493103
0.4127461016178131 0.3355264663696289 0.5119064450263977
0.4216853976249695 0.34084728360176086 0.5675607323646545
0.3542407155036926 0.33912891149520874 0.5241159796714783
0.3659965693950653 0.3228745758533478 0.4443080425262451
0.3186935782432556 0.38833537697792053 0.40246617794036865
0.29637399315834045 0.4120660722255707 0.44372478127479553
0.3128550052642822 0.40463635325431824 0.4183533787727356
0.2918413579463959 0.2364116609096527 0.4926510751247406
0.26299190521240234 0.24033159017562866 0.420392781496048
0.35347896814346313 0.3723129332065582 0.4718962013721466
0.4138835072517395 0.39599519968032837 0.47854745388031006
0.382298082113266 0.35061219334602356 0.5279979109764099
0.34625327587127686 0.3076273798942566 0.5280782580375671
0.2705613374710083 0.3800470530986786 0.48530274629592896
0.3595437705516815 0.33854278922080994 0.6014755964279175
0.3079332709312439 0.25625526905059814 0.5902392268180847
0.4450314939022064 0.32249125838279724 0.5073872208595276
0.4277256429195404 0.34283706545829773 0.4547930359840393
0.3274814784526825 0.28623637557029724 0.41330137848854065
0.44170987606048584 0.4139234721660614 0.43328285217285156
0.28309571743011475 0.35344594717025757 0.4141158163547516
0.25942930579185486 0.4127938747406006 0.5190649628639221
0.3948689103126526 0.30144813656806946 0.44165271520614624
0.31239205598831177 0.39756646752357483 0.44098812341690063
0.29950231313705444 0.36729729175567627 0.494499146938324
0.25010427832603455 0.37349438667297363 0.5175817608833313
0.2813345789909363 0.3953375816345215 0.44258779287338257
0.4171662926673889 0.30483484268188477 0.6070606112480164
0.38820451498031616 0.29002848267555237 0.4057997167110443
0.34590277075767517 0.27394920587539673 0.4323945939540863
0.27076536417007446 0.415250688791275 0.5189756751060486
0.34173694252967834 0.36894890666007996 0.5799944996833801
0.3477741479873657 0.2965238094329834 0.6020391583442688
0.26890164613723755 0.3054161071777344 0.5336059927940369
0.24835741519927979 0.30116337537765503 0.44988521933555603
0.28014588356018066 0.3148292899131775 0.5087313652038574
0.3158969283103943 0.37675800919532776 0.5143028497695923
0.39278918504714966 0.36497658491134644 0.5015156865119934
0.32269278168678284 0.4077994227409363 0.4097549617290497
0.26670289039611816 0.24679861962795258 0.49414533376693726
0.32312172651290894 0.3220641613006592 0.46073755621910095
0.4005149304866791 0.3458278477191925 0.4820985198020935
0.2492627054452896 0.2525818347930908 0.573599100112915
0.32635632157325745 0.3080967664718628 0.5540122985839844
0.34625327587127686 0.3076273798942566 0.5280782580375671
0.3817237317562103 0.2962566912174225 0.5372136831283569
0.3317996561527252 0.41250553727149963 0.5496139526367188
0.3869621753692627 0.3210912346839905 0.42686229944229126
0.3732832968235016 0.3375861644744873 0.5898087620735168
0.3740903437137604 0.31131041049957275 0.394855797290802
0.2705613374710083 0.3800470530986786 0.48530274629592896
0.3595437705516815 0.33854278922080994 0.6014755964279175
0.3079332709312439 0.25625526905059814 0.5902392268180847
0.4450314939022064 0.32249125838279724 0.5073872208595276
0.4277256429195404 0.34283706545829773 0.4547930359840393
0.3274814784526825 0.28623637557029724 0.41330137848854065
