ply
format ascii 1.0
element vertex 824
property float x
property float y
property float z
end_header
0.4756707549095154 0.3048657774925232 0.4271479547023773
0.4306952655315399 0.20850543677806854 0.5450656414031982
0.4232936203479767 0.216602623462677 0.48906853795051575
0.3664117753505707 0.19200699031352997 0.4619920551776886
0.5463409423828125 0.2892240881919861 0.43051743507385254
0.46591371297836304 0.27318263053894043 0.5253903269767761
0.4232936203479767 0.216602623462677 0.48906853795051575
0.3664117753505707 0.19200699031352997 0.4619920551776886
0.5463409423828125 0.2892240881919861 0.43051743507385254
0.4757901430130005 0.16648776829242706 0.5501130819320679
0.3810073137283325 0.24009393155574799 0.4896853268146515
0.524526834487915 0.24142473936080933 0.4847736954689026
0.37928876280784607 0.1699065864086151 0.5957283973693848
0.36179396510124207 0.18848258256912231 0.5387477874755859
0.37917107343673706 0.2123195230960846 0.582995593547821
0.3655024468898773 0.18110090494155884 0.5234531760215759
0.4960247576236725 0.2533438205718994 0.44237780570983887
0.5555847883224487 0.23578128218650818 0.5410758852958679
0.38051989674568176 0.13423562049865723 0.4605983793735504
0.5344988107681274 0.2669806480407715 0.5756890177726746
0.38988196849823 0.16827653348445892 0.4637985825538635
0.36949461698532104 0.20252740383148193 0.48940327763557434
0.4482102394104004 0.26768821477890015 0.45367199182510376
0.396612286567688 0.1925167590379715 0.4311428368091583
0.39590007066726685 0.21753732860088348 0.4286975562572479
0.5354658961296082 0.1842280924320221 0.41021618247032166
0.5394062399864197 0.2427467703819275 0.5885568261146545
0.40827351808547974 0.2363227903842926 0.5661441683769226
0.5076087713241577 0.22845524549484253 0.4066646695137024
0.41558149456977844 0.21599707007408142 0.4961337745189667
0.5486418008804321 0.28865790367126465 0.45831742882728577
0.46480780839920044 0.13592837750911713 0.5397992730140686
0.4326813817024231 0.27283263206481934 0.48690181970596313
0.46763908863067627 0.26591840386390686 0.443656325340271
0.45662420988082886 0.22101570665836334 0.540959358215332
0.5575363636016846 0.2076188325881958 0.562592089176178
0.389595627784729 0.22550499439239502 0.6087011694908142
0.401379257440567 0.20082217454910278 0.4626547694206238
0.5382643342018127 0.21583189070224762 0.4718249440193176
0.4205542206764221 0.21890296041965485 0.5400497913360596
0.45307841897010803 0.20295897126197815 0.5804808139801025
0.44901469349861145 0.2079654484987259 0.50249183177948
0.45173197984695435 0.28360360860824585 0.5563689470291138
0.5282576084136963 0.30468666553497314 0.45842742919921875
0.3872886300086975 0.2439621090888977 0.5009499788284302
0.4797285199165344 0.27501600980758667 0.6008513569831848
0.5064051151275635 0.2370566874742508 0.56995689868927
0.518831193447113 0.1945868879556656 0.5220843553543091
0.5427432060241699 0.16806021332740784 0.48790183663368225
0.38611388206481934 0.2211051732301712 0.44196751713752747
0.4924023449420929 0.1426321268081665 0.5175179243087769
0.5309236645698547 0.22584828734397888 0.4515775740146637
0.44560667872428894 0.237165629863739 0.4495050609111786
0.48525768518447876 0.25025656819343567 0.5749311447143555
0.47088098526000977 0.13979332149028778 0.5070899724960327
0.4297710955142975 0.1416841745376587 0.41274788975715637
0.36073848605155945 0.18899428844451904 0.5230441093444824
0.404628187417984 0.213573157787323 0.6106205582618713
0.45093733072280884 0.17487967014312744 0.5519384145736694
0.4178394377231598 0.18561771512031555 0.5914652943611145
0.4414544403553009 0.28071025013923645 0.47865697741508484
0.5044673085212708 0.21379029750823975 0.48033708333969116
0.5359383821487427 0.22284838557243347 0.42573320865631104
0.46604350209236145 0.24474956095218658 0.4597153961658478
0.40434154868125916 0.23174184560775757 0.501397967338562
0.4060109257698059 0.22469505667686462 0.4481125473976135
0.40985459089279175 0.2457302361726761 0.6030821800231934
0.42142727971076965 0.14014679193496704 0.5053685307502747
0.48747891187667847 0.24962331354618073 0.6032177805900574
0.43461233377456665 0.23469392955303192 0.5248567461967468
0.5045214295387268 0.20056334137916565 0.5583080053329468
0.5108698606491089 0.2328580766916275 0.42419496178627014
0.5223596096038818 0.13253210484981537 0.5817880630493164
0.45971202850341797 0.2392827719449997 0.47830474376678467
0.3931853473186493 0.19787472486495972 0.5573059320449829
0.44504937529563904 0.26597559452056885 0.4683491289615631
0.41622456908226013 0.22478905320167542 0.44500860571861267
0.5242145657539368 0.1851525455713272 0.5945290327072144
0.44375643134117126 0.24011212587356567 0.576137363910675
0.40489569306373596 0.16453617811203003 0.4397481083869934
0.4533601701259613 0.17498105764389038 0.42572084069252014
0.3877779543399811 0.14830727875232697 0.586344301700592
0.5037249326705933 0.19234541058540344 0.4600971043109894
0.3703254163265228 0.23525962233543396 0.5233545899391174
0.5024397373199463 0.25963258743286133 0.49730533361434937
0.5644857287406921 0.2526627779006958 0.43489667773246765
0.5005654692649841 0.2829846739768982 0.45297670364379883
0.4401792287826538 0.24322932958602905 0.4497436285018921
0.5166956782341003 0.2519034147262573 0.4945318102836609
0.4217986464500427 0.21603459119796753 0.5398643016815186
0.34820660948753357 0.12910470366477966 0.5923681855201721
0.49960631132125854 0.2251058965921402 0.526138186454773
0.39080047607421875 0.22949542105197906 0.4190245568752289
0.4560411274433136 0.17567335069179535 0.535580039024353
0.36768460273742676 0.21479561924934387 0.5090640187263489
0.3823888599872589 0.2455783188343048 0.43851515650749207
0.42958569526672363 0.20445339381694794 0.47511571645736694
0.40374279022216797 0.21863865852355957 0.5260756611824036
0.4273017942905426 0.13787291944026947 0.5298162698745728
0.4012972116470337 0.246274933218956 0.40402182936668396
0.5151663422584534 0.20243366062641144 0.41304266452789307
0.3951372504234314 0.17024806141853333 0.4104228913784027
0.481182336807251 0.3109433948993683 0.42435112595558167
0.46283993124961853 0.2765434682369232 0.4275422692298889
0.3810073137283325 0.24009393155574799 0.4896853268146515
0.524526834487915 0.24142473936080933 0.4847736954689026
0.37928876280784607 0.1699065864086151 0.5957283973693848
0.37917107343673706 0.2123195230960846 0.582995593547821
0.3655024468898773 0.18110090494155884 0.5234531760215759
0.5445128679275513 0.26365652680397034 0.4952385425567627
0.4960247576236725 0.2533438205718994 0.44237780570983887
0.5555847883224487 0.23578128218650818 0.5410758852958679
0.38051989674568176 0.13423562049865723 0.4605983793735504
0.5344988107681274 0.2669806480407715 0.5756890177726746
0.38988196849823 0.16827653348445892 0.4637985825538635
0.36949461698532104 0.20252740383148193 0.48940327763557434
0.396612286567688 0.1925167590379715 0.4311428368091583
0.39590007066726685 0.21753732860088348 0.4286975562572479
0.39220473170280457 0.242879718542099 0.5090317726135254
0.5354658961296082 0.1842280924320221 0.41021618247032166
0.5394062399864197 0.2427467703819275 0.5885568261146545
0.40827351808547974 0.2363227903842926 0.5661441683769226
0.5076087713241577 0.22845524549484253 0.4066646695137024
0.5486418008804321 0.28865790367126465 0.45831742882728577
0.46480780839920044 0.13592837750911713 0.5397992730140686
0.4326813817024231 0.27283263206481934 0.48690181970596313
0.46763908863067627 0.26591840386390686 0.443656325340271
0.46763908863067627 0.26591840386390686 0.443656325340271
0.45662420988082886 0.22101570665836334 0.540959358215332
0.5575363636016846 0.2076188325881958 0.562592089176178
0.39288631081581116 0.199883371591568 0.6047994494438171
0.389595627784729 0.22550499439239502 0.6087011694908142
0.4056989252567291 0.18423166871070862 0.5164440870285034
0.43534544110298157 0.20512554049491882 0.43862101435661316
0.34803614020347595 0.13568277657032013 0.4814503490924835
0.41707098484039307 0.1597662717103958 0.46171805262565613
0.4356399178504944 0.16555903851985931 0.4022079408168793
0.5114035606384277 0.24450185894966125 0.5302300453186035
0.4664238393306732 0.2714420557022095 0.5994309186935425
0.3600524365901947 0.18145237863063812 0.4742741584777832
0.4179669916629791 0.21966685354709625 0.397994726896286
0.4980466067790985 0.30959051847457886 0.5268858671188354
0.41842547059059143 0.12576326727867126 0.565880298614502
0.515090823173523 0.27409830689430237 0.45510563254356384
0.4048466086387634 0.17758381366729736 0.5708988904953003
0.5516891479492188 0.2513605058193207 0.4352639615535736
0.4118801951408386 0.21247555315494537 0.4681994318962097
0.49365317821502686 0.158331498503685 0.45857173204421997
0.3961275815963745 0.19150900840759277 0.5157838463783264
0.5180521607398987 0.2919265329837799 0.424934983253479
0.4998190104961395 0.17687681317329407 0.42423340678215027
0.4940195679664612 0.24785639345645905 0.42281877994537354
0.36897218227386475 0.17482192814350128 0.5978632569313049
0.5477307438850403 0.3429892361164093 0.44382303953170776
0.5483207106590271 0.334122896194458 0.4222828447818756
0.4625689387321472 0.23971113562583923 0.5011700987815857
0.4367201030254364 0.2433357834815979 0.46520912647247314
0.49213236570358276 0.30426573753356934 0.4037485718727112
0.3912189304828644 0.20402686297893524 0.5140263438224792
0.5057268142700195 0.3166130781173706 0.4190426766872406
0.40038394927978516 0.14999863505363464 0.5758016705513
0.5478782653808594 0.20544247329235077 0.444882869720459
0.3552013039588928 0.14393258094787598 0.4678143262863159
0.3751611113548279 0.19787727296352386 0.4190867841243744
0.36121004819869995 0.17926669120788574 0.4051637649536133
0.3951372504234314 0.17024806141853333 0.4104228913784027
0.42142727971076965 0.14014679193496704 0.5053685307502747
0.48747891187667847 0.24962331354618073 0.6032177805900574
0.5424599647521973 0.29008179903030396 0.5403417944908142
0.3660790026187897 0.13552062213420868 0.49447619915008545
0.43364062905311584 0.23727695643901825 0.5253534317016602
0.403272420167923 0.2551247477531433 0.471556156873703
0.5463011264801025 0.3166806995868683 0.5865346193313599
0.5441857576370239 0.26293709874153137 0.40445470809936523
0.48165950179100037 0.22889678180217743 0.565514087677002
0.538330078125 0.2259414941072464 0.4644275903701782
0.4521498680114746 0.28469082713127136 0.5164191722869873
0.3839534521102905 0.24104566872119904 0.4141959249973297
0.5318648219108582 0.3267233371734619 0.5043480396270752
0.45488059520721436 0.18026135861873627 0.5647867918014526
0.46860697865486145 0.16770894825458527 0.4692990779876709
0.42614293098449707 0.19620320200920105 0.5442866683006287
0.4416503608226776 0.21292006969451904 0.5783554911613464
0.5523485541343689 0.3278743028640747 0.4366275370121002
0.5504005551338196 0.213221475481987 0.43394729495048523
0.46143150329589844 0.13759677112102509 0.4849551320075989
0.4021768569946289 0.16136206686496735 0.532646656036377
0.5426456332206726 0.23686659336090088 0.5546291470527649
0.5149616599082947 0.32987260818481445 0.45423099398612976
0.4091019928455353 0.23164311051368713 0.4281727075576782
0.49996694922447205 0.1988333761692047 0.5998713970184326
0.39558979868888855 0.23084574937820435 0.600016176700592
0.4763912260532379 0.2140539288520813 0.507087230682373
0.4999333620071411 0.25581106543540955 0.40005114674568176
0.425670862197876 0.14925165474414825 0.5732690095901489
0.4393884241580963 0.20208102464675903 0.6035048365592957
0.3934437036514282 0.14606155455112457 0.5937677621841431
0.43732452392578125 0.2474050521850586 0.4936632513999939
0.45112374424934387 0.17239561676979065 0.5527743101119995
0.3887264132499695 0.16880787909030914 0.4047822058200836
0.49960631132125854 0.2251058965921402 0.526138186454773
0.4754464328289032 0.15829496085643768 0.5293079614639282
0.38882309198379517 0.2130739539861679 0.5261855721473694
0.3719295263290405 0.23883894085884094 0.5816614627838135
0.4724569618701935 0.24960502982139587 0.5323840975761414
0.5040189027786255 0.306427925825119 0.5455952286720276
0.38720980286598206 0.23542234301567078 0.589201033115387
0.4195084571838379 0.23571474850177765 0.4555148482322693
0.492612361907959 0.16982099413871765 0.3947809040546417
0.4687710106372833 0.21415796875953674 0.5026525259017944
0.49138015508651733 0.23587560653686523 0.5928549766540527
0.39779481291770935 0.14473222196102142 0.520550012588501
0.501861572265625 0.18726909160614014 0.40959814190864563
0.3978729844093323 0.2173692286014557 0.4809907376766205
0.507685124874115 0.29118242859840393 0.5573751330375671
0.5435377955436707 0.32719096541404724 0.4220440685749054
0.3820093870162964 0.22352421283721924 0.4012857675552368
0.5107874870300293 0.14660753309726715 0.47144046425819397
0.45643842220306396 0.20987090468406677 0.5440136194229126
0.4898744523525238 0.18608850240707397 0.4116574823856354
0.41280147433280945 0.2034590095281601 0.49510684609413147
0.36336082220077515 0.162920281291008 0.5567483901977539
0.4930894374847412 0.18832091987133026 0.41861221194267273
0.49735355377197266 0.1979822963476181 0.5971152186393738
0.42530322074890137 0.20054903626441956 0.5722895264625549
0.5547698736190796 0.21156294643878937 0.4922451972961426
0.4134781062602997 0.20550164580345154 0.4695540964603424
0.5370734333992004 0.19083887338638306 0.40926608443260193
0.5529415011405945 0.2643981873989105 0.4570973813533783
0.4227251410484314 0.2165338397026062 0.5708027482032776
0.37604549527168274 0.15062689781188965 0.563313364982605
0.5086736679077148 0.2786502242088318 0.43738695979118347
0.40802010893821716 0.183284193277359 0.5521069169044495
0.45971202850341797 0.2392827719449997 0.47830474376678467
0.3931853473186493 0.19787472486495972 0.5573059320449829
0.44504937529563904 0.26597559452056885 0.4683491289615631
0.41622456908226013 0.22478905320167542 0.44500860571861267
0.5242145657539368 0.1851525455713272 0.5945290327072144
0.44375643134117126 0.24011212587356567 0.576137363910675
0.40489569306373596 0.16453617811203003 0.4397481083869934
0.4533601701259613 0.17498105764389038 0.42572084069252014
0.3877779543399811 0.14830727875232697 0.586344301700592
0.5037249326705933 0.19234541058540344 0.4600971043109894
0.3703254163265228 0.23525962233543396 0.5233545899391174
0.5024397373199463 0.25963258743286133 0.49730533361434937
0.41597649455070496 0.17341384291648865 0.5167692303657532
0.38277289271354675 0.1838151067495346 0.597041130065918
0.5502607226371765 0.1590408831834793 0.4845629334449768
0.45112374424934387 0.17239561676979065 0.5527743101119995
0.3887264132499695 0.16880787909030914 0.4047822058200836
0.49960631132125854 0.2251058965921402 0.526138186454773
0.39080047607421875 0.22949542105197906 0.4190245568752289
0.4560411274433136 0.17567335069179535 0.535580039024353
0.36768460273742676 0.21479561924934387 0.5090640187263489
0.3823888599872589 0.2455783188343048 0.43851515650749207
0.42958569526672363 0.20445339381694794 0.47511571645736694
0.40374279022216797 0.21863865852355957 0.5260756611824036
0.4273017942905426 0.13787291944026947 0.5298162698745728
0.40574875473976135 0.144338458776474 0.4730917811393738
0.5044921636581421 0.32066547870635986 0.449248343706131
0.41452112793922424 0.24166043102741241 0.5973649621009827
0.5330564379692078 0.14793597161769867 0.49915704131126404
0.35264110565185547 0.16947080194950104 0.5134801268577576
0.5191317796707153 0.16748210787773132 0.43331897258758545
0.5326154828071594 0.2815656363964081 0.4752141833305359
0.42865803837776184 0.23171043395996094 0.5776623487472534
0.4621981680393219 0.20542682707309723 0.4495285153388977
0.5383632779121399 0.2540437579154968 0.505734384059906
0.5182238817214966 0.16644738614559174 0.44650596380233765
0.4266705811023712 0.17092113196849823 0.5856015682220459
0.37846484780311584 0.22627072036266327 0.4879321753978729
0.4883553087711334 0.16658656299114227 0.5358015298843384
0.46433109045028687 0.28543731570243835 0.6030375957489014
0.40005627274513245 0.23077714443206787 0.5252096056938171
0.4098399877548218 0.2569253742694855 0.4923499524593353
0.40005627274513245 0.23077714443206787 0.5252096056938171
0.4098399877548218 0.2569253742694855 0.4923499524593353
0.5443600416183472 0.28564295172691345 0.4471440613269806
0.5245691537857056 0.23900704085826874 0.4121318459510803
0.4499039649963379 0.23327510058879852 0.5078710317611694
0.37604549527168274 0.15062689781188965 0.563313364982605
0.396552175283432 0.2423548400402069 0.45014816522598267
0.5365161895751953 0.33519986271858215 0.49048954248428345
0.38734200596809387 0.22701828181743622 0.45995721220970154
0.360353946685791 0.19801418483257294 0.5002431273460388
0.45971202850341797 0.2392827719449997 0.47830474376678467
0.3931853473186493 0.19787472486495972 0.5573059320449829
0.44504937529563904 0.26597559452056885 0.4683491289615631
0.41622456908226013 0.22478905320167542 0.44500860571861267
0.5242145657539368 0.1851525455713272 0.5945290327072144
0.44375643134117126 0.24011212587356567 0.576137363910675
0.40489569306373596 0.16453617811203003 0.4397481083869934
0.4533601701259613 0.17498105764389038 0.42572084069252014
0.5018375515937805 0.17681823670864105 0.4848828911781311
0.3931853473186493 0.19787472486495972 0.5573059320449829
0.44504937529563904 0.26597559452056885 0.4683491289615631
0.41622456908226013 0.22478905320167542 0.44500860571861267
0.5242145657539368 0.1851525455713272 0.5945290327072144
0.44375643134117126 0.24011212587356567 0.576137363910675
0.40489569306373596 0.16453617811203003 0.4397481083869934
0.4533601701259613 0.17498105764389038 0.42572084069252014
0.3877779543399811 0.14830727875232697 0.586344301700592
0.5037249326705933 0.19234541058540344 0.4600971043109894
0.3703254163265228 0.23525962233543396 0.5233545899391174
0.5024397373199463 0.25963258743286133 0.49730533361434937
0.41597649455070496 0.17341384291648865 0.5167692303657532
0.38277289271354675 0.1838151067495346 0.597041130065918
0.5496432781219482 0.1566317081451416 0.5084549188613892
0.4835311472415924 0.2904176712036133 0.42908594012260437
0.43113061785697937 0.2538628876209259 0.4909157454967499
0.40860602259635925 0.14541132748126984 0.4459124505519867
0.43361541628837585 0.18016792833805084 0.5575394630432129
0.4765148460865021 0.23631830513477325 0.5042425990104675
0.36144697666168213 0.14455874264240265 0.4566856622695923
0.35848963260650635 0.176303431391716 0.510492742061615
0.5601686835289001 0.2113182097673416 0.4983088970184326
0.38609257340431213 0.23697850108146667 0.5917513966560364
0.40574875473976135 0.144338458776474 0.4730917811393738
0.4819239675998688 0.2502274513244629 0.48346978425979614
0.46945318579673767 0.24349261820316315 0.4631773829460144
0.41776055097579956 0.16245833039283752 0.5508076548576355
0.5268440842628479 0.2444346845149994 0.568933367729187
0.35544928908348083 0.14930883049964905 0.5030298233032227
0.5092155933380127 0.17327025532722473 0.45166894793510437
0.502437949180603 0.24840034544467926 0.43032145500183105
0.4849393963813782 0.2991352379322052 0.4824039936065674
0.46934792399406433 0.1794826090335846 0.5051541924476624
0.3893013000488281 0.2507844865322113 0.43919306993484497
0.3581784963607788 0.15492072701454163 0.5157012343406677
0.46354609727859497 0.29518255591392517 0.592229425907135
0.3877779543399811 0.14830727875232697 0.586344301700592
0.5037249326705933 0.19234541058540344 0.4600971043109894
0.3703254163265228 0.23525962233543396 0.5233545899391174
0.5024397373199463 0.25963258743286133 0.49730533361434937
0.41597649455070496 0.17341384291648865 0.5167692303657532
0.38277289271354675 0.1838151067495346 0.597041130065918
0.5502607226371765 0.1590408831834793 0.4845629334449768
0.45112374424934387 0.17239561676979065 0.5527743101119995
0.3887264132499695 0.16880787909030914 0.4047822058200836
0.49960631132125854 0.2251058965921402 0.526138186454773
0.39080047607421875 0.22949542105197906 0.4190245568752289
0.4560411274433136 0.17567335069179535 0.535580039024353
0.36768460273742676 0.21479561924934387 0.5090640187263489
0.3823888599872589 0.2455783188343048 0.43851515650749207
0.42958569526672363 0.20445339381694794 0.47511571645736694
0.5188037753105164 0.21180468797683716 0.4261135160923004
0.4793228507041931 0.2435702532529831 0.40205273032188416
0.37847816944122314 0.24345487356185913 0.5873807668685913
0.5495100617408752 0.27629321813583374 0.510404109954834
0.46443766355514526 0.21484626829624176 0.44756510853767395
0.5481202602386475 0.15423083305358887 0.4454541504383087
0.4715111255645752 0.2065758854150772 0.4389619529247284
0.5062539577484131 0.2893616259098053 0.5981777310371399
0.47453171014785767 0.18509086966514587 0.40373480319976807
0.4410371482372284 0.1735064834356308 0.5847169756889343
0.535527229309082 0.30111363530158997 0.5942063331604004
0.44378605484962463 0.24827507138252258 0.5500838160514832
0.3839845061302185 0.24806766211986542 0.6086888909339905
0.4842466711997986 0.17372015118598938 0.4984899163246155
0.5289129614830017 0.2782990634441376 0.41960182785987854
0.48781120777130127 0.2796955108642578 0.5481075644493103
0.44616246223449707 0.2529122233390808 0.5375798940658569
0.37683477997779846 0.16640862822532654 0.4526408016681671
0.4304147958755493 0.19822543859481812 0.5682026743888855
0.4837185740470886 0.16519342362880707 0.4811859428882599
0.5078744292259216 0.13509579002857208 0.5814367532730103
0.5356406569480896 0.3095202147960663 0.5483637452125549
0.37472742795944214 0.17047634720802307 0.4784662425518036
0.3705502450466156 0.23032070696353912 0.5678479075431824
0.3896005153656006 0.13376961648464203 0.504181444644928
0.47524476051330566 0.24512696266174316 0.5157036185264587
0.35264110565185547 0.16947080194950104 0.5134801268577576
0.5191317796707153 0.16748210787773132 0.43331897258758545
0.5326154828071594 0.2815656363964081 0.4752141833305359
0.42865803837776184 0.23171043395996094 0.5776623487472534
0.42865803837776184 0.23171043395996094 0.5776623487472534
0.4621981680393219 0.20542682707309723 0.4495285153388977
0.5383632779121399 0.2540437579154968 0.505734384059906
0.5182238817214966 0.16644738614559174 0.44650596380233765
0.38222211599349976 0.1625100076198578 0.5576574206352234
0.4266705811023712 0.17092113196849823 0.5856015682220459
0.37846484780311584 0.22627072036266327 0.4879321753978729
0.4883553087711334 0.16658656299114227 0.5358015298843384
0.46433109045028687 0.28543731570243835 0.6030375957489014
0.40005627274513245 0.23077714443206787 0.5252096056938171
0.4098399877548218 0.2569253742694855 0.4923499524593353
0.5443600416183472 0.28564295172691345 0.4471440613269806
0.5245691537857056 0.23900704085826874 0.4121318459510803
0.4499039649963379 0.23327510058879852 0.5078710317611694
0.44014737010002136 0.14674222469329834 0.5492377281188965
0.5523485541343689 0.3278743028640747 0.4366275370121002
0.5504005551338196 0.213221475481987 0.43394729495048523
0.3887264132499695 0.16880787909030914 0.4047822058200836
0.49960631132125854 0.2251058965921402 0.526138186454773
0.39080047607421875 0.22949542105197906 0.4190245568752289
0.4560411274433136 0.17567335069179535 0.535580039024353
0.41900041699409485 0.1530606895685196 0.5182358026504517
0.3972189128398895 0.1562717705965042 0.4589996039867401
0.4223252534866333 0.16480761766433716 0.5019732117652893
0.3686068058013916 0.17294228076934814 0.5030103921890259
0.42410773038864136 0.22106009721755981 0.5598936676979065
0.5452014207839966 0.2266262024641037 0.5095623731613159
0.43938446044921875 0.14054812490940094 0.5904204845428467
0.37806713581085205 0.21026486158370972 0.5921923518180847
0.5110586285591125 0.30128350853919983 0.5716809034347534
0.5197374820709229 0.23435726761817932 0.5514071583747864
0.5339518785476685 0.2238224446773529 0.4672594666481018
0.5255036950111389 0.19467568397521973 0.45320501923561096
0.49573609232902527 0.1354801207780838 0.5257754921913147
0.5183361172676086 0.1420402079820633 0.518305242061615
0.41004127264022827 0.25347277522087097 0.5082346796989441
0.5345028638839722 0.21131394803524017 0.4147564768791199
0.456198513507843 0.24211913347244263 0.5887579321861267
0.4001511335372925 0.17208418250083923 0.5099984407424927
0.4064352512359619 0.21634790301322937 0.4326670169830322
0.4668709635734558 0.23076863586902618 0.3979369103908539
0.5062991976737976 0.32622623443603516 0.523726224899292
0.5419571995735168 0.2005734145641327 0.4358697235584259
0.3720695376396179 0.23792387545108795 0.5520832538604736
0.516965389251709 0.14853878319263458 0.4733250141143799
0.3700009882450104 0.22013747692108154 0.4223286807537079
0.3660790026187897 0.13552062213420868 0.49447619915008545
0.49960631132125854 0.2251058965921402 0.526138186454773
0.39080047607421875 0.22949542105197906 0.4190245568752289
0.4560411274433136 0.17567335069179535 0.535580039024353
0.36768460273742676 0.21479561924934387 0.5090640187263489
0.3823888599872589 0.2455783188343048 0.43851515650749207
0.42958569526672363 0.20445339381694794 0.47511571645736694
0.5619373321533203 0.2576695382595062 0.5396624207496643
0.3678150475025177 0.19438722729682922 0.5659450888633728
0.4012972116470337 0.246274933218956 0.40402182936668396
0.39047691226005554 0.21178820729255676 0.5607447028160095
0.5320543646812439 0.33249688148498535 0.41297221183776855
0.4304628074169159 0.13247421383857727 0.5010757446289062
0.5408066511154175 0.2445666640996933 0.545934796333313
0.4397421181201935 0.17382901906967163 0.5956498980522156
0.5461078882217407 0.2253214418888092 0.4567115306854248
0.44815146923065186 0.2805388867855072 0.5898185968399048
0.5428422093391418 0.25166866183280945 0.45078781247138977
0.4891231656074524 0.19989359378814697 0.5297340154647827
0.41323158144950867 0.24754473567008972 0.46080437302589417
0.3829803168773651 0.20848596096038818 0.48934951424598694
0.5181688070297241 0.28896209597587585 0.5597392916679382
0.49908894300460815 0.23818941414356232 0.5661322474479675
0.37543565034866333 0.16754449903964996 0.3967666029930115
0.5052577257156372 0.2888242304325104 0.5963054299354553
0.5494058132171631 0.23647229373455048 0.4654806852340698
0.4520169496536255 0.27102288603782654 0.6147257089614868
0.5273558497428894 0.3119265139102936 0.5616748929023743
0.5401067137718201 0.25206270813941956 0.4277590811252594
0.4050697684288025 0.17247772216796875 0.4705319106578827
0.43473154306411743 0.14040419459342957 0.4357038736343384
0.37281185388565063 0.21266107261180878 0.4822489619255066
0.5519329309463501 0.3245200514793396 0.5216960906982422
0.4972136616706848 0.2846325635910034 0.49986517429351807
0.5457527041435242 0.27434051036834717 0.5879141092300415
0.47147274017333984 0.25824394822120667 0.5917733907699585
0.3725813031196594 0.23603098094463348 0.4882044792175293
0.399166464805603 0.16585314273834229 0.5312644243240356
0.49257031083106995 0.2915509045124054 0.4104095697402954
0.42410773038864136 0.22106009721755981 0.5598936676979065
0.5452014207839966 0.2266262024641037 0.5095623731613159
0.43938446044921875 0.14054812490940094 0.5904204845428467
0.37806713581085205 0.21026486158370972 0.5921923518180847
0.5110586285591125 0.30128350853919983 0.5716809034347534
0.5197374820709229 0.23435726761817932 0.5514071583747864
0.4497060179710388 0.26859718561172485 0.5177038311958313
0.4386516809463501 0.21753628551959991 0.4277251660823822
0.5327528119087219 0.3364035189151764 0.440570592880249
0.5344191193580627 0.210548996925354 0.5645331144332886
0.49372443556785583 0.22693492472171783 0.48788145184516907
0.5348467230796814 0.27115651965141296 0.49583688378334045
0.5071719288825989 0.18493331968784332 0.5717935562133789
0.45470163226127625 0.1824871152639389 0.48257261514663696
0.49578461050987244 0.24409839510917664 0.48991402983665466
0.4100287854671478 0.22102323174476624 0.5992270112037659
0.4732409417629242 0.3060527741909027 0.5122264623641968
0.37587830424308777 0.22816210985183716 0.41172707080841064
0.5024292469024658 0.3097870945930481 0.597578763961792
0.5417592525482178 0.31241124868392944 0.5130709409713745
0.38637489080429077 0.16143205761909485 0.48498600721359253
0.4852908253669739 0.1906711757183075 0.5516651272773743
0.5181883573532104 0.18076930940151215 0.5077186226844788
0.5454418063163757 0.33276331424713135 0.5439068078994751
0.5241219997406006 0.1533948928117752 0.45591020584106445
0.37846484780311584 0.22627072036266327 0.4879321753978729
0.44912800192832947 0.17058715224266052 0.5543467998504639
0.44847023487091064 0.22832877933979034 0.4659155309200287
0.3781217634677887 0.22862087190151215 0.4122169017791748
0.5397872924804688 0.15190856158733368 0.43582549691200256
0.3836483359336853 0.24264317750930786 0.39849355816841125
0.4017907679080963 0.1946520358324051 0.40735748410224915
0.5558756589889526 0.27280792593955994 0.5483368635177612
0.4222475588321686 0.25410857796669006 0.6029043793678284
0.36921003460884094 0.17831967771053314 0.5711764693260193
0.5483353137969971 0.20284035801887512 0.4026934802532196
0.5160977244377136 0.16420194506645203 0.5163296461105347
0.5478585958480835 0.29348140954971313 0.5701761841773987
0.36271020770072937 0.13120286166667938 0.5087751746177673
0.5409127473831177 0.3297896385192871 0.5811507701873779
0.4268510341644287 0.201348677277565 0.5862012505531311
0.47004303336143494 0.3016589879989624 0.40354159474372864
0.49095332622528076 0.2627532482147217 0.4294046461582184
0.42670100927352905 0.23702818155288696 0.5032088756561279
0.5483899116516113 0.14615055918693542 0.5442741513252258
0.4035196602344513 0.17643634974956512 0.4630196988582611
0.4094305634498596 0.22387664020061493 0.4780314266681671
0.45678940415382385 0.25211066007614136 0.6111388206481934
0.5049771070480347 0.23399393260478973 0.587492048740387
0.4565514326095581 0.1750992089509964 0.5777520537376404
0.3835282623767853 0.16271036863327026 0.45037946105003357
0.44796285033226013 0.27234745025634766 0.4030996561050415
0.44251197576522827 0.20815885066986084 0.5709347128868103
0.42624521255493164 0.21958093345165253 0.4700349271297455
0.47668200731277466 0.26662561297416687 0.4438720941543579
0.4331602156162262 0.2533564567565918 0.5793305039405823
0.3932132422924042 0.20432929694652557 0.5642538666725159
0.396552175283432 0.2423548400402069 0.45014816522598267
0.36768460273742676 0.21479561924934387 0.5090640187263489
0.3823888599872589 0.2455783188343048 0.43851515650749207
0.42958569526672363 0.20445339381694794 0.47511571645736694
0.40374279022216797 0.21863865852355957 0.5260756611824036
0.4273017942905426 0.13787291944026947 0.5298162698745728
0.40574875473976135 0.144338458776474 0.4730917811393738
0.5044921636581421 0.32066547870635986 0.449248343706131
0.41452112793922424 0.24166043102741241 0.5973649621009827
0.35420283675193787 0.17094385623931885 0.5287134051322937
0.4557904899120331 0.2609333395957947 0.5094042420387268
0.5108769536018372 0.23460420966148376 0.3966975808143616
0.46618738770484924 0.1827784776687622 0.4156836271286011
0.5031217336654663 0.2458750307559967 0.46143072843551636
0.486682653427124 0.18153154850006104 0.5834733843803406
0.5373741388320923 0.2479109764099121 0.5741230845451355
0.5168822407722473 0.2567809820175171 0.39956071972846985
0.46878325939178467 0.22846676409244537 0.5458029508590698
0.5408867597579956 0.3290781080722809 0.4777854084968567
0.45078831911087036 0.2816675305366516 0.538812518119812
0.4779379963874817 0.2860001027584076 0.5473487377166748
0.4263649880886078 0.2520809769630432 0.48451510071754456
0.5473335981369019 0.2895811200141907 0.407630056142807
0.4590407907962799 0.19015569984912872 0.5267175436019897
0.5515987277030945 0.33196547627449036 0.43602100014686584
0.5163493752479553 0.3069380521774292 0.5952732563018799
0.47809600830078125 0.16287221014499664 0.44147199392318726
0.3815162479877472 0.1683061420917511 0.4330625534057617
0.44484564661979675 0.13800972700119019 0.4500667452812195
0.42180997133255005 0.21084211766719818 0.4907926023006439
0.4840562343597412 0.1393861621618271 0.5863048434257507
0.38652464747428894 0.2100416123867035 0.4874766170978546
0.5024397373199463 0.25963258743286133 0.49730533361434937
0.36768460273742676 0.21479561924934387 0.5090640187263489
0.3823888599872589 0.2455783188343048 0.43851515650749207
0.42958569526672363 0.20445339381694794 0.47511571645736694
0.40374279022216797 0.21863865852355957 0.5260756611824036
0.4273017942905426 0.13787291944026947 0.5298162698745728
0.40574875473976135 0.144338458776474 0.4730917811393738
0.5044921636581421 0.32066547870635986 0.449248343706131
0.41452112793922424 0.24166043102741241 0.5973649621009827
0.35420283675193787 0.17094385623931885 0.5287134051322937
0.4557904899120331 0.2609333395957947 0.5094042420387268
0.5108769536018372 0.23460420966148376 0.3966975808143616
0.46618738770484924 0.1827784776687622 0.4156836271286011
0.5031217336654663 0.2458750307559967 0.46143072843551636
0.48996028304100037 0.1767844408750534 0.5728931427001953
0.442413866519928 0.2288762927055359 0.4760695993900299
0.5103614330291748 0.25075528025627136 0.5790412425994873
0.5366551876068115 0.3119555115699768 0.5695981383323669
0.48658812046051025 0.2545371353626251 0.4491320550441742
0.39737558364868164 0.22202244400978088 0.43298521637916565
0.36680254340171814 0.2045004814863205 0.5759154558181763
0.40472283959388733 0.2399335652589798 0.5395548343658447
0.3929881751537323 0.23364196717739105 0.5237882137298584
0.36464473605155945 0.14688889682292938 0.46806374192237854
0.3605120778083801 0.13638141751289368 0.5535963177680969
0.3863859474658966 0.15561221539974213 0.49119681119918823
0.38239753246307373 0.23285825550556183 0.5669837594032288
0.3732713758945465 0.22354547679424286 0.4611632227897644
0.4070350229740143 0.16836053133010864 0.4532952308654785
0.47211790084838867 0.1701374053955078 0.3913005590438843
0.3890131711959839 0.2476135939359665 0.42700403928756714
0.42855483293533325 0.24704459309577942 0.44011199474334717
0.3689812123775482 0.14224231243133545 0.4898642897605896
0.5371676087379456 0.2775646150112152 0.42937445640563965
0.5359724164009094 0.2742500305175781 0.42220208048820496
0.49334457516670227 0.24146632850170135 0.4858885407447815
0.4397421181201935 0.17382901906967163 0.5956498980522156
0.5461078882217407 0.2253214418888092 0.4567115306854248
0.44815146923065186 0.2805388867855072 0.5898185968399048
0.5428422093391418 0.25166866183280945 0.45078781247138977
0.42066216468811035 0.24020545184612274 0.4392611086368561
0.5064845085144043 0.2518206536769867 0.5475589036941528
0.49908894300460815 0.23818941414356232 0.5661322474479675
0.37543565034866333 0.16754449903964996 0.3967666029930115
0.5211365818977356 0.25993651151657104 0.5160968899726868
0.5494058132171631 0.23647229373455048 0.4654806852340698
0.5315946340560913 0.19675986468791962 0.4608083665370941
0.5401067137718201 0.25206270813941956 0.4277590811252594
0.3637475371360779 0.20536553859710693 0.42164257168769836
0.36918768286705017 0.1853792816400528 0.44488438963890076
0.42382821440696716 0.2660163640975952 0.4384591281414032
0.40618252754211426 0.20245517790317535 0.41793131828308105
0.5241184234619141 0.23599815368652344 0.4219433665275574
0.5308109521865845 0.16334238648414612 0.5597363710403442
0.524583101272583 0.16693992912769318 0.5751888751983643
0.5551507472991943 0.30328187346458435 0.49033689498901367
0.42011499404907227 0.23864541947841644 0.5888150334358215
0.3930302560329437 0.15403874218463898 0.44023600220680237
0.5096449851989746 0.19582797586917877 0.5337204933166504
0.38351085782051086 0.1622847318649292 0.42743441462516785
0.42257100343704224 0.2592146694660187 0.4183137118816376
0.37488627433776855 0.16822019219398499 0.59853595495224
0.39740467071533203 0.2542969286441803 0.46013155579566956
0.4708184003829956 0.2866572439670563 0.47821739315986633
0.40025585889816284 0.22997547686100006 0.5145832300186157
0.49272024631500244 0.16641764342784882 0.41436100006103516
0.3607226014137268 0.1901826709508896 0.43514886498451233
0.558643639087677 0.28836730122566223 0.4848446547985077
0.4656277000904083 0.22059279680252075 0.5535609126091003
0.37771105766296387 0.24369245767593384 0.5477967262268066
0.44910377264022827 0.2123827040195465 0.39725491404533386
0.5184219479560852 0.15122322738170624 0.4919235408306122
0.5372397899627686 0.14912942051887512 0.5109109282493591
0.5211507678031921 0.18981406092643738 0.43873119354248047
0.5231412053108215 0.2032119482755661 0.45881596207618713
0.38351085782051086 0.1622847318649292 0.42743441462516785
0.42257100343704224 0.2592146694660187 0.4183137118816376
0.37488627433776855 0.16822019219398499 0.59853595495224
0.4276520609855652 0.1878659427165985 0.5229289531707764
0.39740467071533203 0.2542969286441803 0.46013155579566956
0.4708184003829956 0.2866572439670563 0.47821739315986633
0.49208998680114746 0.14904512465000153 0.4591367244720459
0.49300602078437805 0.25270015001296997 0.4433355927467346
0.37464696168899536 0.23186704516410828 0.5305610299110413
0.38921812176704407 0.150152325630188 0.43760401010513306
0.4662298262119293 0.20287814736366272 0.5990254878997803
0.3582007586956024 0.1635996252298355 0.5834808349609375
0.5135028958320618 0.3227151930332184 0.5119718313217163
0.5183087587356567 0.22826366126537323 0.5524857640266418
0.43913519382476807 0.2340792864561081 0.5879220366477966
0.3908352553844452 0.13830016553401947 0.5370855927467346
0.4535399377346039 0.1340765655040741 0.5381106734275818
0.5168468952178955 0.16664716601371765 0.45083653926849365
0.5375698804855347 0.20511405169963837 0.532699465751648
0.5416674017906189 0.20202310383319855 0.42506611347198486
0.37681087851524353 0.19176127016544342 0.5134140849113464
0.4014260172843933 0.24427376687526703 0.6077172756195068
0.38637489080429077 0.16143205761909485 0.48498600721359253
0.47678816318511963 0.22904321551322937 0.441192626953125
0.37739479541778564 0.23330345749855042 0.46827343106269836
0.49932608008384705 0.20858381688594818 0.5583893656730652
0.37353768944740295 0.16117121279239655 0.46174225211143494
0.3876180648803711 0.18112090229988098 0.46827468276023865
0.3617123067378998 0.1783606857061386 0.4701375961303711
0.40576979517936707 0.2566254734992981 0.44024503231048584
0.5257990956306458 0.27524280548095703 0.5072997808456421
0.393646240234375 0.21500444412231445 0.44034457206726074
0.5515601634979248 0.19543755054473877 0.4993395507335663
0.44608601927757263 0.24063919484615326 0.6022992730140686
0.5146303772926331 0.2857682406902313 0.5797345638275146
0.4961758852005005 0.20007763803005219 0.5030521154403687
0.4115624725818634 0.17759524285793304 0.5511705875396729
0.43701261281967163 0.23504483699798584 0.5522753000259399
0.4245707094669342 0.21203841269016266 0.5071560740470886
0.36248674988746643 0.1557484120130539 0.49055710434913635
0.3851970136165619 0.23957118391990662 0.5872820019721985
0.3764150142669678 0.20272259414196014 0.4064789414405823
0.42668724060058594 0.22084537148475647 0.5854469537734985
0.5073434114456177 0.2874695062637329 0.43867021799087524
0.5326858162879944 0.19327226281166077 0.442933589220047
0.37577974796295166 0.24186567962169647 0.5422778129577637
0.5494217872619629 0.24750782549381256 0.4159397780895233
0.3613896071910858 0.12974417209625244 0.5594768524169922
0.5073133707046509 0.3288458585739136 0.44789326190948486
0.37747839093208313 0.23497387766838074 0.5850487947463989
0.4484950006008148 0.22788909077644348 0.3968387842178345
0.3806268572807312 0.16705793142318726 0.4519934058189392
0.4195477366447449 0.22325921058654785 0.4111218750476837
0.37281185388565063 0.21266107261180878 0.4822489619255066
0.5184219479560852 0.15122322738170624 0.4919235408306122
0.5513036251068115 0.30286046862602234 0.579138457775116
0.40640789270401 0.20670151710510254 0.5212220549583435
0.3713397979736328 0.23497454822063446 0.477705717086792
0.39695870876312256 0.14044860005378723 0.5682008862495422
0.45472535490989685 0.15992869436740875 0.4771735370159149
0.5459281802177429 0.18564806878566742 0.44778040051460266
0.38976234197616577 0.18274961411952972 0.45857006311416626
0.38732248544692993 0.18032893538475037 0.4805901050567627
0.4380980134010315 0.16173146665096283 0.40173494815826416
0.5105406045913696 0.22487707436084747 0.4203982651233673
0.5394947528839111 0.263304203748703 0.41639453172683716
0.5092136859893799 0.27872195839881897 0.5195934772491455
0.4662298262119293 0.20287814736366272 0.5990254878997803
0.3582007586956024 0.1635996252298355 0.5834808349609375
0.5135028958320618 0.3227151930332184 0.5119718313217163
0.5183087587356567 0.22826366126537323 0.5524857640266418
0.43913519382476807 0.2340792864561081 0.5879220366477966
0.3908352553844452 0.13830016553401947 0.5370855927467346
0.4535399377346039 0.1340765655040741 0.5381106734275818
0.5168468952178955 0.16664716601371765 0.45083653926849365
0.5272712707519531 0.21910960972309113 0.5212487578392029
0.5289556384086609 0.23953494429588318 0.4098530411720276
0.3985386788845062 0.23730389773845673 0.5239490866661072
0.4617483913898468 0.24098128080368042 0.41904887557029724
0.5413484573364258 0.3306621313095093 0.5600740313529968
0.41803693771362305 0.15715591609477997 0.5181592106819153
0.452636182308197 0.18503840267658234 0.575009286403656
0.4897273778915405 0.2069370597600937 0.43054819107055664
0.47176218032836914 0.192286878824234 0.46231597661972046
0.3562103807926178 0.16379445791244507 0.45150285959243774
0.38637489080429077 0.16143205761909485 0.48498600721359253
0.47678816318511963 0.22904321551322937 0.441192626953125
0.37739479541778564 0.23330345749855042 0.46827343106269836
0.49932608008384705 0.20858381688594818 0.5583893656730652
0.37353768944740295 0.16117121279239655 0.46174225211143494
0.3876180648803711 0.18112090229988098 0.46827468276023865
0.3617123067378998 0.1783606857061386 0.4701375961303711
0.4364013373851776 0.25785812735557556 0.6021769642829895
0.4520411789417267 0.20270657539367676 0.555644690990448
0.3724443316459656 0.15682046115398407 0.5254989266395569
0.38239794969558716 0.22982728481292725 0.6111486554145813
0.4006120562553406 0.24826723337173462 0.43952590227127075
0.4429887533187866 0.2637631595134735 0.5377401113510132
0.43794023990631104 0.22656860947608948 0.5541098713874817
0.4594186842441559 0.2673604488372803 0.5492457747459412
0.3941521942615509 0.19747796654701233 0.4324125051498413
0.5246353149414062 0.32148945331573486 0.41962194442749023
0.4636938273906708 0.2878212630748749 0.6009534597396851
0.5513045191764832 0.18587957322597504 0.5460363626480103
0.5013715624809265 0.23617911338806152 0.5070747137069702
0.42668724060058594 0.22084537148475647 0.5854469537734985
0.5232453346252441 0.2727309763431549 0.5386550426483154
0.5067750215530396 0.28791511058807373 0.4394121766090393
0.5342492461204529 0.2029314637184143 0.48080188035964966
0.39102742075920105 0.23029875755310059 0.40902209281921387
0.4580862522125244 0.1487232744693756 0.45652100443840027
0.377903550863266 0.22133977711200714 0.42556992173194885
0.4859011471271515 0.21366064250469208 0.5862921476364136
0.5223442316055298 0.28051668405532837 0.5340365767478943
0.46757325530052185 0.25419145822525024 0.41380172967910767
0.5430474281311035 0.15252342820167542 0.49825483560562134
0.5497225522994995 0.21947230398654938 0.4343757927417755
0.38637489080429077 0.16143205761909485 0.48498600721359253
0.3764150142669678 0.20272259414196014 0.4064789414405823
0.4861900508403778 0.2296331226825714 0.4821985065937042
0.37217745184898376 0.23063725233078003 0.5901046991348267
0.5031735301017761 0.23349934816360474 0.5821550488471985
0.3774539530277252 0.14695750176906586 0.4966045618057251
0.4382799565792084 0.26211678981781006 0.5163915157318115
0.42937585711479187 0.2433977872133255 0.4807017743587494
0.4991123378276825 0.19957877695560455 0.5481489896774292
0.42891016602516174 0.26581528782844543 0.5140718817710876
0.5007368922233582 0.24282100796699524 0.5247747302055359
0.5009182691574097 0.16735967993736267 0.5012983679771423
0.48481810092926025 0.18598948419094086 0.4063083529472351
0.5555494427680969 0.2967478036880493 0.4435878098011017
0.4308091402053833 0.2319437563419342 0.566401481628418
0.546254575252533 0.24064059555530548 0.506791889667511
0.4818287193775177 0.19265568256378174 0.4837852120399475
0.4725598096847534 0.2508016526699066 0.5729591250419617
0.4757714867591858 0.28861185908317566 0.5470505952835083
0.45281586050987244 0.18931445479393005 0.5970227718353271
0.4050256609916687 0.24714446067810059 0.5994626879692078
0.37685173749923706 0.15929414331912994 0.4382946193218231
0.40717813372612 0.24317215383052826 0.45795631408691406
0.46395164728164673 0.24885785579681396 0.6067671179771423
0.4038418233394623 0.15144357085227966 0.4322524070739746
0.4077010452747345 0.24423234164714813 0.61061692237854
0.5176088809967041 0.15856990218162537 0.47936683893203735
0.3755645751953125 0.178824782371521 0.48611289262771606
0.36227694153785706 0.14478303492069244 0.5505456924438477
0.5151785016059875 0.19516578316688538 0.5420474410057068
0.5641266107559204 0.285246878862381 0.4350420832633972
0.5037859678268433 0.32995539903640747 0.4534940719604492
0.5241184234619141 0.23599815368652344 0.4219433665275574
0.5593916177749634 0.28402361273765564 0.42099010944366455
0.5382120609283447 0.20866216719150543 0.4111686944961548
0.4520110785961151 0.2789084315299988 0.5236576795578003
0.5325496196746826 0.2719525694847107 0.4579605758190155
0.41731780767440796 0.17235639691352844 0.4026196599006653
0.3868634104728699 0.14293944835662842 0.5479456186294556
0.4289763271808624 0.15539738535881042 0.5582751035690308
0.47149842977523804 0.26341676712036133 0.4044899344444275
0.3886197507381439 0.13493135571479797 0.548189640045166
0.3992718458175659 0.1957838386297226 0.5576035976409912
0.50188148021698 0.28635933995246887 0.5217105150222778
0.4894047677516937 0.2506978511810303 0.5297138094902039
0.4095296859741211 0.15700815618038177 0.4557882845401764
0.38123512268066406 0.207335963845253 0.468803346157074
0.532355785369873 0.2957005500793457 0.5746068954467773
0.5257081389427185 0.3211069405078888 0.5190699696540833
0.454107403755188 0.17954705655574799 0.44102439284324646
0.5174088478088379 0.24340884387493134 0.4255532920360565
0.42103704810142517 0.18949668109416962 0.5283989310264587
0.5246167182922363 0.18011493980884552 0.47785642743110657
0.4466031789779663 0.2682974934577942 0.4821023941040039
0.3889729976654053 0.24303072690963745 0.4818814992904663
0.3777293264865875 0.20198553800582886 0.44025519490242004
0.42631128430366516 0.26099205017089844 0.5711275339126587
0.5327045917510986 0.2595553696155548 0.5221403241157532
0.36654573678970337 0.18208937346935272 0.5894346833229065
0.5276175141334534 0.26516690850257874 0.43686023354530334
0.4087754487991333 0.19044704735279083 0.574621856212616
0.5508823990821838 0.21250058710575104 0.47005149722099304
0.505980372428894 0.21838903427124023 0.42665112018585205
0.5203003287315369 0.2904989719390869 0.6055169105529785
0.3746033310890198 0.2258549928665161 0.557045578956604
0.4786088764667511 0.20241223275661469 0.48266318440437317
0.4749862849712372 0.22693169116973877 0.4975040853023529
0.438242644071579 0.26312071084976196 0.5593770146369934
0.539218008518219 0.1861077845096588 0.4438401162624359
0.4293120801448822 0.1978824883699417 0.5357755422592163
0.5565901398658752 0.26447436213493347 0.4321261942386627
0.5538755059242249 0.23812729120254517 0.41022470593452454
0.5045259594917297 0.1600402146577835 0.4039885103702545
0.4165600836277008 0.13907670974731445 0.43414658308029175
0.4128035306930542 0.23632444441318512 0.4308578073978424
0.36937639117240906 0.20493006706237793 0.5589292645454407
0.4606553614139557 0.22706636786460876 0.5018577575683594
0.43309372663497925 0.23283891379833221 0.43273231387138367
0.5298783779144287 0.2866441607475281 0.4790780544281006
0.45683473348617554 0.21445335447788239 0.5634421110153198
0.5414493680000305 0.20109114050865173 0.4739364683628082
0.418680340051651 0.22696764767169952 0.41084203124046326
0.5247702598571777 0.26452821493148804 0.41893744468688965
