ply
format ascii 1.0
element vertex 825
property float x
property float y
property float z
end_header
0.49455487728118896 0.30405688285827637 0.42319831252098083
0.49412184953689575 0.24958153069019318 0.5103573203086853
0.5587020516395569 0.16606658697128296 0.42800721526145935
0.5328464508056641 0.29696428775787354 0.4576771855354309
0.5686162114143372 0.2152872085571289 0.4918152093887329
0.5069438815116882 0.11130252480506897 0.5720608830451965
0.4929467439651489 0.2487153708934784 0.5149771571159363
0.5099586248397827 0.14170235395431519 0.4855472147464752
0.46385177969932556 0.13730014860630035 0.5714260935783386
0.5618647336959839 0.18960879743099213 0.5801348090171814
0.5357552766799927 0.11866503953933716 0.47916650772094727
0.4861416518688202 0.3052791357040405 0.4590575098991394
0.3851581811904907 0.21439684927463531 0.5707568526268005
0.5046535134315491 0.16168524324893951 0.43924814462661743
0.47575414180755615 0.14631325006484985 0.5603129267692566
0.4727189540863037 0.27477017045021057 0.4450392425060272
0.40027478337287903 0.1779293566942215 0.4688757061958313
0.4727189540863037 0.27477017045021057 0.4450392425060272
0.5133436322212219 0.13072413206100464 0.41336506605148315
0.3907599151134491 0.17158697545528412 0.4093935787677765
0.524990439414978 0.307673841714859 0.5637030005455017
0.5176295042037964 0.16567112505435944 0.40743911266326904
0.5350868701934814 0.2859751582145691 0.4526204466819763
0.5315706729888916 0.23728768527507782 0.4180257320404053
0.5275377631187439 0.2817162573337555 0.4960973262786865
0.46304813027381897 0.2792343497276306 0.45329442620277405
0.44460204243659973 0.2235410511493683 0.47722846269607544
0.43762555718421936 0.2074749618768692 0.4096425771713257
0.5140603184700012 0.29024410247802734 0.6032943725585938
0.3814847767353058 0.17202581465244293 0.5250148177146912
0.48435911536216736 0.10879317671060562 0.5715596675872803
0.4268547594547272 0.23421017825603485 0.5266674757003784
0.4568225145339966 0.22174645960330963 0.5910347700119019
0.5362913608551025 0.29614418745040894 0.4270404279232025
0.5137622356414795 0.23972667753696442 0.4591357707977295
0.5362913608551025 0.29614418745040894 0.4270404279232025
0.4890660345554352 0.16948817670345306 0.519666850566864
0.5509498119354248 0.154655322432518 0.40260860323905945
0.4576493799686432 0.12176410108804703 0.4140501916408539
0.3855016529560089 0.21431948244571686 0.4990837275981903
0.43153294920921326 0.23387691378593445 0.533943235874176
0.49783584475517273 0.18261148035526276 0.4788856506347656
0.55511873960495 0.26361727714538574 0.5643262267112732
0.4627637267112732 0.14801247417926788 0.55135178565979
0.43863168358802795 0.15986981987953186 0.5489833950996399
0.46409887075424194 0.22267267107963562 0.4252469539642334
0.49244803190231323 0.2646753787994385 0.43251127004623413
0.4405198395252228 0.20415392518043518 0.6047948002815247
0.4900887906551361 0.2886121869087219 0.5724031329154968
0.46953919529914856 0.26564282178878784 0.5075229406356812
0.5331310629844666 0.2424231320619583 0.4188539981842041
0.42628511786460876 0.2331571877002716 0.5768938660621643
0.5482119917869568 0.20638003945350647 0.5872907042503357
0.42505118250846863 0.22734607756137848 0.5137640237808228
0.4953995943069458 0.30615103244781494 0.5883266925811768
0.4542235732078552 0.1250036507844925 0.4265885055065155
0.5625696778297424 0.15002210438251495 0.43134045600891113
0.3814847767353058 0.17202581465244293 0.5250148177146912
0.48435911536216736 0.10879317671060562 0.5715596675872803
0.4268547594547272 0.23421017825603485 0.5266674757003784
0.4568225145339966 0.22174645960330963 0.5910347700119019
0.5387623906135559 0.28959596157073975 0.41662663221359253
0.48158687353134155 0.23037315905094147 0.515287458896637
0.46485164761543274 0.24878022074699402 0.5539275407791138
0.40962204337120056 0.16970132291316986 0.5398719906806946
0.46458032727241516 0.28069427609443665 0.4514191448688507
0.5362913608551025 0.29614418745040894 0.4270404279232025
0.4890660345554352 0.16948817670345306 0.519666850566864
0.5509498119354248 0.154655322432518 0.40260860323905945
0.4576493799686432 0.12176410108804703 0.4140501916408539
0.3855016529560089 0.21431948244571686 0.4990837275981903
0.43153294920921326 0.23387691378593445 0.533943235874176
0.49783584475517273 0.18261148035526276 0.4788856506347656
0.55511873960495 0.26361727714538574 0.5643262267112732
0.4627637267112732 0.14801247417926788 0.55135178565979
0.43863168358802795 0.15986981987953186 0.5489833950996399
0.46409887075424194 0.22267267107963562 0.4252469539642334
0.41985276341438293 0.1897098422050476 0.5093626976013184
0.5439589023590088 0.12007490545511246 0.591156005859375
0.558397650718689 0.15066631138324738 0.5759164094924927
0.46900632977485657 0.13461251556873322 0.47251930832862854
0.5138704776763916 0.244575634598732 0.43534010648727417
0.4910631775856018 0.24319548904895782 0.48792174458503723
0.42298761010169983 0.143724724650383 0.45636868476867676
0.5396915078163147 0.1336875706911087 0.5287216901779175
0.39935213327407837 0.22622926533222198 0.4049464464187622
0.49787160754203796 0.31400781869888306 0.4485781192779541
0.5023831725120544 0.13478049635887146 0.4552820026874542
0.5125294923782349 0.29293912649154663 0.4866275489330292
0.5725730657577515 0.16576918959617615 0.5861801505088806
0.42203450202941895 0.16396178305149078 0.4776528477668762
0.5432243943214417 0.14831383526325226 0.4034445881843567
0.4476352035999298 0.24538260698318481 0.5447942018508911
0.4899985194206238 0.18798522651195526 0.45184704661369324
0.4187287390232086 0.18793423473834991 0.5068797469139099
0.45345041155815125 0.1700994074344635 0.5557178258895874
0.44759082794189453 0.17065320909023285 0.39520660042762756
0.5145536065101624 0.279759019613266 0.44672077894210815
0.4213249683380127 0.1792827993631363 0.5573156476020813
0.3962794840335846 0.20720688998699188 0.5767187476158142
0.5103501677513123 0.25641924142837524 0.5349718332290649
0.5269789099693298 0.3151065707206726 0.51810222864151
0.5539301633834839 0.23530493676662445 0.41975030303001404
0.46304813027381897 0.2792343497276306 0.45329442620277405
0.44460204243659973 0.2235410511493683 0.47722846269607544
0.43762555718421936 0.2074749618768692 0.4096425771713257
0.5140603184700012 0.29024410247802734 0.6032943725585938
0.3814847767353058 0.17202581465244293 0.5250148177146912
0.48435911536216736 0.10879317671060562 0.5715596675872803
0.4268547594547272 0.23421017825603485 0.5266674757003784
0.4568225145339966 0.22174645960330963 0.5910347700119019
0.5387623906135559 0.28959596157073975 0.41662663221359253
0.48158687353134155 0.23037315905094147 0.515287458896637
0.46485164761543274 0.24878022074699402 0.5539275407791138
0.40962204337120056 0.16970132291316986 0.5398719906806946
0.46458032727241516 0.28069427609443665 0.4514191448688507
0.5362913608551025 0.29614418745040894 0.4270404279232025
0.4890660345554352 0.16948817670345306 0.519666850566864
0.5509498119354248 0.154655322432518 0.40260860323905945
0.4576493799686432 0.12176410108804703 0.4140501916408539
0.423602432012558 0.23783619701862335 0.4453606903553009
0.4916914701461792 0.14592570066452026 0.39942723512649536
0.5434466600418091 0.14769069850444794 0.4269574284553528
0.5167756080627441 0.12378039211034775 0.4631708562374115
0.5273939967155457 0.20770469307899475 0.5895920991897583
0.39685335755348206 0.22083315253257751 0.5870943069458008
0.454861581325531 0.14106382429599762 0.5588546395301819
0.403238445520401 0.1524081826210022 0.5910348296165466
0.3890205919742584 0.1456613540649414 0.5202839374542236
0.5144115686416626 0.24181634187698364 0.47042185068130493
0.3910727798938751 0.1601525843143463 0.5446881055831909
0.5175431370735168 0.30328717827796936 0.6054248213768005
0.5347554087638855 0.15227170288562775 0.4944925904273987
0.5331302285194397 0.14859306812286377 0.565535843372345
0.539779782295227 0.3065187931060791 0.48918846249580383
0.40212517976760864 0.13229908049106598 0.44604921340942383
0.4942174553871155 0.16336680948734283 0.5521585941314697
0.42628511786460876 0.2331571877002716 0.5768938660621643
0.43232420086860657 0.25135478377342224 0.5006998181343079
0.5385766625404358 0.1878363937139511 0.40961816906929016
0.5179007649421692 0.2846519947052002 0.5602731108665466
0.42416268587112427 0.12110761553049088 0.5516819357872009
0.5705059766769409 0.13790541887283325 0.5521892309188843
0.5013847351074219 0.21625153720378876 0.5787628889083862
0.3834349811077118 0.15902304649353027 0.472636342048645
0.43916046619415283 0.13191337883472443 0.5592908263206482
0.5459536910057068 0.3220154345035553 0.4221890866756439
0.4223693013191223 0.2123958021402359 0.487970769405365
0.4702732264995575 0.2082698494195938 0.4114886224269867
0.4931422770023346 0.16631591320037842 0.40245044231414795
0.40684807300567627 0.22856105864048004 0.6054970026016235
0.41706618666648865 0.2142830342054367 0.567982017993927
0.4548492431640625 0.11752722412347794 0.5312490463256836
0.5111250281333923 0.2080095112323761 0.5587364435195923
0.5343230366706848 0.19591914117336273 0.5125859975814819
0.476025253534317 0.29678869247436523 0.44301679730415344
0.38082394003868103 0.189325213432312 0.43489205837249756
0.4559885859489441 0.13981279730796814 0.5900073051452637
0.3966063857078552 0.18788525462150574 0.5097684264183044
0.4120253622531891 0.21898958086967468 0.4528932571411133
0.5283987522125244 0.32540884613990784 0.49847134947776794
0.4636140465736389 0.18694275617599487 0.4724510908126831
0.37905386090278625 0.152971088886261 0.5012692213058472
0.3937191963195801 0.2208675593137741 0.399569034576416
0.5044920444488525 0.2566084563732147 0.5153172612190247
0.5723938345909119 0.1819985955953598 0.5926981568336487
0.4544759690761566 0.2601366341114044 0.4210200011730194
0.41112446784973145 0.11870747059583664 0.39482054114341736
0.4363565444946289 0.2415248602628708 0.42271357774734497
0.5070801973342896 0.12841396033763885 0.4279254078865051
0.4701922833919525 0.18667598068714142 0.546523928642273
0.4562464654445648 0.26388683915138245 0.44628283381462097
0.47760990262031555 0.16776348650455475 0.5546849370002747
0.4515153765678406 0.23761287331581116 0.4911358952522278
0.5563844442367554 0.24654604494571686 0.4061790406703949
0.5563844442367554 0.24654604494571686 0.4061790406703949
0.4010205864906311 0.22514718770980835 0.4482572078704834
0.4030078649520874 0.21519052982330322 0.4643303453922272
0.4269004166126251 0.23943449556827545 0.42747679352760315
0.4517726004123688 0.20250962674617767 0.40284156799316406
0.45319288969039917 0.19043639302253723 0.5793774724006653
0.4049161672592163 0.15189510583877563 0.5377669334411621
0.4049161672592163 0.15189510583877563 0.5377669334411621
0.5228893756866455 0.2338295578956604 0.4183635115623474
0.44953683018684387 0.11214947700500488 0.4197235703468323
0.5103501677513123 0.25641924142837524 0.5349718332290649
0.5269789099693298 0.3151065707206726 0.51810222864151
0.46739915013313293 0.14841122925281525 0.4185267686843872
0.5539301633834839 0.23530493676662445 0.41975030303001404
0.46304813027381897 0.2792343497276306 0.45329442620277405
0.44460204243659973 0.2235410511493683 0.47722846269607544
0.43762555718421936 0.2074749618768692 0.4096425771713257
0.5140603184700012 0.29024410247802734 0.6032943725585938
0.3814847767353058 0.17202581465244293 0.5250148177146912
0.48435911536216736 0.10879317671060562 0.5715596675872803
0.4268547594547272 0.23421017825603485 0.5266674757003784
0.4568225145339966 0.22174645960330963 0.5910347700119019
0.5387623906135559 0.28959596157073975 0.41662663221359253
0.48158687353134155 0.23037315905094147 0.515287458896637
0.46485164761543274 0.24878022074699402 0.5539275407791138
0.4710635840892792 0.29869192838668823 0.4367075562477112
0.5033257603645325 0.19934408366680145 0.40968751907348633
0.4550940990447998 0.21899622678756714 0.6055700182914734
0.480711430311203 0.27840298414230347 0.4844193756580353
0.5144285559654236 0.24754977226257324 0.44340115785598755
0.37733784317970276 0.1314016580581665 0.4252447485923767
0.4750312566757202 0.21162718534469604 0.5685646533966064
0.4493853747844696 0.23610438406467438 0.44287431240081787
0.4916914701461792 0.14592570066452026 0.39942723512649536
0.5478661060333252 0.21637296676635742 0.4857850968837738
0.42820319533348083 0.18219541013240814 0.4784768521785736
0.4743006229400635 0.18890932202339172 0.41976141929626465
0.42590969800949097 0.19587379693984985 0.4445798695087433
0.5020806789398193 0.1523607224225998 0.5127866864204407
0.5348805785179138 0.2967783808708191 0.44071152806282043
0.5007286071777344 0.14289048314094543 0.5600420236587524
0.4530709385871887 0.12284918129444122 0.48767703771591187
0.5387623906135559 0.28959596157073975 0.41662663221359253
0.48158687353134155 0.23037315905094147 0.515287458896637
0.46485164761543274 0.24878022074699402 0.5539275407791138
0.40962204337120056 0.16970132291316986 0.5398719906806946
0.46458032727241516 0.28069427609443665 0.4514191448688507
0.5362913608551025 0.29614418745040894 0.4270404279232025
0.4650420546531677 0.11124822497367859 0.5335440039634705
0.4606793522834778 0.10594677180051804 0.5646577477455139
0.47791793942451477 0.29126808047294617 0.5789146423339844
0.461117148399353 0.1118445098400116 0.4114764630794525
0.46316373348236084 0.2622106373310089 0.5369795560836792
0.459453821182251 0.250518798828125 0.4280780553817749
0.5013046264648438 0.11783972382545471 0.42786404490470886
0.4840666353702545 0.160578653216362 0.5650294423103333
0.4578898847103119 0.2759386897087097 0.5798173546791077
0.443474680185318 0.24606502056121826 0.4804014563560486
0.528306782245636 0.32332757115364075 0.45212793350219727
0.4904673993587494 0.1628967970609665 0.5471894145011902
0.4739585518836975 0.2087821513414383 0.5586408972740173
0.38698330521583557 0.21710699796676636 0.4145694375038147
0.48311689496040344 0.11661777645349503 0.506176769733429
0.5188140273094177 0.21736477315425873 0.5786747336387634
0.4467445909976959 0.25067001581192017 0.44728800654411316
0.49343550205230713 0.15337055921554565 0.5390013456344604
0.5423614978790283 0.2972593307495117 0.5190045237541199
0.518070638179779 0.14991293847560883 0.5072144865989685
0.5253355503082275 0.13465699553489685 0.5245885252952576
0.5299034714698792 0.15122227370738983 0.5050963163375854
0.46435487270355225 0.11180059611797333 0.5844573378562927
0.47927945852279663 0.25863009691238403 0.46138957142829895
0.3813290297985077 0.14364351332187653 0.5107163190841675
0.517208993434906 0.12611210346221924 0.39190107583999634
0.4457527697086334 0.24980606138706207 0.40108516812324524
0.49728789925575256 0.23002299666404724 0.5015105605125427
0.4076806902885437 0.13994650542736053 0.5814805626869202
0.3975001275539398 0.16610252857208252 0.5840739607810974
0.3881244659423828 0.14895381033420563 0.6056062579154968
0.4190981090068817 0.15847311913967133 0.5469933152198792
0.4376295208930969 0.2524432837963104 0.5759286284446716
0.5624299049377441 0.24069641530513763 0.41765308380126953
0.45039066672325134 0.15710653364658356 0.45186081528663635
0.46874335408210754 0.15191273391246796 0.5055162310600281
0.5709477066993713 0.1947411149740219 0.461692750453949
0.4661088287830353 0.11503802239894867 0.46543458104133606
0.42429324984550476 0.11279255896806717 0.48047927021980286
0.4284678101539612 0.10822764039039612 0.5009289383888245
0.3862473666667938 0.17820854485034943 0.5416838526725769
0.4975229799747467 0.2386760264635086 0.5909852385520935
0.4938480854034424 0.24498680233955383 0.5235260725021362
0.3810235261917114 0.16558566689491272 0.5272276997566223
0.5216917991638184 0.13536125421524048 0.5016891956329346
0.43932414054870605 0.23913969099521637 0.41058221459388733
0.47904664278030396 0.14156438410282135 0.4843968152999878
0.5683308243751526 0.20097415149211884 0.42438021302223206
0.39788541197776794 0.11829158663749695 0.41389182209968567
0.39999184012413025 0.16869166493415833 0.578941822052002
0.4733857810497284 0.26612919569015503 0.44857257604599
0.49117493629455566 0.17758336663246155 0.5582372546195984
0.40263307094573975 0.21471241116523743 0.4255199432373047
0.488744854927063 0.28808847069740295 0.5682755708694458
0.3970927298069 0.16469010710716248 0.5385189652442932
0.48534825444221497 0.1577538400888443 0.3934675455093384
0.4758314788341522 0.1518574208021164 0.5455840229988098
0.40523144602775574 0.169504314661026 0.4006706476211548
0.5362913608551025 0.29614418745040894 0.4270404279232025
0.4890660345554352 0.16948817670345306 0.519666850566864
0.5509498119354248 0.154655322432518 0.40260860323905945
0.4576493799686432 0.12176410108804703 0.4140501916408539
0.3855016529560089 0.21431948244571686 0.4990837275981903
0.43153294920921326 0.23387691378593445 0.533943235874176
0.49783584475517273 0.18261148035526276 0.4788856506347656
0.55511873960495 0.26361727714538574 0.5643262267112732
0.4627637267112732 0.14801247417926788 0.55135178565979
0.43863168358802795 0.15986981987953186 0.5489833950996399
0.46409887075424194 0.22267267107963562 0.4252469539642334
0.41985276341438293 0.1897098422050476 0.5093626976013184
0.5439589023590088 0.12007490545511246 0.591156005859375
0.558397650718689 0.15066631138324738 0.5759164094924927
0.46900632977485657 0.13461251556873322 0.47251930832862854
0.5138704776763916 0.244575634598732 0.43534010648727417
0.47474125027656555 0.1224864274263382 0.47526904940605164
0.5069813132286072 0.19205302000045776 0.5317894220352173
0.41532135009765625 0.23746350407600403 0.521277666091919
0.376692533493042 0.15258155763149261 0.43374085426330566
0.40289798378944397 0.12265093624591827 0.4107914865016937
0.4395538866519928 0.24688293039798737 0.6038862466812134
0.4853222966194153 0.24317902326583862 0.5168078541755676
0.4435325264930725 0.15029416978359222 0.5961456894874573
0.4527161419391632 0.13304893672466278 0.5529181957244873
0.5565938353538513 0.17495957016944885 0.4785749614238739
0.5229573249816895 0.23762565851211548 0.5063071846961975
0.4590693712234497 0.26233530044555664 0.4686572253704071
0.5564268231391907 0.2058723270893097 0.4311084449291229
0.5327946543693542 0.29796895384788513 0.5165754556655884
0.3929222822189331 0.10604935139417648 0.5864043831825256
0.5237202048301697 0.2913731634616852 0.5893006324768066
0.5362913608551025 0.29614418745040894 0.4270404279232025
0.4890660345554352 0.16948817670345306 0.519666850566864
0.5509498119354248 0.154655322432518 0.40260860323905945
0.4576493799686432 0.12176410108804703 0.4140501916408539
0.3855016529560089 0.21431948244571686 0.4990837275981903
0.43153294920921326 0.23387691378593445 0.533943235874176
0.49783584475517273 0.18261148035526276 0.4788856506347656
0.55511873960495 0.26361727714538574 0.5643262267112732
0.4627637267112732 0.14801247417926788 0.55135178565979
0.43863168358802795 0.15986981987953186 0.5489833950996399
0.46409887075424194 0.22267267107963562 0.4252469539642334
0.41985276341438293 0.1897098422050476 0.5093626976013184
0.5439589023590088 0.12007490545511246 0.591156005859375
0.558397650718689 0.15066631138324738 0.5759164094924927
0.46900632977485657 0.13461251556873322 0.47251930832862854
0.5138704776763916 0.244575634598732 0.43534010648727417
0.47474125027656555 0.1224864274263382 0.47526904940605164
0.5069813132286072 0.19205302000045776 0.5317894220352173
0.38226690888404846 0.18656595051288605 0.5967148542404175
0.4634154140949249 0.14428770542144775 0.443658709526062
0.534375786781311 0.1765962392091751 0.5578809380531311
0.40700358152389526 0.22141587734222412 0.5464706420898438
0.5595540404319763 0.20543290674686432 0.41074809432029724
0.4995814263820648 0.1580570787191391 0.5872085690498352
0.4297897219657898 0.18317648768424988 0.4466690421104431
0.5180196166038513 0.22682149708271027 0.4865269362926483
0.5565938353538513 0.17495957016944885 0.4785749614238739
0.5462885499000549 0.27047303318977356 0.4586402475833893
0.3817756772041321 0.19384227693080902 0.5878467559814453
0.5123506784439087 0.11362765729427338 0.5832774639129639
0.3890205919742584 0.1456613540649414 0.5202839374542236
0.5639417767524719 0.15473437309265137 0.5664700269699097
0.4515153765678406 0.23761287331581116 0.4911358952522278
0.45524024963378906 0.2782973349094391 0.4343695044517517
0.4183286428451538 0.21777907013893127 0.4332211911678314
0.4517726004123688 0.20250962674617767 0.40284156799316406
0.45319288969039917 0.19043639302253723 0.5793774724006653
0.4049161672592163 0.15189510583877563 0.5377669334411621
0.5228893756866455 0.2338295578956604 0.4183635115623474
0.38938263058662415 0.11244207620620728 0.4069144129753113
0.522367537021637 0.2741415798664093 0.56361985206604
0.43143200874328613 0.24323341250419617 0.48169368505477905
0.5085006356239319 0.2925054728984833 0.4855715334415436
0.42203450202941895 0.16396178305149078 0.4776528477668762
0.5432243943214417 0.14831383526325226 0.4034445881843567
0.4476352035999298 0.24538260698318481 0.5447942018508911
0.4899985194206238 0.18798522651195526 0.45184704661369324
0.4187287390232086 0.18793423473834991 0.5068797469139099
0.45345041155815125 0.1700994074344635 0.5557178258895874
0.44759082794189453 0.17065320909023285 0.39520660042762756
0.5145536065101624 0.279759019613266 0.44672077894210815
0.4213249683380127 0.1792827993631363 0.5573156476020813
0.3962794840335846 0.20720688998699188 0.5767187476158142
0.5103501677513123 0.25641924142837524 0.5349718332290649
0.5269789099693298 0.3151065707206726 0.51810222864151
0.5539301633834839 0.23530493676662445 0.41975030303001404
0.46304813027381897 0.2792343497276306 0.45329442620277405
0.44460204243659973 0.2235410511493683 0.47722846269607544
0.38226690888404846 0.18656595051288605 0.5967148542404175
0.4634154140949249 0.14428770542144775 0.443658709526062
0.534375786781311 0.1765962392091751 0.5578809380531311
0.40700358152389526 0.22141587734222412 0.5464706420898438
0.5595540404319763 0.20543290674686432 0.41074809432029724
0.43805137276649475 0.16258971393108368 0.45048999786376953
0.46435487270355225 0.11180059611797333 0.5844573378562927
0.4954727590084076 0.1968153715133667 0.426946222782135
0.42345282435417175 0.11387178301811218 0.47370922565460205
0.40349939465522766 0.12007743865251541 0.5727766156196594
0.5331310629844666 0.2424231320619583 0.4188539981842041
0.42628511786460876 0.2331571877002716 0.5768938660621643
0.43232420086860657 0.25135478377342224 0.5006998181343079
0.5385766625404358 0.1878363937139511 0.40961816906929016
0.5179007649421692 0.2846519947052002 0.5602731108665466
0.42416268587112427 0.12110761553049088 0.5516819357872009
0.5705059766769409 0.13790541887283325 0.5521892309188843
0.5013847351074219 0.21625153720378876 0.5787628889083862
0.3834349811077118 0.15902304649353027 0.472636342048645
0.43916046619415283 0.13191337883472443 0.5592908263206482
0.5459536910057068 0.3220154345035553 0.4221890866756439
0.5307828187942505 0.2982117235660553 0.5058850646018982
0.45220696926116943 0.1094929501414299 0.5049787163734436
0.38335973024368286 0.1219697892665863 0.5977557301521301
0.40853163599967957 0.2309943437576294 0.439827561378479
0.4796302914619446 0.1356024593114853 0.5469873547554016
0.4583786725997925 0.25726640224456787 0.6091579794883728
0.4223693013191223 0.2123958021402359 0.487970769405365
0.37616851925849915 0.11931724101305008 0.4351496994495392
0.41254833340644836 0.22373272478580475 0.41792595386505127
0.5247868299484253 0.2218826860189438 0.42058977484703064
0.4931422770023346 0.16631591320037842 0.40245044231414795
0.4506346583366394 0.20423848927021027 0.5293723344802856
0.5046115517616272 0.1684601604938507 0.4252244830131531
0.41706618666648865 0.2142830342054367 0.567982017993927
0.5002732276916504 0.28303468227386475 0.4520699977874756
0.43658074736595154 0.14816851913928986 0.42500078678131104
0.522367537021637 0.2741415798664093 0.56361985206604
0.5347554087638855 0.15227170288562775 0.4944925904273987
0.5331302285194397 0.14859306812286377 0.565535843372345
0.46431764960289 0.13742296397686005 0.5971397757530212
0.42628511786460876 0.2331571877002716 0.5768938660621643
0.43232420086860657 0.25135478377342224 0.5006998181343079
0.5385766625404358 0.1878363937139511 0.40961816906929016
0.3734196722507477 0.11264500021934509 0.4037823975086212
0.3974924683570862 0.22715485095977783 0.4170571565628052
0.4566756784915924 0.16160577535629272 0.42705264687538147
0.5365771651268005 0.1613985002040863 0.5073270201683044
0.4825919568538666 0.2910047769546509 0.4152035415172577
0.45821696519851685 0.1835992932319641 0.5205426812171936
0.4223693013191223 0.2123958021402359 0.487970769405365
0.37616851925849915 0.11931724101305008 0.4351496994495392
0.41254833340644836 0.22373272478580475 0.41792595386505127
0.5247868299484253 0.2218826860189438 0.42058977484703064
0.4931422770023346 0.16631591320037842 0.40245044231414795
0.40684807300567627 0.22856105864048004 0.6054970026016235
0.41706618666648865 0.2142830342054367 0.567982017993927
0.5002732276916504 0.28303468227386475 0.4520699977874756
0.43658074736595154 0.14816851913928986 0.42500078678131104
0.411691278219223 0.1683558225631714 0.5077897310256958
0.49161675572395325 0.12577416002750397 0.5926892757415771
0.49177178740501404 0.29202720522880554 0.5766357779502869
0.46225491166114807 0.2794070839881897 0.5232064723968506
0.5400813817977905 0.21934443712234497 0.43009018898010254
0.4599861204624176 0.25686371326446533 0.44415274262428284
0.5349151492118835 0.1692076325416565 0.5876343250274658
0.4078035354614258 0.22777672111988068 0.5539846420288086
0.46871212124824524 0.2176600694656372 0.6009292602539062
0.5401411056518555 0.27830833196640015 0.43866974115371704
0.46409887075424194 0.22267267107963562 0.4252469539642334
0.5123506784439087 0.11362765729427338 0.5832774639129639
0.3890205919742584 0.1456613540649414 0.5202839374542236
0.5144115686416626 0.24181634187698364 0.47042185068130493
0.5336224436759949 0.30478352308273315 0.5382872819900513
0.46699193120002747 0.14432589709758759 0.45603296160697937
0.4095645248889923 0.19111277163028717 0.5228317379951477
0.3792974650859833 0.1942714899778366 0.49578601121902466
0.42698928713798523 0.2076515555381775 0.4109043776988983
0.5556424260139465 0.2196718007326126 0.5415087938308716
0.4836374819278717 0.10944724082946777 0.556705892086029
0.5092452764511108 0.26262664794921875 0.5096513032913208
0.49337998032569885 0.17789621651172638 0.5725055932998657
0.5702629685401917 0.1418994814157486 0.5227334499359131
0.44480186700820923 0.16348551213741302 0.5493741631507874
0.5325359106063843 0.32095247507095337 0.4900398850440979
0.503961443901062 0.14246556162834167 0.47919270396232605
0.5164187550544739 0.3217698633670807 0.46398892998695374
0.5064134001731873 0.2796243131160736 0.5640344023704529
0.436012327671051 0.19635522365570068 0.5721687078475952
0.48382627964019775 0.21661284565925598 0.464250773191452
0.41719356179237366 0.15749868750572205 0.5739855170249939
0.49161675572395325 0.12577416002750397 0.5926892757415771
0.49177178740501404 0.29202720522880554 0.5766357779502869
0.46225491166114807 0.2794070839881897 0.5232064723968506
0.5400813817977905 0.21934443712234497 0.43009018898010254
0.4599861204624176 0.25686371326446533 0.44415274262428284
0.5349151492118835 0.1692076325416565 0.5876343250274658
0.4078035354614258 0.22777672111988068 0.5539846420288086
0.4651709198951721 0.13059206306934357 0.4847463369369507
0.5401411056518555 0.27830833196640015 0.43866974115371704
0.4441111087799072 0.18317310512065887 0.5843549370765686
0.512642502784729 0.12640102207660675 0.5013047456741333
0.37731555104255676 0.14619503915309906 0.5329524874687195
0.4924817979335785 0.27615880966186523 0.4823681116104126
0.4254677891731262 0.13601739704608917 0.46921613812446594
0.39134880900382996 0.11052089929580688 0.44498321413993835
0.4613505005836487 0.1449015587568283 0.4199402928352356
0.3910727798938751 0.1601525843143463 0.5446881055831909
0.5175431370735168 0.30328717827796936 0.6054248213768005
0.5347554087638855 0.15227170288562775 0.4944925904273987
0.5331302285194397 0.14859306812286377 0.565535843372345
0.539779782295227 0.3065187931060791 0.48918846249580383
0.40212517976760864 0.13229908049106598 0.44604921340942383
0.4942174553871155 0.16336680948734283 0.5521585941314697
0.3852202296257019 0.13134267926216125 0.5507057905197144
0.44782158732414246 0.17223580181598663 0.48932892084121704
0.4095645248889923 0.19111277163028717 0.5228317379951477
0.3792974650859833 0.1942714899778366 0.49578601121902466
0.42698928713798523 0.2076515555381775 0.4109043776988983
0.5257080793380737 0.17337284982204437 0.4957881569862366
0.484439879655838 0.19973266124725342 0.5109795928001404
0.40923359990119934 0.2054886370897293 0.4067993462085724
0.46320170164108276 0.20450976490974426 0.5233474373817444
0.484157532453537 0.21017363667488098 0.47301146388053894
0.48424452543258667 0.17707467079162598 0.48201653361320496
0.493272066116333 0.22920234501361847 0.596566379070282
0.45805415511131287 0.21430161595344543 0.5550696849822998
0.4188779592514038 0.17395929992198944 0.5870362520217896
0.49583640694618225 0.1242954283952713 0.516891598701477
0.4760887622833252 0.15621425211429596 0.45715779066085815
0.5324046015739441 0.29627928137779236 0.45364969968795776
0.5466075539588928 0.2655670642852783 0.408032089471817
0.49572911858558655 0.23691757023334503 0.48314693570137024
0.3896637558937073 0.14804254472255707 0.39869892597198486
0.5086097717285156 0.23939760029315948 0.42964673042297363
0.522986650466919 0.26655998826026917 0.4348766505718231
0.5105740427970886 0.23844386637210846 0.5352938175201416
0.5315182209014893 0.13901109993457794 0.4469359219074249
0.4019308090209961 0.14429670572280884 0.5371020436286926
0.5081554651260376 0.22632324695587158 0.5187521576881409
0.47940966486930847 0.236670583486557 0.4292267858982086
0.4028133749961853 0.11995631456375122 0.44139599800109863
0.551283061504364 0.2949897050857544 0.41147294640541077
0.4655516445636749 0.2318974882364273 0.5228590369224548
0.5257080793380737 0.17337284982204437 0.4957881569862366
0.484439879655838 0.19973266124725342 0.5109795928001404
0.40923359990119934 0.2054886370897293 0.4067993462085724
0.46320170164108276 0.20450976490974426 0.5233474373817444
0.484157532453537 0.21017363667488098 0.47301146388053894
0.48424452543258667 0.17707467079162598 0.48201653361320496
0.493272066116333 0.22920234501361847 0.596566379070282
0.45805415511131287 0.21430161595344543 0.5550696849822998
0.4188779592514038 0.17395929992198944 0.5870362520217896
0.49583640694618225 0.1242954283952713 0.516891598701477
0.5366072654724121 0.2657880187034607 0.5550874471664429
0.5446929335594177 0.1976582407951355 0.3996831476688385
0.527495801448822 0.23535892367362976 0.592230498790741
0.5529784560203552 0.22227579355239868 0.5511717200279236
0.43968817591667175 0.2260194569826126 0.5753159523010254
0.39910995960235596 0.2236849069595337 0.41750070452690125
0.5622799396514893 0.19916756451129913 0.576468288898468
0.4027782678604126 0.20484691858291626 0.5185708403587341
0.4631025195121765 0.15725459158420563 0.5563796162605286
0.38950374722480774 0.22165878117084503 0.4174560606479645
0.4381052553653717 0.13781069219112396 0.43039441108703613
0.39466068148612976 0.173989400267601 0.5738211274147034
0.5152403116226196 0.2853538691997528 0.4182816743850708
0.4922424852848053 0.27776408195495605 0.5356953740119934
0.5237300992012024 0.18725524842739105 0.4466879367828369
0.5599650740623474 0.20745062828063965 0.5366308689117432
0.39022305607795715 0.12424953281879425 0.4897831678390503
0.4907734990119934 0.23863819241523743 0.5824849605560303
0.4820927679538727 0.26703453063964844 0.42477068305015564
0.3792782425880432 0.10562020540237427 0.5035268664360046
0.4996018707752228 0.12857018411159515 0.5329598188400269
0.5351699590682983 0.270191490650177 0.4320164620876312
0.4070815145969391 0.17772282660007477 0.48198068141937256
0.39401352405548096 0.17023463547229767 0.5285942554473877
0.5592914819717407 0.16495074331760406 0.45556768774986267
0.4131864011287689 0.12567105889320374 0.5245822668075562
0.5231820344924927 0.3103720247745514 0.6037845611572266
0.5633795857429504 0.24727068841457367 0.514991819858551
0.5213844180107117 0.2107965350151062 0.5328993201255798
0.427723228931427 0.20314441621303558 0.5429819822311401
0.40472978353500366 0.21908752620220184 0.511471152305603
0.5585646033287048 0.12615709006786346 0.5117461681365967
0.47315070033073425 0.2261660397052765 0.5751186609268188
0.5365147590637207 0.2832493185997009 0.4165674149990082
0.38045158982276917 0.19929617643356323 0.5117358565330505
0.5618007779121399 0.18884138762950897 0.44984447956085205
0.5095061659812927 0.23581567406654358 0.5870320796966553
0.4985835552215576 0.22550226747989655 0.554398775100708
0.404277503490448 0.15964460372924805 0.4709593653678894
0.4297979772090912 0.15367378294467926 0.4386894702911377
0.49894317984580994 0.24400316178798676 0.4843107759952545
0.555979311466217 0.1311699002981186 0.4509788155555725
0.5176661014556885 0.2476198375225067 0.5418968200683594
0.48534825444221497 0.1577538400888443 0.3934675455093384
0.42870834469795227 0.17603154480457306 0.5269901156425476
0.5398458242416382 0.14225922524929047 0.5233129262924194
0.3962787687778473 0.18694473803043365 0.5921811461448669
0.5060098767280579 0.16487954556941986 0.4279335141181946
0.4761441648006439 0.13532589375972748 0.4527342915534973
0.41996824741363525 0.23379918932914734 0.4429352879524231
0.5563082695007324 0.13896885514259338 0.4349799156188965
0.5293748378753662 0.17455671727657318 0.5528912544250488
0.43709298968315125 0.1352376639842987 0.42330029606819153
0.40617337822914124 0.21425975859165192 0.4244421422481537
0.44824716448783875 0.2539127767086029 0.5472742915153503
0.5294988751411438 0.1351035237312317 0.5348641872406006
0.44775527715682983 0.14325813949108124 0.5416635870933533
0.3797147870063782 0.1353803426027298 0.4871770739555359
0.3956937789916992 0.1332423985004425 0.5207180380821228
0.4379572570323944 0.24572181701660156 0.4258650839328766
0.4328489303588867 0.19717910885810852 0.4043443500995636
0.41728222370147705 0.11783115565776825 0.558780312538147
0.5547423362731934 0.25609007477760315 0.5358192920684814
0.5124685168266296 0.12458696216344833 0.544015645980835
0.5676910281181335 0.1628248691558838 0.45157095789909363
0.43070393800735474 0.20819322764873505 0.5410507917404175
0.4913915693759918 0.11380693316459656 0.4657694101333618
0.45639848709106445 0.2589412033557892 0.5139440894126892
0.3915509581565857 0.11584597826004028 0.5834968090057373
0.4418382942676544 0.20789580047130585 0.49450984597206116
0.3865736722946167 0.19628460705280304 0.4113312363624573
0.45643141865730286 0.197793111205101 0.4375787675380707
0.4987449049949646 0.19580011069774628 0.41094970703125
0.48285767436027527 0.12285684049129486 0.4234107732772827
0.4426421523094177 0.14460234344005585 0.4378584027290344
0.5013847351074219 0.21625153720378876 0.5787628889083862
0.45805415511131287 0.21430161595344543 0.5550696849822998
0.45904818177223206 0.20028874278068542 0.47785958647727966
0.5403278470039368 0.13623477518558502 0.406088650226593
0.4261617958545685 0.1420222520828247 0.5214014053344727
0.5554754137992859 0.1216992512345314 0.5750367641448975
0.46979978680610657 0.1449567675590515 0.5601974725723267
0.4861902594566345 0.20065462589263916 0.5473812222480774
0.4385959804058075 0.1570480912923813 0.4779920279979706
0.4551484286785126 0.14114582538604736 0.5009568929672241
0.41564100980758667 0.1354939341545105 0.3996613919734955
0.3855814039707184 0.1256578117609024 0.5521615743637085
0.5470485091209412 0.23530636727809906 0.5675104260444641
0.49567916989326477 0.2376253306865692 0.5879026651382446
0.4385997951030731 0.11988892406225204 0.4126255512237549
0.44307368993759155 0.13612733781337738 0.5431491136550903
0.5072928071022034 0.2444971203804016 0.4184660017490387
0.5127431750297546 0.23036806285381317 0.5140528082847595
0.41210681200027466 0.12769722938537598 0.40168508887290955
0.43966078758239746 0.1493397355079651 0.49082833528518677
0.46310943365097046 0.16152288019657135 0.4122629761695862
0.5523812770843506 0.11313799768686295 0.5729321241378784
0.46732571721076965 0.11392699927091599 0.4611567556858063
0.4011211395263672 0.1283881962299347 0.475478857755661
0.5219800472259521 0.13314436376094818 0.4245971739292145
0.5681740045547485 0.23170524835586548 0.5685365796089172
0.4985835552215576 0.22550226747989655 0.554398775100708
0.404277503490448 0.15964460372924805 0.4709593653678894
0.4297979772090912 0.15367378294467926 0.4386894702911377
0.49894317984580994 0.24400316178798676 0.4843107759952545
0.555979311466217 0.1311699002981186 0.4509788155555725
0.5176661014556885 0.2476198375225067 0.5418968200683594
0.4095645248889923 0.19111277163028717 0.5228317379951477
0.40923359990119934 0.2054886370897293 0.4067993462085724
0.46320170164108276 0.20450976490974426 0.5233474373817444
0.484157532453537 0.21017363667488098 0.47301146388053894
0.48577919602394104 0.23325683176517487 0.5911405682563782
0.4654243290424347 0.19158105552196503 0.5318644642829895
0.38276246190071106 0.18148641288280487 0.4702855050563812
0.5373608469963074 0.14826612174510956 0.5373666882514954
0.5079830288887024 0.2552255094051361 0.5364608764648438
0.48606064915657043 0.15937043726444244 0.42557278275489807
0.5405672788619995 0.31797105073928833 0.603721559047699
0.4138116240501404 0.1087268814444542 0.5091767311096191
0.4156683683395386 0.22990015149116516 0.5328418612480164
0.4720970094203949 0.12011576443910599 0.417608380317688
0.5583392381668091 0.20327888429164886 0.4380224049091339
0.49081870913505554 0.17372968792915344 0.4330790042877197
0.4296644330024719 0.12908923625946045 0.5493283271789551
0.42760834097862244 0.10409537702798843 0.5891215801239014
0.3818107545375824 0.14455772936344147 0.5374723076820374
0.5175896883010864 0.17517270147800446 0.5042803287506104
0.5629708766937256 0.25808846950531006 0.4940314292907715
0.4633201062679291 0.17481450736522675 0.5998966693878174
0.547663152217865 0.172184556722641 0.4910220503807068
0.42493388056755066 0.22317472100257874 0.46041983366012573
0.4928451478481293 0.2914501130580902 0.5986124277114868
0.46302616596221924 0.2863546311855316 0.41945168375968933
0.45976361632347107 0.1622510403394699 0.49652740359306335
0.39335736632347107 0.2146596759557724 0.4508141875267029
0.5601239204406738 0.23808519542217255 0.4705042839050293
0.45937514305114746 0.18467669188976288 0.5101070404052734
0.4902307391166687 0.2862212657928467 0.43997928500175476
0.5105285048484802 0.2443564236164093 0.4052552580833435
0.3792974650859833 0.1942714899778366 0.49578601121902466
0.4426421523094177 0.14460234344005585 0.4378584027290344
0.5665753483772278 0.18416793644428253 0.4342959225177765
0.39478567242622375 0.2046070694923401 0.563334047794342
0.4049297869205475 0.2257360965013504 0.6031554937362671
0.5645919442176819 0.16332076489925385 0.4767155945301056
0.44710591435432434 0.1276201456785202 0.4056780934333801
0.5037354230880737 0.24623174965381622 0.47270092368125916
0.5062204599380493 0.2713627815246582 0.5056173205375671
0.4386342167854309 0.17618301510810852 0.4354628920555115
0.5456087589263916 0.23426730930805206 0.5488623976707458
0.5441502332687378 0.19029191136360168 0.4661507308483124
0.49922215938568115 0.19446821510791779 0.46238839626312256
0.5602871179580688 0.14624106884002686 0.3967953622341156
0.5102917551994324 0.18010017275810242 0.5815256237983704
0.5086097717285156 0.23939760029315948 0.42964673042297363
0.522986650466919 0.26655998826026917 0.4348766505718231
0.5105740427970886 0.23844386637210846 0.5352938175201416
0.5315182209014893 0.13901109993457794 0.4469359219074249
0.4019308090209961 0.14429670572280884 0.5371020436286926
0.5081554651260376 0.22632324695587158 0.5187521576881409
0.47940966486930847 0.236670583486557 0.4292267858982086
0.4028133749961853 0.11995631456375122 0.44139599800109863
0.551283061504364 0.2949897050857544 0.41147294640541077
0.4655516445636749 0.2318974882364273 0.5228590369224548
0.5257080793380737 0.17337284982204437 0.4957881569862366
0.484439879655838 0.19973266124725342 0.5109795928001404
0.40923359990119934 0.2054886370897293 0.4067993462085724
0.46320170164108276 0.20450976490974426 0.5233474373817444
0.484157532453537 0.21017363667488098 0.47301146388053894
0.48424452543258667 0.17707467079162598 0.48201653361320496
0.493272066116333 0.22920234501361847 0.596566379070282
0.3792974650859833 0.1942714899778366 0.49578601121902466
0.5081554651260376 0.22632324695587158 0.5187521576881409
0.47940966486930847 0.236670583486557 0.4292267858982086
0.4028133749961853 0.11995631456375122 0.44139599800109863
0.551283061504364 0.2949897050857544 0.41147294640541077
0.4655516445636749 0.2318974882364273 0.5228590369224548
0.4440189599990845 0.19858770072460175 0.544617772102356
0.5469955205917358 0.17836761474609375 0.46765613555908203
0.4887106418609619 0.22447322309017181 0.5625235438346863
0.46383753418922424 0.22861433029174805 0.43922966718673706
0.5306453704833984 0.1525219827890396 0.48488566279411316
0.4377169907093048 0.109965980052948 0.5877440571784973
0.44513610005378723 0.22704918682575226 0.4678494930267334
0.48095548152923584 0.27012431621551514 0.43117475509643555
0.45821332931518555 0.19413627684116364 0.4110744595527649
0.48200786113739014 0.16649310290813446 0.453448623418808
0.3905163109302521 0.1123136654496193 0.5460668802261353
0.5141533017158508 0.17255869507789612 0.46428167819976807
0.39987751841545105 0.11592372506856918 0.5020079612731934
0.3740309476852417 0.1505107432603836 0.4746963083744049
0.44446778297424316 0.1575186401605606 0.5235773921012878
0.5206924080848694 0.1953447014093399 0.43681490421295166
0.4165339469909668 0.2045152187347412 0.5597661137580872
0.4552098512649536 0.13347285985946655 0.5261362791061401
0.47506099939346313 0.17972660064697266 0.6035916805267334
0.47313129901885986 0.12808002531528473 0.5923100113868713
0.45365214347839355 0.17129388451576233 0.46789678931236267
0.4992818534374237 0.23272299766540527 0.43414872884750366
0.57050621509552 0.19063827395439148 0.40359124541282654
0.47132015228271484 0.27831631898880005 0.5167414546012878
0.42480364441871643 0.20740565657615662 0.4946773052215576
0.5244761109352112 0.2643508315086365 0.4857562780380249
0.5460482239723206 0.1553640514612198 0.4588807225227356
0.4588373005390167 0.11170292645692825 0.49796321988105774
0.397305965423584 0.18294991552829742 0.5438799858093262
0.49729421734809875 0.24630016088485718 0.6008062362670898
0.42500433325767517 0.23105107247829437 0.3997930884361267
0.5434474349021912 0.1793557107448578 0.44918254017829895
0.47919130325317383 0.1767803281545639 0.5581086277961731
0.4477789103984833 0.23091910779476166 0.529026448726654
0.5479081273078918 0.12453217804431915 0.557226300239563
0.5526552796363831 0.169054314494133 0.45072150230407715
0.4001254439353943 0.2163473218679428 0.4754282236099243
0.44500434398651123 0.21126151084899902 0.4349471926689148
0.5526552796363831 0.169054314494133 0.45072150230407715
0.4001254439353943 0.2163473218679428 0.4754282236099243
0.40249377489089966 0.18287257850170135 0.5457256436347961
0.5353152751922607 0.3115667998790741 0.5496628284454346
0.46981915831565857 0.16088804602622986 0.5508414506912231
0.48044538497924805 0.263924777507782 0.4220791757106781
0.5353152751922607 0.3115667998790741 0.5496628284454346
0.46981915831565857 0.16088804602622986 0.5508414506912231
0.48044538497924805 0.263924777507782 0.4220791757106781
0.5494221448898315 0.18800128996372223 0.5710344910621643
0.44537824392318726 0.24398358166217804 0.5903452038764954
0.4737028181552887 0.22653338313102722 0.40242159366607666
0.4737028181552887 0.22653338313102722 0.40242159366607666
0.5324392914772034 0.2571447789669037 0.5378211736679077
0.5337220430374146 0.1357680857181549 0.5691978931427002
0.51981520652771 0.2946392893791199 0.4165818393230438
0.5045264363288879 0.21988892555236816 0.42841285467147827
0.4488917887210846 0.2140844166278839 0.5634157657623291
0.49540361762046814 0.15032678842544556 0.4500179588794708
0.5423639416694641 0.20927399396896362 0.47173091769218445
0.41719356179237366 0.15749868750572205 0.5739855170249939
0.5270430445671082 0.20556636154651642 0.4120214283466339
0.5102034211158752 0.2629033923149109 0.4096281826496124
0.37520304322242737 0.13441692292690277 0.519532322883606
0.45926377177238464 0.14035026729106903 0.5006893873214722
0.44857266545295715 0.16154010593891144 0.514807939529419
0.42057424783706665 0.23696185648441315 0.5387200713157654
0.4240415096282959 0.17573484778404236 0.4260290861129761
0.42590370774269104 0.19185689091682434 0.5649276971817017
0.5071300864219666 0.21665753424167633 0.43204137682914734
0.39385682344436646 0.1597197949886322 0.5392739772796631
0.3840191066265106 0.20670369267463684 0.5096649527549744
0.41711392998695374 0.22323890030384064 0.5847844481468201
0.4696718156337738 0.2012808918952942 0.515670120716095
0.5128300786018372 0.17057989537715912 0.5805917382240295
0.43184033036231995 0.18103143572807312 0.5207252502441406
0.5226441621780396 0.28902822732925415 0.428697407245636
0.44624534249305725 0.13842888176441193 0.5466870665550232
0.44960176944732666 0.23224805295467377 0.46280333399772644
0.4370990991592407 0.17334070801734924 0.5939856171607971
0.391632616519928 0.11261000484228134 0.591010570526123
0.4850006401538849 0.13045400381088257 0.5847796201705933
0.5036771893501282 0.15665172040462494 0.47750967741012573
0.38980546593666077 0.11964955180883408 0.4933057129383087
0.554609477519989 0.27292630076408386 0.4610132873058319
0.534216582775116 0.15828818082809448 0.5567823648452759
0.5053492188453674 0.22082288563251495 0.45419833064079285
0.5041815638542175 0.3061363995075226 0.5886818170547485
0.40743300318717957 0.22810272872447968 0.6056647300720215
0.41231364011764526 0.23550906777381897 0.4789533019065857
0.38781821727752686 0.19155655801296234 0.5674238801002502
0.537963330745697 0.13857918977737427 0.414126455783844
0.45518988370895386 0.20330274105072021 0.47719937562942505
0.45438021421432495 0.13552413880825043 0.4696914553642273
0.4313431978225708 0.135712131857872 0.4254070222377777
0.5623623728752136 0.18241983652114868 0.4935998320579529
0.4378173351287842 0.14745290577411652 0.4550497233867645
0.4378173351287842 0.14745290577411652 0.4550497233867645
0.4334303140640259 0.11338892579078674 0.5313661098480225
0.540569007396698 0.264640212059021 0.44146135449409485
0.56053227186203 0.22698815166950226 0.577423632144928
0.45937106013298035 0.18253284692764282 0.5146547555923462
0.5170312523841858 0.30242565274238586 0.5136935114860535
0.5594055652618408 0.14089184999465942 0.5587987899780273
0.5312550067901611 0.3143053650856018 0.4259722828865051
0.5350822806358337 0.21074379980564117 0.4354657530784607
0.5350822806358337 0.21074379980564117 0.4354657530784607
0.5449052453041077 0.2801521122455597 0.46678170561790466
0.38884666562080383 0.20729337632656097 0.46454918384552
0.39693400263786316 0.123188816010952 0.5394397974014282
0.5245205163955688 0.14536966383457184 0.404267281293869
0.5284445881843567 0.1870442032814026 0.5428103804588318
0.40304380655288696 0.1777392476797104 0.5201876163482666
0.40304380655288696 0.1777392476797104 0.5201876163482666
0.4989399015903473 0.26235559582710266 0.4963216483592987
0.37925586104393005 0.19429071247577667 0.41250544786453247
0.5427419543266296 0.1653182953596115 0.47267946600914
0.41835111379623413 0.12211742252111435 0.5021786689758301
0.4161998927593231 0.232732892036438 0.40740877389907837
0.4161998927593231 0.232732892036438 0.40740877389907837
0.4056737422943115 0.1127103716135025 0.5711015462875366
0.48869040608406067 0.1735529899597168 0.522047758102417
0.4561295807361603 0.1796795278787613 0.4496806859970093
0.571376621723175 0.23085521161556244 0.4045131504535675
0.4116891920566559 0.23539021611213684 0.48622769117355347
