ply
format ascii 1.0
element vertex 824
property float x
property float y
property float z
end_header
0.5152032375335693 0.153573140501976 0.4791862368583679
0.5533161759376526 0.23905737698078156 0.5620729327201843
0.48897334933280945 0.12556007504463196 0.5494837760925293
0.46166157722473145 0.13227435946464539 0.5466326475143433
0.4709024727344513 0.19076518714427948 0.42980411648750305
0.43649429082870483 0.15511690080165863 0.5091386437416077
0.579289436340332 0.11164341121912003 0.5914973616600037
0.5852854251861572 0.13748860359191895 0.5738657116889954
0.4991954565048218 0.11480521410703659 0.472137451171875
0.5141561627388 0.21529938280582428 0.4389330744743347
0.5077831149101257 0.10813187807798386 0.47471755743026733
0.5214152932167053 0.16443511843681335 0.5298548340797424
0.3980862498283386 0.15105383098125458 0.5943862795829773
0.4908948242664337 0.12014305591583252 0.4437668025493622
0.5530704855918884 0.15528932213783264 0.5552912354469299
0.4138743579387665 0.18965093791484833 0.5451822876930237
0.567862868309021 0.18350258469581604 0.4137223958969116
0.5228154063224792 0.13666364550590515 0.5853526592254639
0.44820457696914673 0.14792819321155548 0.4490579664707184
0.5228487849235535 0.1980084925889969 0.48729225993156433
0.5759294629096985 0.15606345236301422 0.4789145588874817
0.5425123572349548 0.2453356832265854 0.46142610907554626
0.3949947655200958 0.15886081755161285 0.585670530796051
0.5481368899345398 0.10580136626958847 0.5840560793876648
0.41524267196655273 0.11835039407014847 0.5184853076934814
0.589678943157196 0.1420883685350418 0.5640770196914673
0.4563356339931488 0.2071707546710968 0.4928515553474426
0.4504122734069824 0.25374993681907654 0.439039945602417
0.42718181014060974 0.1847245991230011 0.4378000497817993
0.46427813172340393 0.1692105233669281 0.40716081857681274
0.46760985255241394 0.15993790328502655 0.576337456703186
0.43013957142829895 0.12359503656625748 0.5355725884437561
0.5249744653701782 0.20499837398529053 0.4221089780330658
0.4188854396343231 0.10134183615446091 0.40392306447029114
0.5199008584022522 0.2460561990737915 0.5617925524711609
0.43371906876564026 0.2149358093738556 0.48408690094947815
0.5040132999420166 0.26455482840538025 0.4881724715232849
0.44487202167510986 0.1317880004644394 0.47793129086494446
0.568988561630249 0.12878762185573578 0.4040377140045166
0.45061570405960083 0.21609407663345337 0.5435505509376526
0.5055729150772095 0.15736831724643707 0.453419029712677
0.43584486842155457 0.15326112508773804 0.5067355632781982
0.47359371185302734 0.14180459082126617 0.553231954574585
0.4682825207710266 0.1397615373134613 0.3969147503376007
0.510043203830719 0.2520613372325897 0.45057106018066406
0.43994230031967163 0.14659766852855682 0.5550317764282227
0.40662717819213867 0.17339195311069489 0.5745525360107422
0.5102784633636475 0.22746123373508453 0.5337842106819153
0.520983874797821 0.2885512411594391 0.5192757844924927
0.5549538135528564 0.21112622320652008 0.42316409945487976
0.45964357256889343 0.2529561221599579 0.4576394259929657
0.4525996446609497 0.19141250848770142 0.47952404618263245
0.3980862498283386 0.15105383098125458 0.5943862795829773
0.4908948242664337 0.12014305591583252 0.4437668025493622
0.5530704855918884 0.15528932213783264 0.5552912354469299
0.4138743579387665 0.18965093791484833 0.5451822876930237
0.567862868309021 0.18350258469581604 0.4137223958969116
0.4610975980758667 0.13133472204208374 0.45152047276496887
0.4980875849723816 0.10364989936351776 0.5847314596176147
0.5080698132514954 0.16602635383605957 0.42964762449264526
0.45559394359588623 0.10238751024007797 0.4722515940666199
0.4343489408493042 0.10598141700029373 0.5702508687973022
0.5331815481185913 0.21495388448238373 0.42256876826286316
0.4306970238685608 0.20299823582172394 0.5743749141693115
0.43258506059646606 0.22441408038139343 0.5019984245300293
0.5525524020195007 0.16305361688137054 0.41207417845726013
0.5145910382270813 0.25632166862487793 0.5588740706443787
0.4553978741168976 0.10709833353757858 0.5495170950889587
0.6020462512969971 0.12855525314807892 0.5502241253852844
0.5086185932159424 0.18723595142364502 0.575471043586731
0.40677157044410706 0.1264256238937378 0.47314581274986267
0.4685007929801941 0.11384107172489166 0.5574125647544861
0.5370796322822571 0.29774540662765503 0.42647168040275574
0.5258040428161621 0.27204039692878723 0.5071335434913635
0.48709961771965027 0.1012793704867363 0.5035470128059387
0.41357946395874023 0.10615749657154083 0.5952839851379395
0.4120342433452606 0.2009304016828537 0.44407331943511963
0.5097364783287048 0.11768966168165207 0.5458213686943054
0.4593837261199951 0.22774699330329895 0.6059175729751587
0.4332320988178253 0.1787901371717453 0.4895295798778534
0.404849648475647 0.10398329049348831 0.4337002635002136
0.4188699424266815 0.19225500524044037 0.4230200946331024
0.5296484231948853 0.19337522983551025 0.424048513174057
0.5143656730651855 0.13942401111125946 0.40348702669143677
0.46284863352775574 0.17169173061847687 0.5280991792678833
0.5253649950027466 0.14153511822223663 0.42661842703819275
0.42650318145751953 0.18150345981121063 0.5658350586891174
0.49609825015068054 0.2548326849937439 0.4561164081096649
0.46248671412467957 0.12110480666160583 0.4252578020095825
0.5199008584022522 0.2460561990737915 0.5617925524711609
0.5617707371711731 0.13258518278598785 0.49428194761276245
0.5606210231781006 0.13144931197166443 0.5638713240623474
0.49186140298843384 0.11928610503673553 0.5963407754898071
0.4306970238685608 0.20299823582172394 0.5743749141693115
0.43258506059646606 0.22441408038139343 0.5019984245300293
0.5525524020195007 0.16305361688137054 0.41207417845726013
0.40199121832847595 0.1014857143163681 0.4007740318775177
0.401204377412796 0.19650007784366608 0.4219871759414673
0.47970616817474365 0.13224825263023376 0.42812737822532654
0.5608126521110535 0.1411202847957611 0.5066385865211487
0.4778924286365509 0.2637852728366852 0.4206501841545105
0.47545352578163147 0.15250694751739502 0.5190916657447815
0.4332320988178253 0.1787901371717453 0.4895295798778534
0.404849648475647 0.10398329049348831 0.4337002635002136
0.4188699424266815 0.19225500524044037 0.4230200946331024
0.5296484231948853 0.19337522983551025 0.424048513174057
0.5143656730651855 0.13942401111125946 0.40348702669143677
0.41113731265068054 0.19754111766815186 0.6024006009101868
0.42650318145751953 0.18150345981121063 0.5658350586891174
0.49609825015068054 0.2548326849937439 0.4561164081096649
0.46248671412467957 0.12110480666160583 0.4252578020095825
0.433534175157547 0.13539834320545197 0.5070124268531799
0.5232036113739014 0.11291961371898651 0.593026876449585
0.48886749148368835 0.2623828947544098 0.574897825717926
0.4599422812461853 0.25210893154144287 0.5236426591873169
0.5452786684036255 0.19331669807434082 0.4331344962120056
0.4601663649082184 0.22893822193145752 0.4487374722957611
0.5554700493812561 0.14954757690429688 0.5851608514785767
0.41254016757011414 0.19712601602077484 0.5523229837417603
0.476000040769577 0.18679074943065643 0.5973868370056152
0.5350319743156433 0.2527860701084137 0.44229650497436523
0.4709024727344513 0.19076518714427948 0.42980411648750305
0.5481368899345398 0.10580136626958847 0.5840560793876648
0.41524267196655273 0.11835039407014847 0.5184853076934814
0.5157933235168457 0.2127895951271057 0.4724366068840027
0.528445839881897 0.2784191370010376 0.5382030010223389
0.4946974217891693 0.12055157124996185 0.45609524846076965
0.4258143901824951 0.15625260770320892 0.5222285389900208
0.39241841435432434 0.159318745136261 0.49676379561424255
0.43900227546691895 0.17335185408592224 0.4158100485801697
0.5618827939033508 0.19760209321975708 0.5392518043518066
0.519741952419281 0.10231860727071762 0.5566768646240234
0.5082579851150513 0.23368975520133972 0.5099963545799255
0.5110006928443909 0.15203164517879486 0.569770872592926
0.6011380553245544 0.1316632181406021 0.5209680795669556
0.46687519550323486 0.13558124005794525 0.547020673751831
0.5257171988487244 0.2953442335128784 0.49283161759376526
0.5331193208694458 0.12153906375169754 0.4791117310523987
0.5092571973800659 0.2951832711696625 0.468371719121933
0.5038703083992004 0.25044167041778564 0.5623475909233093
0.44977518916130066 0.1639183610677719 0.5694868564605713
0.49182599782943726 0.1847892850637436 0.4663437604904175
0.44083988666534424 0.12903501093387604 0.571303129196167
0.5232036113739014 0.11291961371898651 0.593026876449585
0.48886749148368835 0.2623828947544098 0.574897825717926
0.4599422812461853 0.25210893154144287 0.5236426591873169
0.5452786684036255 0.19331669807434082 0.4331344962120056
0.4601663649082184 0.22893822193145752 0.4487374722957611
0.5554700493812561 0.14954757690429688 0.5851608514785767
0.41254016757011414 0.19712601602077484 0.5523229837417603
0.4962288439273834 0.11254513263702393 0.48402366042137146
0.5350319743156433 0.2527860701084137 0.44229650497436523
0.46051597595214844 0.1525978147983551 0.5813059210777283
0.5464717149734497 0.11180873215198517 0.5010131597518921
0.40310078859329224 0.11876020580530167 0.5310120582580566
0.49014750123023987 0.24730393290519714 0.4849590063095093
0.4539409279823303 0.11336196959018707 0.4686015546321869
0.4219036102294922 0.10006222128868103 0.44310036301612854
0.4882687032222748 0.1206313893198967 0.4197706878185272
0.41448989510536194 0.1288776844739914 0.5427748560905457
0.5131657719612122 0.2734556794166565 0.604140043258667
0.5617707371711731 0.13258518278598785 0.49428194761276245
0.5606210231781006 0.13144931197166443 0.5638713240623474
0.5338459014892578 0.28140243887901306 0.4914809465408325
0.4303235709667206 0.11012487858533859 0.44540151953697205
0.5167367458343506 0.139424130320549 0.5501389503479004
0.41408276557922363 0.11087587475776672 0.5479933619499207
0.4684217572212219 0.1409182846546173 0.48911425471305847
0.4258143901824951 0.15625260770320892 0.5222285389900208
0.39241841435432434 0.159318745136261 0.49676379561424255
0.43900227546691895 0.17335185408592224 0.4158100485801697
0.5460608601570129 0.14922867715358734 0.4955146312713623
0.49710699915885925 0.16880284249782562 0.5100510120391846
0.4216287434101105 0.17072804272174835 0.41177988052368164
0.47499412298202515 0.17245960235595703 0.5221544504165649
0.49390509724617004 0.17832671105861664 0.4743969440460205
0.5033225417137146 0.14767393469810486 0.48208123445510864
0.4977291524410248 0.19914843142032623 0.5931422114372253
0.46731218695640564 0.18265879154205322 0.5528181195259094
0.43849068880081177 0.14198178052902222 0.5841413736343384
0.5296249985694885 0.1102830097079277 0.516305685043335
0.50089430809021 0.12967388331890106 0.4575885832309723
0.5262523889541626 0.2705044448375702 0.45742374658584595
0.5423403382301331 0.2401612401008606 0.4119566082954407
0.49889466166496277 0.20650987327098846 0.4845755696296692
0.41476792097091675 0.12011098116636276 0.3986600637435913
0.5099915862083435 0.20944158732891083 0.4334200322628021
0.5195621848106384 0.23893985152244568 0.4386482536792755
0.5132920742034912 0.20935951173305511 0.5336470603942871
0.5610421895980835 0.12022260576486588 0.4472786784172058
0.4286278784275055 0.1185091957449913 0.5347627401351929
0.513455331325531 0.19689926505088806 0.5177236795425415
0.48257747292518616 0.2058340162038803 0.4337306022644043
0.43262892961502075 0.10439550131559372 0.4400211274623871
0.5438608527183533 0.27106407284736633 0.4155485928058624
0.4714270234107971 0.20053303241729736 0.5223278999328613
0.5460608601570129 0.14922867715358734 0.4955146312713623
0.49710699915885925 0.16880284249782562 0.5100510120391846
0.4216287434101105 0.17072804272174835 0.41177988052368164
0.47499412298202515 0.17245960235595703 0.5221544504165649
0.49390509724617004 0.17832671105861664 0.4743969440460205
0.5033225417137146 0.14767393469810486 0.48208123445510864
0.4977291524410248 0.19914843142032623 0.5931422114372253
0.46731218695640564 0.18265879154205322 0.5528181195259094
0.43849068880081177 0.14198178052902222 0.5841413736343384
0.5296249985694885 0.1102830097079277 0.516305685043335
0.5348106622695923 0.23920737206935883 0.5532232522964478
0.5555094480514526 0.17327259480953217 0.4025191366672516
0.5304563641548157 0.20746202766895294 0.5889617204666138
0.5585994124412537 0.19942303001880646 0.5485711693763733
0.4464038908481598 0.19471071660518646 0.5727251172065735
0.4042784571647644 0.19228577613830566 0.42247217893600464
0.5736192464828491 0.18051515519618988 0.5731440186500549
0.4148769676685333 0.1706244945526123 0.5185235142707825
0.486678808927536 0.13255514204502106 0.5542131662368774
0.3943118453025818 0.1899244785308838 0.4223412573337555
0.46613118052482605 0.11469696462154388 0.4300050139427185
0.41484394669532776 0.14018195867538452 0.5716040134429932
0.5095875859260559 0.25795671343803406 0.4227553606033325
0.49050742387771606 0.24826931953430176 0.5352227687835693
0.538786768913269 0.16030113399028778 0.4484240412712097
0.5692898631095886 0.18742430210113525 0.5344296097755432
0.41973942518234253 0.10640695691108704 0.48805466294288635
0.493787556886673 0.2082846313714981 0.5793759822845459
0.4803279936313629 0.23849929869174957 0.4298597276210785
0.4112180769443512 0.09781503677368164 0.5009163618087769
0.5324200391769409 0.1134183406829834 0.5322571396827698
0.5309302806854248 0.24387946724891663 0.43571895360946655
0.4269586503505707 0.14234405755996704 0.4828309714794159
0.4152151644229889 0.13649140298366547 0.5274023413658142
0.5812467336654663 0.14682090282440186 0.45640328526496887
0.4434215724468231 0.10854128748178482 0.5222571492195129
0.5182961225509644 0.2809033691883087 0.6027930378913879
0.5640020370483398 0.2245592623949051 0.5142744183540344
0.5303139090538025 0.183540940284729 0.5309380888938904
0.4406038522720337 0.1697211116552353 0.541496217250824
0.41231197118759155 0.18687762320041656 0.5118535757064819
0.5939846038818359 0.11642346531152725 0.5108007192611694
0.47911208868026733 0.19525204598903656 0.5721473097801208
0.530473530292511 0.2575816214084625 0.4206671118736267
0.3919285535812378 0.16492006182670593 0.5120052099227905
0.5757550597190857 0.16898973286151886 0.45146170258522034
0.5125092267990112 0.20650917291641235 0.5837774276733398
0.5041154026985168 0.1956886649131775 0.5517933964729309
0.4280683994293213 0.12723976373672485 0.47138679027557373
0.4546765685081482 0.12414374947547913 0.4394160211086273
0.5006648302078247 0.2140386998653412 0.485804945230484
0.587999165058136 0.1176566556096077 0.4508799910545349
0.5187132358551025 0.21919210255146027 0.5401286482810974
0.5088251233100891 0.13229946792125702 0.39349669218063354
0.4482704997062683 0.14366735517978668 0.5254309773445129
0.570120632648468 0.1261928230524063 0.5222185254096985
0.41288164258003235 0.15174978971481323 0.5896718502044678
0.5278393626213074 0.1385800987482071 0.4291556477546692
0.5061309933662415 0.11515796184539795 0.4525643289089203
0.4236026704311371 0.20417292416095734 0.4471946954727173
0.5854714512825012 0.12312907725572586 0.4352560043334961
0.5488095283508301 0.1526380032300949 0.5504932999610901
0.4654551148414612 0.11329254508018494 0.42257794737815857
0.4154788553714752 0.18067485094070435 0.4292164742946625
0.449361115694046 0.2257983535528183 0.5459814667701721
0.5615194439888 0.11976809054613113 0.5338592529296875
0.4750766456127167 0.12108104676008224 0.5396960973739624
0.4071952998638153 0.11161433160305023 0.48597264289855957
0.42424094676971436 0.11149574816226959 0.5184874534606934
0.43901705741882324 0.2183716893196106 0.43082520365715027
0.44758710265159607 0.16251744329929352 0.4086737334728241
0.4488556683063507 0.10525281727313995 0.556511402130127
0.5540431141853333 0.23202325403690338 0.5343635678291321
0.5465893745422363 0.11174961924552917 0.5434538722038269
0.5901162028312683 0.14672508835792542 0.45233482122421265
0.4423648715019226 0.17507100105285645 0.5396857261657715
0.5266348123550415 0.10374344140291214 0.46530190110206604
0.45728635787963867 0.230567067861557 0.5146139860153198
0.42285990715026855 0.10360799729824066 0.5809299349784851
0.45377102494239807 0.17437861859798431 0.49529674649238586
0.4002820551395416 0.1607733815908432 0.41589269042015076
0.470193475484848 0.1641654223203659 0.4406355619430542
0.511417806148529 0.16550445556640625 0.4138507544994354
0.514997124671936 0.10813082754611969 0.42226871848106384
0.46953627467155457 0.11904622614383698 0.4379706382751465
0.5086185932159424 0.18723595142364502 0.575471043586731
0.46731218695640564 0.18265879154205322 0.5528181195259094
0.4721488952636719 0.16715402901172638 0.47901666164398193
0.5694549083709717 0.11901778727769852 0.40610262751579285
0.4535544812679291 0.11842230707406998 0.5194472074508667
0.5910897254943848 0.11352124810218811 0.5745278596878052
0.4967765212059021 0.12407664954662323 0.5585572719573975
0.49807989597320557 0.170906201004982 0.5449186563491821
0.46297764778137207 0.12798121571540833 0.4779123067855835
0.4835350811481476 0.11904416978359222 0.4997902512550354
0.4430999159812927 0.1132393628358841 0.3981148898601532
0.4154045581817627 0.10804007947444916 0.5493547916412354
0.5498979687690735 0.21033897995948792 0.5645973086357117
0.49863624572753906 0.20750276744365692 0.5846741199493408
0.46941399574279785 0.10562771558761597 0.41040337085723877
0.47191551327705383 0.11629194021224976 0.5412089228630066
0.5076180100440979 0.21448957920074463 0.4226257801055908
0.5170584917068481 0.20131643116474152 0.5133505463600159
0.4406125247478485 0.10894925892353058 0.39953190088272095
0.46580278873443604 0.12319140136241913 0.49000295996665955
0.4859742522239685 0.13307422399520874 0.41317498683929443
0.5902578830718994 0.10712108761072159 0.5728516578674316
0.5014610886573792 0.10334254801273346 0.4603618085384369
0.4302055239677429 0.10846064984798431 0.47426143288612366
0.5523697733879089 0.1153680831193924 0.4245752990245819
0.571639895439148 0.21046213805675507 0.5655558109283447
0.5041154026985168 0.1956886649131775 0.5517933964729309
0.4280683994293213 0.12723976373672485 0.47138679027557373
0.4546765685081482 0.12414374947547913 0.4394160211086273
0.5006648302078247 0.2140386998653412 0.485804945230484
0.587999165058136 0.1176566556096077 0.4508799910545349
0.5187132358551025 0.21919210255146027 0.5401286482810974
0.4258143901824951 0.15625260770320892 0.5222285389900208
0.4216287434101105 0.17072804272174835 0.41177988052368164
0.47499412298202515 0.17245960235595703 0.5221544504165649
0.49390509724617004 0.17832671105861664 0.4743969440460205
0.48978161811828613 0.20277923345565796 0.587835431098938
0.4803084433078766 0.16060620546340942 0.5300467014312744
0.4005630910396576 0.1454964131116867 0.47209692001342773
0.5655994415283203 0.13107846677303314 0.5358558893203735
0.5081400275230408 0.226074680685997 0.5351852774620056
0.5096167325973511 0.13269850611686707 0.4264110326766968
0.5349894762039185 0.28971385955810547 0.6030574440956116
0.4467959702014923 0.1001153439283371 0.5069273114204407
0.4207349717617035 0.19940395653247833 0.532173752784729
0.5042847990989685 0.10650724172592163 0.4159132242202759
0.567664384841919 0.1814846396446228 0.4403870701789856
0.5103466510772705 0.14485019445419312 0.43459591269493103
0.45954272150993347 0.11157948523759842 0.5471922159194946
0.46120890974998474 0.09820092469453812 0.588169515132904
0.40813109278678894 0.1179109439253807 0.5353115797042847
0.5374279022216797 0.14990998804569244 0.5036406517028809
0.561716616153717 0.2345844954252243 0.4945604205131531
0.48113369941711426 0.14742577075958252 0.5970121026039124
0.5681970715522766 0.15210427343845367 0.49091365933418274
0.43256905674934387 0.19112369418144226 0.46380141377449036
0.4899879992008209 0.26125627756118774 0.5965282320976257
0.4575950801372528 0.26139095425605774 0.42468327283859253
0.4828963279724121 0.13416838645935059 0.4957435131072998
0.4011845886707306 0.1813979297876358 0.4544205367565155
0.5614524483680725 0.2151845097541809 0.471962571144104
0.47640615701675415 0.15322984755039215 0.5091086030006409
0.4859940707683563 0.2582486867904663 0.4446745812892914
0.5106713771820068 0.21438761055469513 0.4095708429813385
0.39241841435432434 0.159318745136261 0.49676379561424255
0.46953627467155457 0.11904622614383698 0.4379706382751465
0.5815029144287109 0.16552101075649261 0.4362033009529114
0.4059326946735382 0.17062006890773773 0.5616055727005005
0.409944623708725 0.19426310062408447 0.6001284122467041
0.5877321362495422 0.1475234180688858 0.4768451452255249
0.47684308886528015 0.10997991263866425 0.40364599227905273
0.5046564340591431 0.21660086512565613 0.4748460650444031
0.5042543411254883 0.24247947335243225 0.5064706206321716
0.4584825038909912 0.14236892759799957 0.43762266635894775
0.5487037897109985 0.20943714678287506 0.5465037226676941
0.5583789348602295 0.16679614782333374 0.4672349691390991
0.512857973575592 0.1642141193151474 0.4636797606945038
0.5863043069839478 0.1298723667860031 0.3972879648208618
0.5271912217140198 0.15561075508594513 0.5787032246589661
0.5099915862083435 0.20944158732891083 0.4334200322628021
0.5195621848106384 0.23893985152244568 0.4386482536792755
0.5132920742034912 0.20935951173305511 0.5336470603942871
0.5610421895980835 0.12022260576486588 0.4472786784172058
0.4286278784275055 0.1185091957449913 0.5347627401351929
0.513455331325531 0.19689926505088806 0.5177236795425415
0.48257747292518616 0.2058340162038803 0.4337306022644043
0.43262892961502075 0.10439550131559372 0.4400211274623871
0.5438608527183533 0.27106407284736633 0.4155485928058624
0.4714270234107971 0.20053303241729736 0.5223278999328613
0.5460608601570129 0.14922867715358734 0.4955146312713623
0.49710699915885925 0.16880284249782562 0.5100510120391846
0.4216287434101105 0.17072804272174835 0.41177988052368164
0.47499412298202515 0.17245960235595703 0.5221544504165649
0.49390509724617004 0.17832671105861664 0.4743969440460205
0.5033225417137146 0.14767393469810486 0.48208123445510864
0.4977291524410248 0.19914843142032623 0.5931422114372253
0.39241841435432434 0.159318745136261 0.49676379561424255
0.513455331325531 0.19689926505088806 0.5177236795425415
0.48257747292518616 0.2058340162038803 0.4337306022644043
0.43262892961502075 0.10439550131559372 0.4400211274623871
0.5438608527183533 0.27106407284736633 0.4155485928058624
0.4714270234107971 0.20053303241729736 0.5223278999328613
0.4575458765029907 0.16613350808620453 0.5427183508872986
0.5650609135627747 0.15661098062992096 0.46849530935287476
0.4946638345718384 0.19414331018924713 0.5597295761108398
0.4694230556488037 0.19720116257667542 0.4434664249420166
0.5573797225952148 0.13184435665607452 0.48492559790611267
0.4705677628517151 0.1018361747264862 0.5870633125305176
0.45211970806121826 0.19542597234249115 0.4708000123500824
0.47892752289772034 0.24179792404174805 0.4361606538295746
0.4727807939052582 0.16108804941177368 0.41454464197158813
0.503930926322937 0.13815152645111084 0.4542749524116516
0.42248955368995667 0.101678267121315 0.5431824326515198
0.5342817306518555 0.14618341624736786 0.46501925587654114
0.4310641586780548 0.10306975245475769 0.4998391568660736
0.39842867851257324 0.12057290971279144 0.47473612427711487
0.46849575638771057 0.13030490279197693 0.5217835307121277
0.533164918422699 0.16736313700675964 0.43912163376808167
0.42882871627807617 0.1708509474992752 0.5578762888908386
0.48528316617012024 0.11485594511032104 0.5245600938796997
0.4914526641368866 0.15252718329429626 0.6006647944450378
0.5033766031265259 0.11366799473762512 0.5921874046325684
0.47452592849731445 0.13997921347618103 0.46860456466674805
0.5024467706680298 0.2019951194524765 0.4378271698951721
0.5827847719192505 0.17236240208148956 0.40614044666290283
0.4698941111564636 0.24980515241622925 0.5175549387931824
0.4370570182800293 0.17337557673454285 0.49569594860076904
0.5225366950035095 0.23668941855430603 0.4873347282409668
0.5712224841117859 0.13575634360313416 0.4594990909099579
0.4935791492462158 0.10247832536697388 0.49674081802368164
0.41532501578330994 0.1481418013572693 0.5425426363945007
0.4986998736858368 0.2161625176668167 0.5975778698921204
0.42942872643470764 0.20148572325706482 0.4053710997104645
0.5607194304466248 0.15635612607002258 0.4506480395793915
0.49742913246154785 0.14954239130020142 0.5555660724639893
0.4541635513305664 0.19977301359176636 0.528413712978363
0.582951545715332 0.11445506662130356 0.5562909841537476
0.5731654763221741 0.14890146255493164 0.45184266567230225
0.4081149399280548 0.18344537913799286 0.47777050733566284
0.4557216167449951 0.17764241993427277 0.43903180956840515
0.5731654763221741 0.14890146255493164 0.45184266567230225
0.4081149399280548 0.18344537913799286 0.47777050733566284
0.4206567704677582 0.1482858955860138 0.5442222356796265
0.5297465920448303 0.2850263714790344 0.549416720867157
0.49264365434646606 0.13564220070838928 0.5487060546875
0.47914764285087585 0.23528486490249634 0.42724326252937317
0.5297465920448303 0.2850263714790344 0.549416720867157
0.49264365434646606 0.13564220070838928 0.5487060546875
0.47914764285087585 0.23528486490249634 0.42724326252937317
0.5642117261886597 0.16815327107906342 0.5679224133491516
0.44810375571250916 0.2145613729953766 0.5874535441398621
0.47899743914604187 0.19508862495422363 0.40741753578186035
0.47899743914604187 0.19508862495422363 0.40741753578186035
0.5318683385848999 0.23029792308807373 0.5364102125167847
0.5649769902229309 0.12148593366146088 0.5681850910186768
0.5131658911705017 0.26791101694107056 0.42106008529663086
0.5105134844779968 0.18920455873012543 0.43184247612953186
0.4583377242088318 0.18221354484558105 0.5609957575798035
0.5218426585197449 0.12628084421157837 0.45044028759002686
0.5510507822036743 0.18424451351165771 0.4728372395038605
0.44083988666534424 0.12903501093387604 0.571303129196167
0.5361278653144836 0.1778128743171692 0.415156751871109
0.5073296427726746 0.23395918309688568 0.41411277651786804
0.40297210216522217 0.11152543872594833 0.5174750089645386
0.48795485496520996 0.11871196329593658 0.4995798170566559
0.4716976284980774 0.13336803019046783 0.5133202075958252
0.4238531291484833 0.20762676000595093 0.5377733707427979
0.4443015456199646 0.14084410667419434 0.4285357594490051
0.4412006437778473 0.1587119847536087 0.5625576972961426
0.5139138102531433 0.18625769019126892 0.4352357089519501
0.41741645336151123 0.1285172402858734 0.5374132990837097
0.39343324303627014 0.17302270233631134 0.5100471377372742
0.4237431287765503 0.19155946373939514 0.5821161270141602
0.4821515679359436 0.1694919615983963 0.5146767497062683
0.5327125787734985 0.1478317528963089 0.5781169533729553
0.45021548867225647 0.1481269896030426 0.5195028185844421
0.5166230797767639 0.26237112283706665 0.4329458475112915
0.47457537055015564 0.11798348277807236 0.5447679758071899
0.45515355467796326 0.20133443176746368 0.4661295711994171
0.45603927969932556 0.14340095221996307 0.5909407734870911
0.42332151532173157 0.10197621583938599 0.588604748249054
0.5154540538787842 0.11559204757213593 0.5844987630844116
0.5287993550300598 0.13225959241390228 0.47757816314697266
0.4200024902820587 0.10436209291219711 0.49134692549705505
0.5505284667015076 0.2486937791109085 0.46366074681282043
0.5588629841804504 0.13950534164905548 0.5547364354133606
0.5114300847053528 0.19042333960533142 0.45662665367126465
0.49999845027923584 0.27628785371780396 0.5873216986656189
0.41192254424095154 0.1969827562570572 0.6025673151016235
0.4149233102798462 0.2062550187110901 0.481216162443161
0.40248093008995056 0.15664806962013245 0.565705418586731
0.5666769742965698 0.12037396430969238 0.4143890142440796
0.4676665663719177 0.16995300352573395 0.47857609391212463
0.48387518525123596 0.11460713297128677 0.46926045417785645
0.4594895541667938 0.11322843283414841 0.4247797727584839
0.5793607234954834 0.16469505429267883 0.4933028519153595
0.46421730518341064 0.12070201337337494 0.4552273750305176
0.46421730518341064 0.12070201337337494 0.4552273750305176
0.4666329324245453 0.10322380065917969 0.529446005821228
0.5371413230895996 0.2387884110212326 0.4447622001171112
0.5650568008422852 0.2045065462589264 0.5742339491844177
0.4769323766231537 0.15146565437316895 0.5134181380271912
0.5120444893836975 0.27491989731788635 0.5148463845252991
0.5897855162620544 0.12891699373722076 0.5569918751716614
0.5231657028198242 0.28885143995285034 0.43038803339004517
0.5427587628364563 0.1841859370470047 0.43820133805274963
0.5427587628364563 0.1841859370470047 0.43820133805274963
0.5403892993927002 0.25494125485420227 0.46949923038482666
0.3987833559513092 0.17298336327075958 0.4673382043838501
0.42727863788604736 0.10686368495225906 0.5367206335067749
0.5513232946395874 0.12457158416509628 0.40440836548805237
0.5440983176231384 0.16314980387687683 0.5404937863349915
0.4226613938808441 0.14315085113048553 0.5193947553634644
0.4226613938808441 0.14315085113048553 0.5193947553634644
0.49818289279937744 0.23300319910049438 0.49757832288742065
0.3926456570625305 0.15904439985752106 0.41699275374412537
0.5651916861534119 0.14435337483882904 0.4731697738170624
0.44927218556404114 0.10667791217565536 0.5003088116645813
0.4195164442062378 0.20343036949634552 0.4127105176448822
0.4195164442062378 0.20343036949634552 0.4127105176448822
0.43776291608810425 0.10241717845201492 0.5686968564987183
0.508716881275177 0.14624673128128052 0.5205393433570862
0.4747373163700104 0.1470872163772583 0.45137476921081543
0.5729507803916931 0.20990586280822754 0.40797433257102966
0.41432416439056396 0.20613251626491547 0.4880644977092743
0.42517542839050293 0.13155333697795868 0.4214093089103699
0.5138254761695862 0.23167076706886292 0.5626919865608215
0.413794606924057 0.10212238878011703 0.3897015154361725
0.4964032471179962 0.1556798219680786 0.5432974100112915
0.4596385359764099 0.1725601851940155 0.45907601714134216
0.43389004468917847 0.14284729957580566 0.5441744327545166
0.533358097076416 0.12288681417703629 0.539389431476593
0.5249983072280884 0.11800900101661682 0.4202975630760193
0.5085040926933289 0.13706588745117188 0.5962235331535339
0.47779062390327454 0.22740893065929413 0.5158472061157227
0.5586551427841187 0.1450047791004181 0.4794428050518036
0.5456516146659851 0.12290037423372269 0.4018232524394989
0.5722814798355103 0.1952398419380188 0.41331788897514343
0.5512844324111938 0.150058776140213 0.5488600134849548
0.5148653984069824 0.27874070405960083 0.6039714217185974
0.529634952545166 0.13655883073806763 0.41466328501701355
0.49957773089408875 0.10895364731550217 0.5738350749015808
0.4505262076854706 0.17947858572006226 0.5728051662445068
0.5752230882644653 0.18211546540260315 0.4683065116405487
0.5934801697731018 0.1391655057668686 0.4770304262638092
0.5354285836219788 0.22008591890335083 0.4824346899986267
0.4057391583919525 0.10501363128423691 0.41402387619018555
0.6036701202392578 0.12235721200704575 0.4810713231563568
0.4346621036529541 0.17548975348472595 0.41334208846092224
0.41428226232528687 0.1302262544631958 0.5511218309402466
0.41421183943748474 0.19070976972579956 0.5458534359931946
0.43159613013267517 0.10209588706493378 0.42928051948547363
0.6013728976249695 0.12548887729644775 0.5115616917610168
0.5357545614242554 0.10550879687070847 0.46278563141822815
0.5261221528053284 0.17275606095790863 0.44988054037094116
0.515043318271637 0.21406278014183044 0.5953200459480286
0.5877321362495422 0.1475234180688858 0.4768451452255249
0.39343324303627014 0.17302270233631134 0.5100471377372742
0.4237431287765503 0.19155946373939514 0.5821161270141602
0.4821515679359436 0.1694919615983963 0.5146767497062683
0.5327125787734985 0.1478317528963089 0.5781169533729553
0.45021548867225647 0.1481269896030426 0.5195028185844421
0.5166230797767639 0.26237112283706665 0.4329458475112915
0.5332391262054443 0.15773341059684753 0.5162484049797058
0.45603927969932556 0.14340095221996307 0.5909407734870911
0.42332151532173157 0.10197621583938599 0.588604748249054
0.5154540538787842 0.11559204757213593 0.5844987630844116
0.5287993550300598 0.13225959241390228 0.47757816314697266
0.4200024902820587 0.10436209291219711 0.49134692549705505
0.5505284667015076 0.2486937791109085 0.46366074681282043
0.5588629841804504 0.13950534164905548 0.5547364354133606
0.5114300847053528 0.19042333960533142 0.45662665367126465
0.49999845027923584 0.27628785371780396 0.5873216986656189
0.5100282430648804 0.274058997631073 0.4158974289894104
0.5654328465461731 0.11738482862710953 0.40216511487960815
0.5492064952850342 0.14628730714321136 0.5211710333824158
0.5433351993560791 0.13952146470546722 0.5030255317687988
0.43187275528907776 0.15156587958335876 0.5841425657272339
0.4209693670272827 0.1326630413532257 0.43780770897865295
0.4090774655342102 0.1665686070919037 0.5211464166641235
0.4602740705013275 0.10289336740970612 0.5465068817138672
0.5686368346214294 0.10790455341339111 0.45733344554901123
0.39049023389816284 0.16663998365402222 0.5148266553878784
0.405643492937088 0.17746131122112274 0.5672173500061035
0.5387858748435974 0.25993165373802185 0.5483699440956116
0.5295471549034119 0.1441655308008194 0.5882453918457031
0.48709774017333984 0.11936380714178085 0.5309600234031677
0.5641818642616272 0.15602916479110718 0.4814370274543762
0.503930926322937 0.13815152645111084 0.4542749524116516
0.5187801718711853 0.2403590828180313 0.5994870066642761
0.48756927251815796 0.16553479433059692 0.46751177310943604
0.48387518525123596 0.11460713297128677 0.46926045417785645
0.4594895541667938 0.11322843283414841 0.4247797727584839
0.5793607234954834 0.16469505429267883 0.4933028519153595
0.46421730518341064 0.12070201337337494 0.4552273750305176
0.4666329324245453 0.10322380065917969 0.529446005821228
0.5371413230895996 0.2387884110212326 0.4447622001171112
0.5650568008422852 0.2045065462589264 0.5742339491844177
0.4769323766231537 0.15146565437316895 0.5134181380271912
0.5120444893836975 0.27491989731788635 0.5148463845252991
0.5897855162620544 0.12891699373722076 0.5569918751716614
0.5231657028198242 0.28885143995285034 0.43038803339004517
0.5427587628364563 0.1841859370470047 0.43820133805274963
0.5403892993927002 0.25494125485420227 0.46949923038482666
0.3987833559513092 0.17298336327075958 0.4673382043838501
0.42727863788604736 0.10686368495225906 0.5367206335067749
0.5513232946395874 0.12457158416509628 0.40440836548805237
0.5440983176231384 0.16314980387687683 0.5404937863349915
0.4226613938808441 0.14315085113048553 0.5193947553634644
0.49818289279937744 0.23300319910049438 0.49757832288742065
0.3926456570625305 0.15904439985752106 0.41699275374412537
0.5651916861534119 0.14435337483882904 0.4731697738170624
0.44927218556404114 0.10667791217565536 0.5003088116645813
0.4195164442062378 0.20343036949634552 0.4127105176448822
0.43776291608810425 0.10241717845201492 0.5686968564987183
0.508716881275177 0.14624673128128052 0.5205393433570862
0.4747373163700104 0.1470872163772583 0.45137476921081543
0.44782817363739014 0.24169117212295532 0.5144938230514526
0.4457048177719116 0.11712904274463654 0.41054144501686096
0.5609067678451538 0.1553640365600586 0.5024212002754211
0.45954272150993347 0.11157948523759842 0.5471922159194946
0.5187132358551025 0.21919210255146027 0.5401286482810974
0.41249531507492065 0.18422876298427582 0.4322592616081238
0.4209655225276947 0.1161850243806839 0.6012944579124451
0.4800843596458435 0.23679041862487793 0.4739920198917389
0.4837667644023895 0.1651371866464615 0.4423356056213379
0.40028315782546997 0.18182848393917084 0.6088311076164246
0.5409344434738159 0.27493953704833984 0.5417899489402771
0.5602902770042419 0.17058967053890228 0.4832007586956024
0.5322377681732178 0.24153047800064087 0.5839711427688599
0.5492487549781799 0.1771688461303711 0.5248755216598511
0.5767051577568054 0.15167976915836334 0.4545899033546448
0.5045075416564941 0.2876189053058624 0.4821133017539978
0.48545172810554504 0.17143891751766205 0.4862325191497803
0.5035838484764099 0.219440296292305 0.47439998388290405
0.4220345914363861 0.13395749032497406 0.6032872200012207
0.42955899238586426 0.11182596534490585 0.4006381034851074
0.41861119866371155 0.15154045820236206 0.4267215132713318
0.5157129764556885 0.2274521440267563 0.4493352174758911
0.535399854183197 0.11507794260978699 0.5132088661193848
0.4415833652019501 0.12283419817686081 0.551967442035675
0.5329141616821289 0.15318097174167633 0.5586711764335632
0.4589083790779114 0.0972745269536972 0.5769229531288147
0.46760624647140503 0.16702505946159363 0.46337151527404785
0.45781418681144714 0.2663439214229584 0.42946484684944153
0.4877874255180359 0.18257790803909302 0.539448618888855
0.513934314250946 0.1729573756456375 0.5758518576622009
0.46572670340538025 0.21704305708408356 0.4524500370025635
0.44473496079444885 0.1509745568037033 0.5795663595199585
0.49877792596817017 0.1691879779100418 0.40651828050613403
0.5145108103752136 0.29185250401496887 0.5419179797172546
0.49676671624183655 0.22976797819137573 0.5243387818336487
0.5374279022216797 0.14990998804569244 0.5036406517028809
0.4854564070701599 0.14005450904369354 0.4377017021179199
0.4503108561038971 0.23287370800971985 0.5355435013771057
0.41320475935935974 0.10429643094539642 0.42390570044517517
0.4324198365211487 0.10229593515396118 0.5290119647979736
0.4472424387931824 0.20679126679897308 0.5261214375495911
0.48982784152030945 0.114206962287426 0.5122203230857849
0.45552393794059753 0.21919572353363037 0.4448448121547699
0.49412378668785095 0.10647047311067581 0.47015807032585144
0.4935791492462158 0.10247832536697388 0.49674081802368164
0.41532501578330994 0.1481418013572693 0.5425426363945007
0.4986998736858368 0.2161625176668167 0.5975778698921204
0.42942872643470764 0.20148572325706482 0.4053710997104645
0.42346853017807007 0.15416881442070007 0.5648684501647949
0.5607194304466248 0.15635612607002258 0.4506480395793915
0.49742913246154785 0.14954239130020142 0.5555660724639893
0.4541635513305664 0.19977301359176636 0.528413712978363
0.582951545715332 0.11445506662130356 0.5562909841537476
0.5731654763221741 0.14890146255493164 0.45184266567230225
0.4081149399280548 0.18344537913799286 0.47777050733566284
0.4206567704677582 0.1482858955860138 0.5442222356796265
0.5297465920448303 0.2850263714790344 0.549416720867157
0.49264365434646606 0.13564220070838928 0.5487060546875
0.47914764285087585 0.23528486490249634 0.42724326252937317
0.5642117261886597 0.16815327107906342 0.5679224133491516
0.44810375571250916 0.2145613729953766 0.5874535441398621
0.47899743914604187 0.19508862495422363 0.40741753578186035
0.5318683385848999 0.23029792308807373 0.5364102125167847
0.5649769902229309 0.12148593366146088 0.5681850910186768
0.5131658911705017 0.26791101694107056 0.42106008529663086
0.49442535638809204 0.1885734498500824 0.541968047618866
0.5105134844779968 0.18920455873012543 0.43184247612953186
0.3919285535812378 0.16492006182670593 0.5120052099227905
0.4472424387931824 0.20679126679897308 0.5261214375495911
0.48982784152030945 0.114206962287426 0.5122203230857849
0.45552393794059753 0.21919572353363037 0.4448448121547699
0.49412378668785095 0.10647047311067581 0.47015807032585144
0.4935791492462158 0.10247832536697388 0.49674081802368164
0.41532501578330994 0.1481418013572693 0.5425426363945007
0.4986998736858368 0.2161625176668167 0.5975778698921204
0.42942872643470764 0.20148572325706482 0.4053710997104645
0.42346853017807007 0.15416881442070007 0.5648684501647949
0.5607194304466248 0.15635612607002258 0.4506480395793915
0.49742913246154785 0.14954239130020142 0.5555660724639893
0.4541635513305664 0.19977301359176636 0.528413712978363
0.582951545715332 0.11445506662130356 0.5562909841537476
0.5731654763221741 0.14890146255493164 0.45184266567230225
0.4081149399280548 0.18344537913799286 0.47777050733566284
0.4206567704677582 0.1482858955860138 0.5442222356796265
0.5297465920448303 0.2850263714790344 0.549416720867157
0.49264365434646606 0.13564220070838928 0.5487060546875
0.47914764285087585 0.23528486490249634 0.42724326252937317
0.5642117261886597 0.16815327107906342 0.5679224133491516
0.44810375571250916 0.2145613729953766 0.5874535441398621
0.47899743914604187 0.19508862495422363 0.40741753578186035
0.5318683385848999 0.23029792308807373 0.5364102125167847
0.5649769902229309 0.12148593366146088 0.5681850910186768
0.5131658911705017 0.26791101694107056 0.42106008529663086
0.49442535638809204 0.1885734498500824 0.541968047618866
0.5105134844779968 0.18920455873012543 0.43184247612953186
0.4339592754840851 0.22272028028964996 0.511593759059906
0.5510507822036743 0.18424451351165771 0.4728372395038605
0.4514634907245636 0.18904760479927063 0.5724514126777649
0.5361815094947815 0.15591704845428467 0.516767144203186
0.41249531507492065 0.18422876298427582 0.4322592616081238
0.465242862701416 0.2376171201467514 0.5763677954673767
0.5511859059333801 0.10698731988668442 0.48481786251068115
0.4343154728412628 0.21910667419433594 0.5572945475578308
0.4387483298778534 0.1774110496044159 0.4308936893939972
0.5215471982955933 0.15095077455043793 0.5559276342391968
0.4263816475868225 0.14088205993175507 0.5230827927589417
0.487991601228714 0.22938507795333862 0.545322835445404
0.5532522201538086 0.10580629855394363 0.458474725484848
0.44216954708099365 0.13525007665157318 0.4167591333389282
0.5694723129272461 0.16110777854919434 0.5316850543022156
0.5487532019615173 0.1564759761095047 0.5154350996017456
0.468546599149704 0.24863824248313904 0.43090659379959106
0.5272188186645508 0.22220048308372498 0.5008699297904968
0.4914688766002655 0.21779181063175201 0.5994940996170044
0.405621200799942 0.17138533294200897 0.48543092608451843
0.44490867853164673 0.19453413784503937 0.440776526927948
0.44138655066490173 0.12088560312986374 0.4685293734073639
0.46412912011146545 0.2507808804512024 0.5102031826972961
0.4854564070701599 0.14005450904369354 0.4377017021179199
0.4503108561038971 0.23287370800971985 0.5355435013771057
0.41320475935935974 0.10429643094539642 0.42390570044517517
0.4324198365211487 0.10229593515396118 0.5290119647979736
0.4472424387931824 0.20679126679897308 0.5261214375495911
0.48982784152030945 0.114206962287426 0.5122203230857849
0.45552393794059753 0.21919572353363037 0.4448448121547699
0.49412378668785095 0.10647047311067581 0.47015807032585144
0.4935791492462158 0.10247832536697388 0.49674081802368164
0.41532501578330994 0.1481418013572693 0.5425426363945007
0.4986998736858368 0.2161625176668167 0.5975778698921204
0.42942872643470764 0.20148572325706482 0.4053710997104645
0.42346853017807007 0.15416881442070007 0.5648684501647949
0.4209655225276947 0.1161850243806839 0.6012944579124451
0.43665003776550293 0.19055113196372986 0.5540504455566406
0.5258359909057617 0.10821061581373215 0.40950721502304077
0.4898320436477661 0.2507266104221344 0.509983241558075
0.4785022735595703 0.1664002686738968 0.4860817790031433
0.43407389521598816 0.21140655875205994 0.5771051645278931
0.4966210722923279 0.27254384756088257 0.507423996925354
0.45786798000335693 0.11839476972818375 0.4868028461933136
0.4925774037837982 0.10592576861381531 0.5103064179420471
0.47945263981819153 0.18211427330970764 0.4491640031337738
0.5096954703330994 0.2801738977432251 0.5156683921813965
0.4457048177719116 0.11712904274463654 0.41054144501686096
0.4769628643989563 0.25145789980888367 0.5296276211738586
0.4089398682117462 0.12649136781692505 0.5229862332344055
0.4332215189933777 0.2120438516139984 0.49126169085502625
0.5483446717262268 0.1481628119945526 0.40522485971450806
0.3982379138469696 0.1748783439397812 0.5323556065559387
0.41498374938964844 0.13475410640239716 0.4246672987937927
0.545880138874054 0.1188969686627388 0.40057089924812317
0.5322154760360718 0.2769280970096588 0.42920225858688354
0.4710162580013275 0.2513568103313446 0.49214908480644226
0.4626466631889343 0.15406125783920288 0.44970861077308655
0.4943537414073944 0.16845394670963287 0.582207441329956
0.5799070000648499 0.11365815997123718 0.5388528108596802
0.47003260254859924 0.1027340292930603 0.526432991027832
0.4447469413280487 0.1453622430562973 0.39877256751060486
0.5564326643943787 0.21181616187095642 0.5526367425918579
0.5367761254310608 0.29057011008262634 0.42895710468292236
0.559977114200592 0.1510743945837021 0.41412433981895447
0.48786723613739014 0.11288116872310638 0.5523254871368408
0.49385911226272583 0.11974327266216278 0.446429580450058
0.4371683895587921 0.15215928852558136 0.45173341035842896
0.42882871627807617 0.1708509474992752 0.5578762888908386
0.49734002351760864 0.13450711965560913 0.4342717230319977
0.5139869451522827 0.21163515746593475 0.4900902211666107
0.48268017172813416 0.1070663258433342 0.44109901785850525
0.5291531085968018 0.23168252408504486 0.5979250073432922
0.4738438129425049 0.11145273596048355 0.5431770086288452
0.4830927848815918 0.13598306477069855 0.5948672294616699
0.5322849154472351 0.110008105635643 0.40005606412887573
0.5306560397148132 0.21354232728481293 0.5874308943748474
0.5876399874687195 0.13276363909244537 0.48531585931777954
0.457303911447525 0.2560293674468994 0.4086516499519348
0.4042265713214874 0.14844512939453125 0.5529339909553528
0.5168173909187317 0.22008417546749115 0.4554682672023773
0.5153793096542358 0.1447126865386963 0.5646904110908508
0.5756414532661438 0.14702951908111572 0.5154129862785339
0.4354204833507538 0.10910272598266602 0.552342414855957
0.4982491731643677 0.10101165622472763 0.5068705081939697
0.4257379472255707 0.13949282467365265 0.5448582768440247
0.5008512735366821 0.11509153246879578 0.5834397673606873
0.44396892189979553 0.11904513090848923 0.46497589349746704
0.5867887735366821 0.17162549495697021 0.585695207118988
0.493599534034729 0.12906697392463684 0.49984583258628845
0.47188296914100647 0.11991642415523529 0.5246106386184692
0.4124739170074463 0.20554329454898834 0.4298168122768402
0.4261331856250763 0.10597871243953705 0.46438688039779663
0.42060592770576477 0.2125673145055771 0.4309363067150116
0.4200924038887024 0.1323835700750351 0.479164719581604
0.44896459579467773 0.12764984369277954 0.4152633249759674
0.5262380838394165 0.18036136031150818 0.4034196734428406
0.4000493586063385 0.1911192238330841 0.4171053469181061
0.5557297468185425 0.1674080789089203 0.5666334629058838
0.5134578943252563 0.2570239305496216 0.4134371876716614
0.42431628704071045 0.10872743278741837 0.533964991569519
0.5187801718711853 0.2403590828180313 0.5994870066642761
0.48756927251815796 0.16553479433059692 0.46751177310943604
0.48387518525123596 0.11460713297128677 0.46926045417785645
0.48387518525123596 0.11460713297128677 0.46926045417785645
0.4594895541667938 0.11322843283414841 0.4247797727584839
0.5793607234954834 0.16469505429267883 0.4933028519153595
0.46421730518341064 0.12070201337337494 0.4552273750305176
0.4666329324245453 0.10322380065917969 0.529446005821228
0.5371413230895996 0.2387884110212326 0.4447622001171112
0.5650568008422852 0.2045065462589264 0.5742339491844177
0.4769323766231537 0.15146565437316895 0.5134181380271912
0.5120444893836975 0.27491989731788635 0.5148463845252991
0.5897855162620544 0.12891699373722076 0.5569918751716614
0.5231657028198242 0.28885143995285034 0.43038803339004517
0.5427587628364563 0.1841859370470047 0.43820133805274963
0.5403892993927002 0.25494125485420227 0.46949923038482666
0.3987833559513092 0.17298336327075958 0.4673382043838501
0.42727863788604736 0.10686368495225906 0.5367206335067749
0.5513232946395874 0.12457158416509628 0.40440836548805237
0.5440983176231384 0.16314980387687683 0.5404937863349915
0.4226613938808441 0.14315085113048553 0.5193947553634644
0.49818289279937744 0.23300319910049438 0.49757832288742065
0.3926456570625305 0.15904439985752106 0.41699275374412537
0.5651916861534119 0.14435337483882904 0.4731697738170624
0.44927218556404114 0.10667791217565536 0.5003088116645813
0.4195164442062378 0.20343036949634552 0.4127105176448822
0.43776291608810425 0.10241717845201492 0.5686968564987183
0.508716881275177 0.14624673128128052 0.5205393433570862
0.4747373163700104 0.1470872163772583 0.45137476921081543
0.44782817363739014 0.24169117212295532 0.5144938230514526
