ply
format ascii 1.0
element vertex 833
property float x
property float y
property float z
end_header
0.29472583532333374 0.7068084478378296 0.46685710549354553
0.39630940556526184 0.8167473077774048 0.5703942179679871
0.2959325611591339 0.8287354707717896 0.449928879737854
0.3489634096622467 0.7332016825675964 0.5835192799568176
0.34069451689720154 0.8700867891311646 0.592240035533905
0.3987374007701874 0.768480122089386 0.5461758375167847
0.359882116317749 0.711625874042511 0.4575291872024536
0.2801395654678345 0.8034332990646362 0.4642854332923889
0.2918081283569336 0.7947655320167542 0.5534773468971252
0.4133158028125763 0.8836829662322998 0.4956793487071991
0.2777537703514099 0.78319251537323 0.4593106508255005
0.3693702518939972 0.7436401844024658 0.5628389716148376
0.35282984375953674 0.7440823316574097 0.5268785357475281
0.2721955180168152 0.7630071043968201 0.49402084946632385
0.4349258840084076 0.8301524519920349 0.40446144342422485
0.4365364611148834 0.8112648129463196 0.4096803367137909
0.30562955141067505 0.7386285662651062 0.5651060938835144
0.29693275690078735 0.8465726375579834 0.5460428595542908
0.4092044234275818 0.793440580368042 0.5748960375785828
0.4328482151031494 0.760067343711853 0.5035420060157776
0.38410618901252747 0.7071733474731445 0.5348431468009949
0.33370959758758545 0.8705862164497375 0.5491610169410706
0.4443082809448242 0.6891523599624634 0.5735406875610352
0.4292910099029541 0.8500518798828125 0.43258213996887207
0.3637007176876068 0.7781025171279907 0.5401907563209534
0.2686363458633423 0.8448135256767273 0.4196977913379669
0.28110572695732117 0.7908036708831787 0.4916984438896179
0.442331999540329 0.7513127326965332 0.46398231387138367
0.42012590169906616 0.7546403408050537 0.40272217988967896
0.3479379713535309 0.8256916999816895 0.40775248408317566
0.43670853972435 0.7452518343925476 0.4517967998981476
0.2631426155567169 0.710912823677063 0.5179319977760315
0.3978591561317444 0.7704635858535767 0.49306684732437134
0.3380410969257355 0.8584496974945068 0.5699774622917175
0.3861546814441681 0.815689742565155 0.45371338725090027
0.2820534110069275 0.8319739699363708 0.4797188341617584
0.2750619649887085 0.712425172328949 0.5477604269981384
0.3687167167663574 0.764616072177887 0.5875416398048401
0.3169212341308594 0.8818517327308655 0.5041915774345398
0.33879488706588745 0.7321026921272278 0.569413423538208
0.3853338956832886 0.8020796179771423 0.5742201805114746
0.3980249762535095 0.8369596600532532 0.4665106236934662
0.361804723739624 0.8821092844009399 0.48685213923454285
0.2900814116001129 0.754737138748169 0.4858517646789551
0.31435224413871765 0.701164186000824 0.4104166328907013
0.30022093653678894 0.7279700636863708 0.4981844425201416
0.37175941467285156 0.7955603003501892 0.5003974437713623
0.44938671588897705 0.8264124393463135 0.4603831470012665
0.25811082124710083 0.7459988594055176 0.5875767469406128
0.43864205479621887 0.8585944771766663 0.5024427771568298
0.4093940258026123 0.8743875622749329 0.5124035477638245
0.2564583718776703 0.807464063167572 0.5955538749694824
0.32816940546035767 0.7745998501777649 0.505375862121582
0.2526456117630005 0.698855996131897 0.5345361232757568
0.4437783360481262 0.7025492787361145 0.5198805928230286
0.43860936164855957 0.8337411284446716 0.5762054920196533
0.3124573826789856 0.8509106636047363 0.5103506445884705
0.25909659266471863 0.7327980995178223 0.5559324622154236
0.3110736906528473 0.7789364457130432 0.48455381393432617
0.37787410616874695 0.6852161288261414 0.5081861615180969
0.35031506419181824 0.781274676322937 0.40468892455101013
0.30845314264297485 0.8750688433647156 0.46855151653289795
0.31408312916755676 0.7383060455322266 0.4469967782497406
0.3991655707359314 0.8199200630187988 0.5822271108627319
0.3719821870326996 0.7562240958213806 0.48615768551826477
0.36228975653648376 0.6924446821212769 0.5949119329452515
0.41720423102378845 0.7921808362007141 0.5005916953086853
0.4497058391571045 0.6890698671340942 0.4378819167613983
0.3925286531448364 0.7457860112190247 0.5723846554756165
0.27294421195983887 0.8565472364425659 0.4176481366157532
0.4287811517715454 0.7325851917266846 0.5376371145248413
0.28199756145477295 0.7654380798339844 0.40821945667266846
0.43462279438972473 0.7696682214736938 0.49202290177345276
0.30924123525619507 0.7202410697937012 0.4757794737815857
0.43707817792892456 0.7154766321182251 0.4254378080368042
0.294735312461853 0.7364625930786133 0.5418519973754883
0.25144174695014954 0.7074189186096191 0.4620693325996399
0.349712073802948 0.7844569683074951 0.46797269582748413
0.38337984681129456 0.8535275459289551 0.4220008850097656
0.30225589871406555 0.7246914505958557 0.4304388463497162
0.36678066849708557 0.8638555407524109 0.5933842062950134
0.32854583859443665 0.7178793549537659 0.5328075885772705
0.2886275351047516 0.6930733323097229 0.5639452338218689
0.3693702518939972 0.7436401844024658 0.5628389716148376
0.35282984375953674 0.7440823316574097 0.5268785357475281
0.2721955180168152 0.7630071043968201 0.49402084946632385
0.250484824180603 0.7700666785240173 0.5025262236595154
0.38983267545700073 0.7355226278305054 0.5178147554397583
0.29297029972076416 0.7537490129470825 0.5443838238716125
0.3088882565498352 0.7767993807792664 0.44888320565223694
0.43860936164855957 0.8337411284446716 0.5762054920196533
0.40183642506599426 0.7538242936134338 0.40075212717056274
0.39437779784202576 0.8227595090866089 0.4909753203392029
0.4028313457965851 0.6923454403877258 0.45719337463378906
0.38431504368782043 0.8339190483093262 0.5665292739868164
0.3097085952758789 0.7946649193763733 0.4308391809463501
0.3770611584186554 0.7906374931335449 0.4103996753692627
0.4255933165550232 0.7547633051872253 0.41905465722084045
0.331638902425766 0.7893534302711487 0.5214360952377319
0.3773108422756195 0.7224849462509155 0.48195916414260864
0.2797725796699524 0.7097858786582947 0.4783426821231842
0.2634035646915436 0.7306926250457764 0.55159991979599
0.4374721646308899 0.8149343132972717 0.4383534789085388
0.375190794467926 0.8780052065849304 0.43443939089775085
0.3783097267150879 0.6903290748596191 0.4779747426509857
0.29548096656799316 0.7440122961997986 0.5134873986244202
0.34120434522628784 0.7943618893623352 0.5420362949371338
0.2976391911506653 0.8135315775871277 0.44371169805526733
0.44226324558258057 0.6904119253158569 0.5244379639625549
0.39241155982017517 0.7324380874633789 0.4918355941772461
0.4354197382926941 0.7084887027740479 0.4362870454788208
0.2990989685058594 0.736929714679718 0.40050724148750305
0.36906760931015015 0.7764809131622314 0.5407508015632629
0.35798197984695435 0.7486507892608643 0.42646151781082153
0.4224030375480652 0.8663286566734314 0.4637458622455597
0.3601153492927551 0.8533981442451477 0.5743809342384338
0.2826356887817383 0.7232587337493896 0.484228253364563
0.33907681703567505 0.6983452439308167 0.5975889563560486
0.32034793496131897 0.8391402959823608 0.5331571102142334
0.43860936164855957 0.8337411284446716 0.5762054920196533
0.3124573826789856 0.8509106636047363 0.5103506445884705
0.25909659266471863 0.7327980995178223 0.5559324622154236
0.3110736906528473 0.7789364457130432 0.48455381393432617
0.26876935362815857 0.7243214845657349 0.4846394658088684
0.4159664809703827 0.7906151413917542 0.41859596967697144
0.40053296089172363 0.7672016620635986 0.5179105401039124
0.43469667434692383 0.7542991042137146 0.5601863861083984
0.29846692085266113 0.8028756976127625 0.4546141028404236
0.40069690346717834 0.8258038759231567 0.40760117769241333
0.3387048840522766 0.8045006394386292 0.5754926800727844
0.29472583532333374 0.7068084478378296 0.46685710549354553
0.39630940556526184 0.8167473077774048 0.5703942179679871
0.2959325611591339 0.8287354707717896 0.449928879737854
0.2950279414653778 0.7465792894363403 0.40256282687187195
0.2506895959377289 0.7139410376548767 0.44876086711883545
0.3489634096622467 0.7332016825675964 0.5835192799568176
0.3939574360847473 0.8121027946472168 0.4496821165084839
0.44850048422813416 0.7653893232345581 0.4969507157802582
0.44439172744750977 0.8123214244842529 0.5977544188499451
0.3032238483428955 0.7182281017303467 0.5602176785469055
0.29353657364845276 0.747573971748352 0.4399118721485138
0.3464273512363434 0.8063068389892578 0.4117366075515747
0.35317304730415344 0.8019886016845703 0.46176081895828247
0.41548794507980347 0.7954679727554321 0.41707879304885864
0.35282984375953674 0.7440823316574097 0.5268785357475281
0.2721955180168152 0.7630071043968201 0.49402084946632385
0.4349258840084076 0.8301524519920349 0.40446144342422485
0.3942665159702301 0.8825559616088867 0.46552908420562744
0.2829478681087494 0.8355081677436829 0.4952726364135742
0.40869733691215515 0.8232307434082031 0.43087342381477356
0.40822282433509827 0.7618711590766907 0.5386022925376892
0.2959325611591339 0.8287354707717896 0.449928879737854
0.2950279414653778 0.7465792894363403 0.40256282687187195
0.2506895959377289 0.7139410376548767 0.44876086711883545
0.3489634096622467 0.7332016825675964 0.5835192799568176
0.3939574360847473 0.8121027946472168 0.4496821165084839
0.44850048422813416 0.7653893232345581 0.4969507157802582
0.44439172744750977 0.8123214244842529 0.5977544188499451
0.3032238483428955 0.7182281017303467 0.5602176785469055
0.29353657364845276 0.747573971748352 0.4399118721485138
0.3464273512363434 0.8063068389892578 0.4117366075515747
0.35317304730415344 0.8019886016845703 0.46176081895828247
0.33488646149635315 0.8011201024055481 0.44794097542762756
0.27361342310905457 0.7421614527702332 0.5162665247917175
0.30116331577301025 0.7915098667144775 0.5224390029907227
0.35494688153266907 0.7095608115196228 0.48839032649993896
0.28412556648254395 0.690618634223938 0.5900521874427795
0.3778763711452484 0.7525801062583923 0.5276934504508972
0.4258607029914856 0.7225085496902466 0.43274596333503723
0.2542359232902527 0.7561310529708862 0.48371797800064087
0.27634623646736145 0.734965443611145 0.47196072340011597
0.33900150656700134 0.7913567423820496 0.4794343411922455
0.4136506915092468 0.8839066624641418 0.414693146944046
0.2631162703037262 0.8349748849868774 0.5092082023620605
0.3972755968570709 0.7994506359100342 0.5149146318435669
0.3170378506183624 0.8742400407791138 0.47329652309417725
0.3430940806865692 0.769355833530426 0.5048920512199402
0.4168016016483307 0.6973965167999268 0.4441870450973511
0.4409763813018799 0.8836537003517151 0.4178508222103119
0.3560953438282013 0.8021519780158997 0.52018803358078
0.4454033672809601 0.702564001083374 0.49133428931236267
0.31731629371643066 0.7666341662406921 0.5456638336181641
0.4100908637046814 0.7133750915527344 0.5277850031852722
0.34474068880081177 0.6881533861160278 0.45771273970603943
0.3303245007991791 0.7178142666816711 0.5303939580917358
0.411481112241745 0.7314848899841309 0.4726080298423767
0.41258251667022705 0.8022260665893555 0.5215451121330261
0.3001044690608978 0.7417700886726379 0.4562148451805115
0.3469409644603729 0.709522008895874 0.42168715596199036
0.44359278678894043 0.7249853014945984 0.4456712305545807
0.27069684863090515 0.8298380374908447 0.571471095085144
0.3215026557445526 0.8063786029815674 0.5666363835334778
0.4292151927947998 0.8010510206222534 0.40156134963035583
0.39065346121788025 0.7793096899986267 0.5884045362472534
0.2608780860900879 0.874813437461853 0.44366395473480225
0.3541584014892578 0.7893489003181458 0.4096754491329193
0.4204624891281128 0.8436347842216492 0.5664360523223877
0.40914085507392883 0.7945913076400757 0.42751234769821167
0.36534881591796875 0.8364277482032776 0.4110580086708069
0.36850112676620483 0.715970516204834 0.4535146653652191
0.32892289757728577 0.7864239811897278 0.5920340418815613
0.3752248287200928 0.8709501028060913 0.5927398800849915
0.33620280027389526 0.7994388341903687 0.4888863265514374
0.3273237645626068 0.8296303749084473 0.4009351432323456
0.30205443501472473 0.8613677620887756 0.5366730690002441
0.2790779769420624 0.787767767906189 0.46172088384628296
0.30202463269233704 0.8134212493896484 0.45010796189308167
0.25862136483192444 0.8823329210281372 0.48807451128959656
0.27977368235588074 0.8776126503944397 0.5274994969367981
0.2550782263278961 0.8242416381835938 0.43763720989227295
0.2829843759536743 0.856316089630127 0.5978546142578125
0.3856203556060791 0.7011673450469971 0.41973525285720825
0.41575711965560913 0.8498177528381348 0.461680144071579
0.27125284075737 0.812641978263855 0.5158666968345642
0.4262761175632477 0.7076718211174011 0.5766899585723877
0.38039499521255493 0.7730122208595276 0.5852501392364502
0.3810065686702728 0.7342856526374817 0.4027261734008789
0.27324920892715454 0.8403934836387634 0.485341340303421
0.367263525724411 0.7777231931686401 0.5968666076660156
0.30756497383117676 0.7038236856460571 0.5869899988174438
0.44898590445518494 0.7058348059654236 0.5081722736358643
0.4345412850379944 0.7635365128517151 0.4586580693721771
0.33246392011642456 0.7278668880462646 0.4177705943584442
0.4419194757938385 0.8653203248977661 0.43440935015678406
0.288654088973999 0.8113589286804199 0.4153003394603729
0.2602754533290863 0.8738354444503784 0.5190241932868958
0.2764270007610321 0.8434820175170898 0.5260510444641113
0.42091622948646545 0.7785311937332153 0.47161349654197693
0.29070502519607544 0.8353070020675659 0.4652777910232544
0.320183664560318 0.8490875959396362 0.46586671471595764
0.43639540672302246 0.7200833559036255 0.49883589148521423
0.3936673700809479 0.8403024673461914 0.5273553133010864
0.41168808937072754 0.7410223484039307 0.42350471019744873
0.36677730083465576 0.8740370869636536 0.42180874943733215
0.3892970383167267 0.8766128420829773 0.570525586605072
0.4236607849597931 0.8653985261917114 0.4320281445980072
0.37332427501678467 0.7158383131027222 0.5090670585632324
0.34051889181137085 0.733984649181366 0.4102628827095032
0.31752485036849976 0.8525044918060303 0.4883933961391449
0.3198176622390747 0.7483270168304443 0.4026157855987549
0.31416910886764526 0.883775532245636 0.5879983901977539
0.2991098165512085 0.8255217671394348 0.4476449489593506
0.39797908067703247 0.7502605319023132 0.5858278274536133
0.25909534096717834 0.8731995820999146 0.5188901424407959
0.385445237159729 0.7761430740356445 0.5089179277420044
0.36819761991500854 0.8468121886253357 0.4279208183288574
0.4253608286380768 0.8180141448974609 0.5444480776786804
0.27324920892715454 0.8403934836387634 0.485341340303421
0.367263525724411 0.7777231931686401 0.5968666076660156
0.30756497383117676 0.7038236856460571 0.5869899988174438
0.44898590445518494 0.7058348059654236 0.5081722736358643
0.4345412850379944 0.7635365128517151 0.4586580693721771
0.33246392011642456 0.7278668880462646 0.4177705943584442
0.4419194757938385 0.8653203248977661 0.43440935015678406
0.288654088973999 0.8113589286804199 0.4153003394603729
0.2602754533290863 0.8738354444503784 0.5190241932868958
0.2764270007610321 0.8434820175170898 0.5260510444641113
0.42091622948646545 0.7785311937332153 0.47161349654197693
0.29070502519607544 0.8353070020675659 0.4652777910232544
0.320183664560318 0.8490875959396362 0.46586671471595764
0.32557743787765503 0.8123606443405151 0.5880262851715088
0.41040343046188354 0.7421892881393433 0.5696401596069336
0.30068883299827576 0.8727466464042664 0.4305247962474823
0.4370075464248657 0.7819759249687195 0.40045857429504395
0.335555762052536 0.7698320150375366 0.5662306547164917
0.27155959606170654 0.771579921245575 0.5684965252876282
0.290286123752594 0.860895037651062 0.5815943479537964
0.31945866346359253 0.7333381772041321 0.4299398362636566
0.34824907779693604 0.7677381038665771 0.47158339619636536
0.41979414224624634 0.8279964923858643 0.4659956097602844
0.2594149708747864 0.7623679041862488 0.5299875736236572
0.29363635182380676 0.7472909688949585 0.4158155024051666
0.4345700740814209 0.7242988348007202 0.5980092287063599
0.4270687699317932 0.8677507638931274 0.414065957069397
0.3650141656398773 0.7144010663032532 0.5995551943778992
0.2951585352420807 0.7075952291488647 0.5781450271606445
0.31556254625320435 0.8423064947128296 0.5962982177734375
0.2732899785041809 0.6893534660339355 0.49865779280662537
0.32816940546035767 0.7745998501777649 0.505375862121582
0.38410618901252747 0.7071733474731445 0.5348431468009949
0.33370959758758545 0.8705862164497375 0.5491610169410706
0.37527307868003845 0.8576658368110657 0.5132534503936768
0.3998449742794037 0.843583881855011 0.49931800365448
0.2870449125766754 0.8636347651481628 0.4024653732776642
0.34530478715896606 0.7777714133262634 0.4519806206226349
0.30904823541641235 0.8542103171348572 0.5200893878936768
0.37235644459724426 0.7558289766311646 0.4900209605693817
0.28626203536987305 0.7569701075553894 0.5215829014778137
0.2938597798347473 0.7354965209960938 0.4091775715351105
0.33676454424858093 0.779790461063385 0.5694046020507812
0.41635286808013916 0.8375414609909058 0.4928306043148041
0.2706541419029236 0.8227285742759705 0.4619561731815338
0.3833872973918915 0.8398032784461975 0.4368014633655548
0.2569456994533539 0.7432754039764404 0.5648534893989563
0.2923804819583893 0.696526825428009 0.4305458664894104
0.43035608530044556 0.7999485731124878 0.4816475510597229
0.3769441246986389 0.8540153503417969 0.5672397017478943
0.44975268840789795 0.7207962274551392 0.5659928321838379
0.36942195892333984 0.7340397834777832 0.44663941860198975
0.30463796854019165 0.7321740984916687 0.47595834732055664
0.44567373394966125 0.723990797996521 0.45871594548225403
0.44841161370277405 0.8129463791847229 0.5455000400543213
0.39712390303611755 0.8835093975067139 0.4600297510623932
0.26944106817245483 0.701696515083313 0.41770774126052856
0.4136582911014557 0.8207356929779053 0.43915480375289917
0.39047902822494507 0.8324626684188843 0.4176517426967621
0.40729135274887085 0.882815420627594 0.467907577753067
0.44322606921195984 0.8682225346565247 0.5875941514968872
0.36921173334121704 0.8223533630371094 0.5989012122154236
0.29353269934654236 0.7005711197853088 0.5732786059379578
0.3693702518939972 0.7436401844024658 0.5628389716148376
0.30904823541641235 0.8542103171348572 0.5200893878936768
0.37235644459724426 0.7558289766311646 0.4900209605693817
0.28626203536987305 0.7569701075553894 0.5215829014778137
0.2938597798347473 0.7354965209960938 0.4091775715351105
0.33676454424858093 0.779790461063385 0.5694046020507812
0.41635286808013916 0.8375414609909058 0.4928306043148041
0.2706541419029236 0.8227285742759705 0.4619561731815338
0.3833872973918915 0.8398032784461975 0.4368014633655548
0.2569456994533539 0.7432754039764404 0.5648534893989563
0.2923804819583893 0.696526825428009 0.4305458664894104
0.43035608530044556 0.7999485731124878 0.4816475510597229
0.30207228660583496 0.7821130156517029 0.5706130266189575
0.38468819856643677 0.8799066543579102 0.40004754066467285
0.34774237871170044 0.8065959811210632 0.5503837466239929
0.26097142696380615 0.8001165390014648 0.4852154552936554
0.32198765873908997 0.6891754269599915 0.4705584943294525
0.38540053367614746 0.8108781576156616 0.47347038984298706
0.3713233470916748 0.8282223343849182 0.4630157947540283
0.32098454236984253 0.8048381209373474 0.5573855638504028
0.4187861979007721 0.7594849467277527 0.5116044282913208
0.42715635895729065 0.7647421360015869 0.5634605884552002
0.36125925183296204 0.7826367020606995 0.5231685638427734
0.37363871932029724 0.7560356259346008 0.44810739159584045
0.3223278820514679 0.8451671004295349 0.40385887026786804
0.29782891273498535 0.872300922870636 0.44387298822402954
0.31509944796562195 0.8633797764778137 0.4189984202384949
0.2868049442768097 0.6888046264648438 0.4927614629268646
0.2621913552284241 0.699403703212738 0.4213181734085083
0.35826125741004944 0.8238447904586792 0.47251489758491516
0.41561123728752136 0.8458096981048584 0.47878679633140564
0.3882927894592285 0.7910422682762146 0.5267056226730347
0.35282984375953674 0.7440823316574097 0.5268785357475281
0.27324920892715454 0.8403934836387634 0.485341340303421
0.367263525724411 0.7777231931686401 0.5968666076660156
0.30756497383117676 0.7038236856460571 0.5869899988174438
0.44898590445518494 0.7058348059654236 0.5081722736358643
0.4345412850379944 0.7635365128517151 0.4586580693721771
0.33246392011642456 0.7278668880462646 0.4177705943584442
0.4419194757938385 0.8653203248977661 0.43440935015678406
0.288654088973999 0.8113589286804199 0.4153003394603729
0.2602754533290863 0.8738354444503784 0.5190241932868958
0.3969999849796295 0.7085181474685669 0.44786959886550903
0.3148195445537567 0.8563799858093262 0.4414476752281189
0.3037121891975403 0.8253684043884277 0.4945085942745209
0.2531251907348633 0.8335784077644348 0.5174270272254944
0.2833145260810852 0.8557186722755432 0.4428325295448303
0.4184301495552063 0.6894822120666504 0.5971752405166626
0.38828185200691223 0.6871828436851501 0.4153806269168854
0.34516939520835876 0.7010462880134583 0.4374580979347229
0.27159252762794495 0.8763732314109802 0.5189366936683655
0.3469545841217041 0.8205708861351013 0.5778506994247437
0.3531982898712158 0.7260231971740723 0.5960381031036377
0.2754155695438385 0.7630520462989807 0.5328885316848755
0.25461533665657043 0.7607535719871521 0.45034828782081604
0.2867952287197113 0.7716323733329773 0.5085594654083252
0.3196798861026764 0.8339583277702332 0.5140057802200317
0.39767786860466003 0.8083571791648865 0.5013276934623718
0.3250540494918823 0.8657205104827881 0.41057088971138
0.26580971479415894 0.7055373787879944 0.49423640966415405
0.33074522018432617 0.7705695629119873 0.4624696969985962
0.4070965647697449 0.7787840962409973 0.48338061571121216
0.2506832480430603 0.7132629156112671 0.5728268027305603
0.33347854018211365 0.752659797668457 0.5518068671226501
0.35282984375953674 0.7440823316574097 0.5268785357475281
0.38410618901252747 0.7071733474731445 0.5348431468009949
0.33370959758758545 0.8705862164497375 0.5491610169410706
0.3939891457557678 0.7429825663566589 0.432847261428833
0.38039499521255493 0.7730122208595276 0.5852501392364502
0.3810065686702728 0.7342856526374817 0.4027261734008789
0.27324920892715454 0.8403934836387634 0.485341340303421
0.367263525724411 0.7777231931686401 0.5968666076660156
0.30756497383117676 0.7038236856460571 0.5869899988174438
0.44898590445518494 0.7058348059654236 0.5081722736358643
0.4345412850379944 0.7635365128517151 0.4586580693721771
0.33246392011642456 0.7278668880462646 0.4177705943584442
0.4419194757938385 0.8653203248977661 0.43440935015678406
0.288654088973999 0.8113589286804199 0.4153003394603729
0.2565077841281891 0.8775195479393005 0.5226715207099915
0.35036811232566833 0.8455914258956909 0.40077367424964905
0.42465341091156006 0.8607128262519836 0.45990025997161865
0.36695826053619385 0.8378932476043701 0.45267996191978455
0.30604612827301025 0.780066192150116 0.469105064868927
0.34912699460983276 0.8473829030990601 0.40546587109565735
0.44750386476516724 0.7889943718910217 0.5152242183685303
0.3009469509124756 0.8451415300369263 0.5296077728271484
0.2863902449607849 0.8758662343025208 0.43841540813446045
0.3817312717437744 0.8591783046722412 0.4719536304473877
0.31006231904029846 0.7077843546867371 0.4226338565349579
0.4485398232936859 0.7859060764312744 0.5706831812858582
0.2896990478038788 0.8351945281028748 0.4616572856903076
0.32007142901420593 0.7046527862548828 0.5542638897895813
0.41951704025268555 0.7182826399803162 0.4626375734806061
0.26608210802078247 0.6885797381401062 0.5543774366378784
0.43558311462402344 0.8586094975471497 0.54388827085495
0.4462326765060425 0.8018313050270081 0.5982402563095093
0.4092044234275818 0.793440580368042 0.5748960375785828
0.38410618901252747 0.7071733474731445 0.5348431468009949
0.33370959758758545 0.8705862164497375 0.5491610169410706
0.4269925057888031 0.872261643409729 0.4462825059890747
0.40620172023773193 0.8262625932693481 0.5789344906806946
0.2704143524169922 0.7502791881561279 0.48017749190330505
0.4181986153125763 0.8566194176673889 0.5902889966964722
0.3644135594367981 0.7288106679916382 0.5960007905960083
0.39920711517333984 0.8288541436195374 0.4058203399181366
0.25462785363197327 0.7566186189651489 0.5772085189819336
0.42091622948646545 0.7785311937332153 0.47161349654197693
0.29070502519607544 0.8353070020675659 0.4652777910232544
0.320183664560318 0.8490875959396362 0.46586671471595764
0.32557743787765503 0.8123606443405151 0.5880262851715088
0.41040343046188354 0.7421892881393433 0.5696401596069336
0.30068883299827576 0.8727466464042664 0.4305247962474823
0.28168466687202454 0.6897041201591492 0.5555385947227478
0.2780941128730774 0.8567619919776917 0.5573552250862122
0.3789777457714081 0.7237821817398071 0.5149363875389099
0.26775962114334106 0.6898778080940247 0.47139978408813477
0.2764739990234375 0.7780817151069641 0.5315507054328918
0.38877612352371216 0.7907055020332336 0.5515387058258057
0.3479676842689514 0.8573112487792969 0.5509783029556274
0.3701336979866028 0.8306286334991455 0.4179040789604187
0.38814419507980347 0.6882043480873108 0.5791937708854675
0.3989746868610382 0.7597193717956543 0.5374912023544312
0.422318696975708 0.706922173500061 0.4371441602706909
0.30923497676849365 0.8629941940307617 0.43535101413726807
0.2663198709487915 0.7272023558616638 0.4860682487487793
0.3669084906578064 0.8241809606552124 0.5214287042617798
0.38230225443840027 0.7047278881072998 0.42546945810317993
0.40662240982055664 0.8505125641822815 0.5501411557197571
0.38410618901252747 0.7071733474731445 0.5348431468009949
0.37751418352127075 0.7420045733451843 0.42792123556137085
0.35401657223701477 0.8309110403060913 0.5635870695114136
0.3835803270339966 0.7220773100852966 0.5737058520317078
0.2764790654182434 0.7380613684654236 0.5619074702262878
0.39328891038894653 0.8106663227081299 0.568629801273346
0.4468751549720764 0.689422070980072 0.45786237716674805
0.28167349100112915 0.7683029770851135 0.5135378837585449
0.4234267771244049 0.8197057247161865 0.5800715684890747
0.26766839623451233 0.7110570073127747 0.5536937713623047
0.39574772119522095 0.7956593632698059 0.4452098309993744
0.3094145655632019 0.7865579128265381 0.45231112837791443
0.3577363193035126 0.8117096424102783 0.4459730088710785
0.41335487365722656 0.7714693546295166 0.4881023168563843
0.4414428174495697 0.8634961247444153 0.42682328820228577
0.34401294589042664 0.6955075263977051 0.4888491630554199
0.4131579101085663 0.7013855576515198 0.5897029042243958
0.316331148147583 0.6947662234306335 0.477944940328598
0.4176197946071625 0.8643847703933716 0.5676438808441162
0.36000093817710876 0.8451511859893799 0.5886244177818298
0.4459933340549469 0.7085241079330444 0.43244877457618713
0.3014720380306244 0.7718061804771423 0.5769093632698059
0.4035312533378601 0.8101218342781067 0.465231716632843
0.3856329023838043 0.7371672987937927 0.5173853635787964
0.290107786655426 0.7375988960266113 0.49687618017196655
0.4332985579967499 0.7032766342163086 0.5247764587402344
0.4256434142589569 0.8554121255874634 0.5841365456581116
0.3089207410812378 0.6995552182197571 0.5651907324790955
0.3687072992324829 0.7496057748794556 0.4622461199760437
0.4076358377933502 0.846011221408844 0.4580223858356476
0.33460697531700134 0.8060179352760315 0.5293304920196533
0.44444912672042847 0.8416510224342346 0.5626566410064697
0.32603153586387634 0.7999604344367981 0.5898921489715576
0.33246392011642456 0.7278668880462646 0.4177705943584442
0.4419194757938385 0.8653203248977661 0.43440935015678406
0.288654088973999 0.8113589286804199 0.4153003394603729
0.2602754533290863 0.8738354444503784 0.5190241932868958
0.2764270007610321 0.8434820175170898 0.5260510444641113
0.42091622948646545 0.7785311937332153 0.47161349654197693
0.29070502519607544 0.8353070020675659 0.4652777910232544
0.320183664560318 0.8490875959396362 0.46586671471595764
0.32557743787765503 0.8123606443405151 0.5880262851715088
0.41040343046188354 0.7421892881393433 0.5696401596069336
0.30068883299827576 0.8727466464042664 0.4305247962474823
0.4370075464248657 0.7819759249687195 0.40045857429504395
0.34896865487098694 0.7829915881156921 0.5261736512184143
0.4198457598686218 0.8530046343803406 0.4166579246520996
0.4388290345668793 0.7643160223960876 0.5923463702201843
0.3703385293483734 0.8829953074455261 0.4511279761791229
0.2850690484046936 0.8651203513145447 0.5260390639305115
0.3991568386554718 0.7753673195838928 0.41588354110717773
0.26236531138420105 0.8701890707015991 0.5532873868942261
0.34171029925346375 0.7184008955955505 0.570580244064331
0.3491068184375763 0.7201260328292847 0.4228180944919586
0.3058202266693115 0.8560143113136292 0.4403817355632782
0.43438512086868286 0.8568940758705139 0.4505908191204071
0.2628144919872284 0.8461106419563293 0.42532023787498474
0.36562207341194153 0.8052403330802917 0.4266473352909088
0.2862003743648529 0.742408275604248 0.5450600385665894
0.30570217967033386 0.8507286310195923 0.49724364280700684
0.37818583846092224 0.8166542053222656 0.4383704662322998
0.3592844605445862 0.7964235544204712 0.49171820282936096
0.37591901421546936 0.7284576892852783 0.5938250422477722
0.3973105549812317 0.7826225757598877 0.5371145009994507
0.41258251667022705 0.8022260665893555 0.5215451121330261
0.4269925057888031 0.872261643409729 0.4462825059890747
0.40620172023773193 0.8262625932693481 0.5789344906806946
0.2704143524169922 0.7502791881561279 0.48017749190330505
0.4181986153125763 0.8566194176673889 0.5902889966964722
0.3644135594367981 0.7288106679916382 0.5960007905960083
0.39920711517333984 0.8288541436195374 0.4058203399181366
0.25462785363197327 0.7566186189651489 0.5772085189819336
0.42091622948646545 0.7785311937332153 0.47161349654197693
0.29070502519607544 0.8353070020675659 0.4652777910232544
0.320183664560318 0.8490875959396362 0.46586671471595764
0.40342283248901367 0.69017493724823 0.5185374617576599
0.2722877264022827 0.8194100260734558 0.48442772030830383
0.30317869782447815 0.7674340605735779 0.5340056419372559
0.31209489703178406 0.7884113192558289 0.5293262004852295
0.2955372631549835 0.8197412490844727 0.4095819294452667
0.42966875433921814 0.8041149973869324 0.5318524837493896
0.3990125358104706 0.7933183312416077 0.5552418828010559
0.30159035325050354 0.7037853002548218 0.55169278383255
0.3832547664642334 0.7997618317604065 0.5806400775909424
0.2619238495826721 0.7200981378555298 0.5003265738487244
0.3226531744003296 0.8070431351661682 0.5374887585639954
0.44991397857666016 0.7472980618476868 0.44382116198539734
0.29353269934654236 0.7005711197853088 0.5732786059379578
0.2663198709487915 0.7272023558616638 0.4860682487487793
0.3669084906578064 0.8241809606552124 0.5214287042617798
0.38230225443840027 0.7047278881072998 0.42546945810317993
0.40662240982055664 0.8505125641822815 0.5501411557197571
0.270882248878479 0.727705180644989 0.41972848773002625
0.31438466906547546 0.8144148588180542 0.48214027285575867
0.3321901857852936 0.7827805280685425 0.5349534153938293
0.42030277848243713 0.6974995136260986 0.5830956697463989
0.3720835745334625 0.6961483955383301 0.4612559378147125
0.3449053466320038 0.7526524066925049 0.522214412689209
0.27011099457740784 0.8271652460098267 0.5901927351951599
0.27004188299179077 0.8594381213188171 0.40294748544692993
0.3133174180984497 0.7440312504768372 0.44559040665626526
0.40429767966270447 0.8745291233062744 0.4260825216770172
0.4033866822719574 0.71431565284729 0.41009223461151123
0.40953657031059265 0.8090887069702148 0.5442410707473755
0.41030123829841614 0.8184536099433899 0.5782889127731323
0.3173249065876007 0.705440878868103 0.4478141963481903
0.33547359704971313 0.8275911808013916 0.5710064172744751
0.278311163187027 0.7721453905105591 0.5001646876335144
0.34979066252708435 0.8248372077941895 0.546561598777771
0.36580127477645874 0.7249311208724976 0.5403318405151367
0.42077770829200745 0.7891334891319275 0.5248453617095947
0.4025208353996277 0.8576966524124146 0.42786353826522827
0.41736459732055664 0.872582733631134 0.4658852219581604
0.30235546827316284 0.7599467039108276 0.5188271403312683
0.301284521818161 0.7099683284759521 0.5809093117713928
0.3942943513393402 0.8206679821014404 0.410541832447052
0.39942124485969543 0.798332154750824 0.49992671608924866
0.3723515272140503 0.7225330471992493 0.48193222284317017
0.28171297907829285 0.7667669653892517 0.5987398028373718
0.36735793948173523 0.780728280544281 0.5754261016845703
0.26077237725257874 0.7135072946548462 0.44563812017440796
0.3556912839412689 0.876470148563385 0.49176689982414246
0.2956959009170532 0.8813349604606628 0.4048575758934021
0.4191659986972809 0.7831802368164062 0.5522972941398621
0.3788054883480072 0.7334737777709961 0.4351728856563568
0.33243975043296814 0.7292893528938293 0.5025337338447571
0.3698872923851013 0.8401771187782288 0.4326461851596832
0.3045710027217865 0.7808294892311096 0.512469470500946
0.36819761991500854 0.8468121886253357 0.4279208183288574
0.44513145089149475 0.7256625890731812 0.5752495527267456
0.26747986674308777 0.862913191318512 0.5634828209877014
0.30567866563796997 0.8000706434249878 0.576770007610321
0.2621324360370636 0.7676704525947571 0.5335803031921387
0.33330070972442627 0.7561405897140503 0.4566632807254791
0.29898810386657715 0.7528036236763 0.5414607524871826
0.40000206232070923 0.7530907988548279 0.4852156341075897
0.31339243054389954 0.798978865146637 0.4538443088531494
0.3895721435546875 0.8366400599479675 0.4013144373893738
0.33068811893463135 0.7750371694564819 0.5931504964828491
0.359001487493515 0.8089950680732727 0.48902589082717896
0.3696593940258026 0.7330630421638489 0.5331518650054932
0.3463217616081238 0.8218113780021667 0.5792319774627686
0.36488670110702515 0.8121868371963501 0.46995702385902405
0.44433194398880005 0.7059464454650879 0.40894776582717896
0.25883254408836365 0.725576639175415 0.5974560976028442
0.29833731055259705 0.8009001612663269 0.43951964378356934
0.2698034644126892 0.8494436740875244 0.5198698043823242
0.25492778420448303 0.8274124264717102 0.512202799320221
0.3662993609905243 0.8834477066993713 0.4902782440185547
0.2588297426700592 0.7715866565704346 0.5818583965301514
0.44032078981399536 0.7909038066864014 0.5280623435974121
0.31413841247558594 0.694000780582428 0.48291248083114624
0.4403676390647888 0.7499397993087769 0.4447636902332306
0.33799293637275696 0.855615496635437 0.41045379638671875
0.27164992690086365 0.7973798513412476 0.47359907627105713
0.3979692757129669 0.7021141648292542 0.4574020206928253
0.3880292773246765 0.7029532790184021 0.484550416469574
0.40973028540611267 0.7140461206436157 0.43504515290260315
0.31662482023239136 0.8042615056037903 0.46777239441871643
0.31333786249160767 0.7329375147819519 0.5722053647041321
0.28071990609169006 0.8150738477706909 0.5677380561828613
0.2964576482772827 0.8002702593803406 0.5813588500022888
0.3662692904472351 0.7043037414550781 0.5514033436775208
0.257123738527298 0.6951786875724792 0.5937758088111877
0.36847713589668274 0.706741452217102 0.42892056703567505
0.41505539417266846 0.7684469223022461 0.5607191920280457
0.37946271896362305 0.7588906288146973 0.5482574701309204
0.38795414566993713 0.8126351833343506 0.4257078468799591
0.395302951335907 0.8208609223365784 0.41455039381980896
0.2614857256412506 0.7575449347496033 0.5405373573303223
0.32130375504493713 0.8780310750007629 0.41784927248954773
0.38912028074264526 0.6999093294143677 0.46766379475593567
0.4026744067668915 0.8743920922279358 0.40779852867126465
0.4443134069442749 0.8241152167320251 0.4087217152118683
0.3477942943572998 0.8501409292221069 0.5484744906425476
0.2759310007095337 0.7336698770523071 0.5260492563247681
0.33208194375038147 0.8471762537956238 0.5081901550292969
0.44938236474990845 0.7578232288360596 0.4922458231449127
0.37962713837623596 0.8720672130584717 0.41262751817703247
0.4490088224411011 0.7167856693267822 0.46192482113838196
0.30286267399787903 0.7796099185943604 0.40704345703125
0.29235395789146423 0.8329188823699951 0.5233225226402283
0.2645203471183777 0.8735638856887817 0.5081167817115784
0.325507253408432 0.6995170712471008 0.40560099482536316
0.37933680415153503 0.7995843887329102 0.5937432646751404
0.3127101957798004 0.8065988421440125 0.46541908383369446
0.31568560004234314 0.7150003910064697 0.5698744654655457
0.33410975337028503 0.7874036431312561 0.5247142314910889
0.2782014310359955 0.6904332637786865 0.4772143065929413
0.4368596076965332 0.8508704304695129 0.491704523563385
0.4143536686897278 0.8296769857406616 0.5944867730140686
0.35391664505004883 0.748461127281189 0.5460959076881409
0.3481610417366028 0.8233286142349243 0.45644089579582214
0.4498651623725891 0.8175395727157593 0.5690959095954895
0.26665082573890686 0.7424482107162476 0.46251150965690613
0.260125070810318 0.8001546859741211 0.5848626494407654
0.3692602217197418 0.7337268590927124 0.4754096269607544
0.36114561557769775 0.7204617261886597 0.4686051607131958
0.2523181736469269 0.8207987546920776 0.5848460793495178
0.26795434951782227 0.6970691680908203 0.42391663789749146
0.448310911655426 0.8479336500167847 0.5904052257537842
0.3039681613445282 0.7668126225471497 0.4869433045387268
0.2555769383907318 0.8643408417701721 0.4913116693496704
0.3181025981903076 0.8235156536102295 0.4218501150608063
0.34822630882263184 0.8559859395027161 0.588051438331604
0.39081132411956787 0.6888604164123535 0.44784730672836304
0.25916168093681335 0.7797596454620361 0.5607390999794006
0.420229434967041 0.6845431923866272 0.480653315782547
0.3142707943916321 0.7607553601264954 0.40580782294273376
0.3693754971027374 0.8707178235054016 0.43155163526535034
0.31661853194236755 0.8115286231040955 0.5298307538032532
0.32699087262153625 0.6973875761032104 0.46791449189186096
0.3588676452636719 0.7658575773239136 0.475331574678421
0.39912325143814087 0.7885159850120544 0.42866602540016174
0.3528827726840973 0.7284436821937561 0.5323862433433533
0.2537258267402649 0.6848147511482239 0.4133363664150238
0.2856648862361908 0.8367103934288025 0.47068002820014954
0.3334750533103943 0.7635718584060669 0.40319064259529114
0.4304751455783844 0.7405096292495728 0.5323786735534668
0.2504867911338806 0.8708010911941528 0.5647565126419067
0.4469597637653351 0.7570603489875793 0.46751371026039124
0.4185203015804291 0.8723839521408081 0.45827120542526245
0.30383995175361633 0.7539423704147339 0.4625774919986725
0.38305342197418213 0.7430341243743896 0.44597306847572327
0.33477434515953064 0.7367259860038757 0.5617740750312805
0.2985151410102844 0.8150205612182617 0.41065463423728943
0.33852192759513855 0.7912718653678894 0.47724151611328125
0.34425291419029236 0.7842051982879639 0.488299161195755
0.42533865571022034 0.833621621131897 0.586317777633667
0.3889980614185333 0.8502216935157776 0.5735216736793518
0.4035358726978302 0.6987918615341187 0.4434860050678253
0.26316770911216736 0.8386961817741394 0.5039086937904358
0.4083920419216156 0.7033505439758301 0.4046708047389984
0.3545823097229004 0.7894541621208191 0.40653303265571594
0.2524646520614624 0.767732560634613 0.4578360617160797
0.3809587061405182 0.805080235004425 0.587645411491394
0.35404619574546814 0.7156044244766235 0.41365957260131836
0.32638800144195557 0.7980611324310303 0.5659695863723755
0.4043867588043213 0.7972579002380371 0.5762237906455994
0.39699625968933105 0.8011189103126526 0.510964035987854
0.42991775274276733 0.7641648650169373 0.5280293822288513
0.3317739963531494 0.850524365901947 0.4112938642501831
0.38703453540802 0.7936867475509644 0.5325409770011902
0.28336644172668457 0.8333858251571655 0.4010361433029175
0.36319592595100403 0.7152165770530701 0.5437948703765869
0.2924560308456421 0.8305151462554932 0.44281795620918274
0.4134601950645447 0.7517502903938293 0.5605906248092651
0.36335644125938416 0.7962295413017273 0.4571376442909241
0.43721333146095276 0.8298279643058777 0.49158668518066406
0.28277090191841125 0.847637951374054 0.4618922472000122
0.43438223004341125 0.8230154514312744 0.42170438170433044
0.4251422882080078 0.7041730880737305 0.5023469924926758
0.3787200450897217 0.7026137709617615 0.4995499849319458
0.4441356062889099 0.7525840401649475 0.5848926305770874
0.4403620958328247 0.8690758347511292 0.40249067544937134
0.3850196599960327 0.7099230289459229 0.5143691897392273
0.2682068943977356 0.8157421946525574 0.5238412618637085
0.36269745230674744 0.8714866042137146 0.45460742712020874
0.3669075071811676 0.6942901611328125 0.4040597975254059
0.3094387352466583 0.8350540995597839 0.414889931678772
0.4407695531845093 0.7100096344947815 0.4815550148487091
0.26817697286605835 0.832520604133606 0.5123263001441956
0.41044649481773376 0.8418093919754028 0.5652554631233215
0.3254508078098297 0.8151169419288635 0.534364640712738
0.2911229133605957 0.8442407250404358 0.560067355632782
0.3614650070667267 0.7381836175918579 0.4314744472503662
0.4070521593093872 0.7213472723960876 0.5341958403587341
0.4169950783252716 0.7298230528831482 0.45872974395751953
0.4442998468875885 0.8474372029304504 0.5877708792686462
0.30497127771377563 0.6869021654129028 0.4181234538555145
0.3699392080307007 0.8673686385154724 0.5065351724624634
0.3310098946094513 0.8426292538642883 0.5826557278633118
0.3627506196498871 0.7934671640396118 0.4858180284500122
0.4476744532585144 0.8826547265052795 0.4888187050819397
0.42068883776664734 0.758956253528595 0.5301328897476196
0.3811243772506714 0.8134962916374207 0.5087383985519409
0.37643152475357056 0.8332842588424683 0.40419793128967285
0.440375953912735 0.8836003541946411 0.4355612099170685
0.4205658733844757 0.7971467971801758 0.5940380096435547
0.2923278212547302 0.7761741876602173 0.5635320544242859
0.4219266474246979 0.8062828183174133 0.4892015755176544
0.28932252526283264 0.7644320130348206 0.5778182744979858
0.4480779469013214 0.7600886821746826 0.4504164755344391
0.34127676486968994 0.8397210240364075 0.4988814890384674
0.345602422952652 0.8158718347549438 0.5735991597175598
0.28521233797073364 0.8115727305412292 0.4604831635951996
0.2976824939250946 0.8085301518440247 0.41543811559677124
0.2566673159599304 0.7778730988502502 0.44334661960601807
0.351921409368515 0.8023809790611267 0.4140840768814087
0.35868024826049805 0.8136469721794128 0.4252365529537201
0.2541050910949707 0.7717097997665405 0.5416404008865356
0.4396161139011383 0.881601095199585 0.42830154299736023
0.4409615695476532 0.8659611344337463 0.41132038831710815
0.3778114318847656 0.8435487747192383 0.5105003118515015
0.29591119289398193 0.7416390776634216 0.4719401001930237
0.32299450039863586 0.7435512542724609 0.42622947692871094
0.4104827344417572 0.8710206151008606 0.40509966015815735
0.39515799283981323 0.6937457323074341 0.4591321647167206
0.3100997805595398 0.833244800567627 0.40833109617233276
0.430353581905365 0.8756030797958374 0.5497550964355469
0.4385495185852051 0.7036256790161133 0.4252166748046875
0.28152909874916077 0.7412968277931213 0.4462944269180298
0.3485824167728424 0.8224312663078308 0.5072792768478394
0.3784586787223816 0.8124635219573975 0.5437374114990234
0.38915565609931946 0.7804824113845825 0.528052806854248
0.4435812532901764 0.8232920169830322 0.44167307019233704
0.4161015450954437 0.7686258554458618 0.5683709979057312
0.3420924246311188 0.7860705256462097 0.4967483878135681
0.2801506817340851 0.7514937520027161 0.5238351821899414
0.3137392997741699 0.8248617649078369 0.41272738575935364
0.35050663352012634 0.7798106670379639 0.5812292098999023
0.3958377242088318 0.692823588848114 0.5085521936416626
0.3783315122127533 0.759286642074585 0.4086741507053375
0.28932252526283264 0.7644320130348206 0.5778182744979858
0.4480779469013214 0.7600886821746826 0.4504164755344391
0.34127676486968994 0.8397210240364075 0.4988814890384674
0.345602422952652 0.8158718347549438 0.5735991597175598
0.28521233797073364 0.8115727305412292 0.4604831635951996
0.2976824939250946 0.8085301518440247 0.41543811559677124
0.2566673159599304 0.7778730988502502 0.44334661960601807
0.31438466906547546 0.8144148588180542 0.48214027285575867
0.25883254408836365 0.725576639175415 0.5974560976028442
0.29833731055259705 0.8009001612663269 0.43951964378356934
0.2698034644126892 0.8494436740875244 0.5198698043823242
0.25492778420448303 0.8274124264717102 0.512202799320221
0.39418670535087585 0.6916351318359375 0.47471073269844055
0.42469820380210876 0.7699263095855713 0.4081920087337494
0.2741765081882477 0.7140377163887024 0.43992313742637634
0.4226128160953522 0.7815372943878174 0.49310314655303955
0.39153218269348145 0.8646677136421204 0.4271732270717621
0.25802406668663025 0.8597474098205566 0.5772491097450256
0.4219074845314026 0.730728030204773 0.44608715176582336
0.4351692199707031 0.7807520031929016 0.4075066149234772
0.40791985392570496 0.7302218675613403 0.4011184871196747
0.40253832936286926 0.7814163565635681 0.5501198172569275
0.44008755683898926 0.8344286680221558 0.5419776439666748
0.4205658733844757 0.7971467971801758 0.5940380096435547
0.2923278212547302 0.7761741876602173 0.5635320544242859
0.4219266474246979 0.8062828183174133 0.4892015755176544
0.28932252526283264 0.7644320130348206 0.5778182744979858
0.4480779469013214 0.7600886821746826 0.4504164755344391
0.34127676486968994 0.8397210240364075 0.4988814890384674
0.345602422952652 0.8158718347549438 0.5735991597175598
0.28521233797073364 0.8115727305412292 0.4604831635951996
0.2976824939250946 0.8085301518440247 0.41543811559677124
0.2566673159599304 0.7778730988502502 0.44334661960601807
0.288032591342926 0.7836391925811768 0.5729084014892578
0.2582491636276245 0.742236316204071 0.5592581033706665
0.352354496717453 0.6848768591880798 0.5062313079833984
0.35782259702682495 0.7162579894065857 0.4257999062538147
0.3030349910259247 0.850646436214447 0.5805586576461792
0.3013039827346802 0.8767825365066528 0.4053911864757538
0.4290445148944855 0.8507603406906128 0.5608370304107666
0.3545823097229004 0.7894541621208191 0.40653303265571594
0.2524646520614624 0.767732560634613 0.4578360617160797
0.3809587061405182 0.805080235004425 0.587645411491394
0.3403297960758209 0.8356499671936035 0.501473605632782
0.35526156425476074 0.6858874559402466 0.5501852631568909
0.44898679852485657 0.8449885249137878 0.5340688228607178
0.2908176779747009 0.7794724702835083 0.503134548664093
0.4016917049884796 0.6958178877830505 0.5943976044654846
0.32918107509613037 0.7906742691993713 0.595321536064148
0.30885690450668335 0.8833674788475037 0.4776407778263092
0.35143378376960754 0.8340032696723938 0.5550229549407959
0.39683982729911804 0.6883002519607544 0.5445249676704407
0.2942308783531189 0.8805654048919678 0.4091094434261322
0.2610838711261749 0.8202425241470337 0.42963317036628723
0.40145280957221985 0.8268654942512512 0.5489001870155334
0.4437222480773926 0.8482027053833008 0.5061869621276855
0.44941675662994385 0.8368284106254578 0.43035414814949036
0.44723328948020935 0.6941049098968506 0.45469337701797485
0.39043593406677246 0.8005958795547485 0.47100645303726196
0.29848694801330566 0.807284951210022 0.5968783497810364
0.39740651845932007 0.8841712474822998 0.4828750193119049
0.37133917212486267 0.8227908611297607 0.5011472105979919
0.34588682651519775 0.7636741399765015 0.5050997734069824
0.3840988576412201 0.811591386795044 0.5155186653137207
0.3956972658634186 0.7318251132965088 0.40583229064941406
0.3494539260864258 0.7111435532569885 0.453413724899292
0.3535638153553009 0.8002876043319702 0.45323657989501953
0.25989848375320435 0.8762058019638062 0.5356682538986206
0.4090435802936554 0.8386762142181396 0.5950077772140503
0.26533573865890503 0.7745746970176697 0.5601444244384766
0.4220511019229889 0.8374344706535339 0.5286884307861328
0.33852192759513855 0.7912718653678894 0.47724151611328125
0.44734370708465576 0.7515106201171875 0.5905211567878723
0.2952844798564911 0.8748520612716675 0.5451347231864929
0.34822511672973633 0.8447141647338867 0.5739328265190125
0.3704270124435425 0.7185001373291016 0.4976986348628998
0.3588576912879944 0.7294224500656128 0.460536390542984
0.32229888439178467 0.761486291885376 0.48844674229621887
0.3693475127220154 0.8434526324272156 0.41186031699180603
0.28111371397972107 0.8086369037628174 0.5618283152580261
0.3771769106388092 0.7022764086723328 0.4893820881843567
0.36926382780075073 0.6891130805015564 0.42845192551612854
