ply
format ascii 1.0
element vertex 825
property float x
property float y
property float z
end_header
0.5329725742340088 0.19572104513645172 0.5082393884658813
0.4261588752269745 0.14443138241767883 0.5184158086776733
0.4837169349193573 0.11390060186386108 0.48816248774528503
0.5050323009490967 0.16167254745960236 0.4635794758796692
0.49138393998146057 0.21599552035331726 0.4384068548679352
0.5532900094985962 0.14584514498710632 0.4033440947532654
0.5354275107383728 0.23745061457157135 0.4717254340648651
0.5768232941627502 0.16010886430740356 0.5487664937973022
0.4704303443431854 0.13228294253349304 0.4186966121196747
0.4627561867237091 0.09872543811798096 0.5944533944129944
0.5764806866645813 0.15836381912231445 0.5018477439880371
0.4722941815853119 0.23182877898216248 0.44699227809906006
0.46577927470207214 0.20450285077095032 0.5014786124229431
0.5221927165985107 0.14523209631443024 0.49664437770843506
0.5078212022781372 0.13948234915733337 0.4842166006565094
0.5277281403541565 0.1719968020915985 0.5369996428489685
0.549854040145874 0.2273881435394287 0.5142194628715515
0.6150549650192261 0.12613044679164886 0.5269746780395508
0.40887781977653503 0.1726706624031067 0.5232600569725037
0.6147952675819397 0.14695759117603302 0.5693246126174927
0.4085509479045868 0.14892049133777618 0.4621902108192444
0.4586883783340454 0.14367817342281342 0.4749108552932739
0.5929199457168579 0.14458982646465302 0.5405486822128296
0.508903443813324 0.16105273365974426 0.5554182529449463
0.5248261094093323 0.09888559579849243 0.5704097151756287
0.6139176487922668 0.1541077345609665 0.5660107731819153
0.5452300310134888 0.1056051105260849 0.5851392149925232
0.6140321493148804 0.12304806709289551 0.3938922882080078
0.4845788776874542 0.1948011964559555 0.5373327732086182
0.5400245785713196 0.10506179183721542 0.4373737573623657
0.48672032356262207 0.18867892026901245 0.6016144752502441
0.5546841621398926 0.10700966417789459 0.5691661238670349
0.517234742641449 0.19129207730293274 0.45262590050697327
0.4733431339263916 0.1568913757801056 0.5620583295822144
0.45577818155288696 0.09792493283748627 0.4894281327724457
0.5682220458984375 0.12483644485473633 0.4923851788043976
0.5159564018249512 0.2262449711561203 0.556334376335144
0.532951831817627 0.22861140966415405 0.5167943835258484
0.5328685641288757 0.13277709484100342 0.5066512823104858
0.4709276258945465 0.10702769458293915 0.43411704897880554
0.5343672037124634 0.1581851989030838 0.529983639717102
0.5403807163238525 0.15184541046619415 0.41235679388046265
0.4783598482608795 0.13790611922740936 0.5230129361152649
0.5531622171401978 0.12629671394824982 0.4184543192386627
0.5372197031974792 0.1482768952846527 0.39910897612571716
0.5234168171882629 0.10043137520551682 0.5299826860427856
0.4347763955593109 0.1237955391407013 0.5925912857055664
0.4969443678855896 0.10702018439769745 0.563845157623291
0.4626196324825287 0.12102363258600235 0.4541518986225128
0.4625958204269409 0.15619218349456787 0.5526561141014099
0.4239438474178314 0.18177218735218048 0.45909813046455383
0.5820937156677246 0.10946855694055557 0.5849319100379944
0.43428516387939453 0.14095856249332428 0.5758500695228577
0.4498642683029175 0.1550373136997223 0.44175416231155396
0.5273571610450745 0.19105467200279236 0.43833065032958984
0.4404481053352356 0.09696245193481445 0.5502844452857971
0.576072096824646 0.16846494376659393 0.47461143136024475
0.5886814594268799 0.17517341673374176 0.5457668900489807
0.45392361283302307 0.2096697986125946 0.4460967481136322
0.5527358055114746 0.10751541703939438 0.48163706064224243
0.5452300310134888 0.1056051105260849 0.5851392149925232
0.6140321493148804 0.12304806709289551 0.3938922882080078
0.4845788776874542 0.1948011964559555 0.5373327732086182
0.5065281391143799 0.21054039895534515 0.5099742412567139
0.5250169634819031 0.18724274635314941 0.5281786918640137
0.41556745767593384 0.17579010128974915 0.5120355486869812
0.49877458810806274 0.10924026370048523 0.4124511182308197
0.5856525301933289 0.1140625923871994 0.5268321633338928
0.5273757576942444 0.1985366940498352 0.43879809975624084
0.48743385076522827 0.09918466955423355 0.41326236724853516
0.5368509292602539 0.14359509944915771 0.5842124223709106
0.4663971960544586 0.11130479723215103 0.4965386986732483
0.49046051502227783 0.1958589255809784 0.5177497267723083
0.5686060786247253 0.1904297024011612 0.49102848768234253
0.5910735726356506 0.1275644749403 0.4331904649734497
0.45849183201789856 0.10179763287305832 0.3981507122516632
0.44969648122787476 0.10444782674312592 0.43321600556373596
0.4443223178386688 0.10746174305677414 0.5061795115470886
0.4562056064605713 0.2154286652803421 0.5007542967796326
0.500551164150238 0.18659265339374542 0.5705364942550659
0.5130573511123657 0.10313547402620316 0.428016722202301
0.46507468819618225 0.12610265612602234 0.5862531661987305
0.6408047676086426 0.11408363282680511 0.5279700756072998
0.5313940644264221 0.2321425974369049 0.4990924596786499
0.4766862094402313 0.1960122287273407 0.5983320474624634
0.533053994178772 0.12847009301185608 0.4515748918056488
0.45869067311286926 0.1245071217417717 0.5236638784408569
0.492655485868454 0.19809241592884064 0.44986847043037415
0.4528675079345703 0.16669708490371704 0.5648548603057861
0.45577818155288696 0.09792493283748627 0.4894281327724457
0.5343672037124634 0.1581851989030838 0.529983639717102
0.5403807163238525 0.15184541046619415 0.41235679388046265
0.4783598482608795 0.13790611922740936 0.5230129361152649
0.5624302625656128 0.1051616370677948 0.4010765850543976
0.4367193877696991 0.11450411379337311 0.5344412326812744
0.5001650452613831 0.10458853095769882 0.5261276960372925
0.5250169634819031 0.18724274635314941 0.5281786918640137
0.41556745767593384 0.17579010128974915 0.5120355486869812
0.5808855891227722 0.15507599711418152 0.4012547433376312
0.49608609080314636 0.15802288055419922 0.5904842019081116
0.4411592185497284 0.10261363536119461 0.5297935605049133
0.4178607165813446 0.1711215227842331 0.5088080167770386
0.5127590894699097 0.21564695239067078 0.44436073303222656
0.44453927874565125 0.1632179468870163 0.4583702087402344
0.4493456184864044 0.09900809079408646 0.5738945007324219
0.5446286797523499 0.13500690460205078 0.46904468536376953
0.500551164150238 0.18659265339374542 0.5705364942550659
0.5130573511123657 0.10313547402620316 0.428016722202301
0.46507468819618225 0.12610265612602234 0.5862531661987305
0.6264598965644836 0.13861258327960968 0.4685293734073639
0.556954026222229 0.20214995741844177 0.451213002204895
0.48688438534736633 0.09962508082389832 0.5318310260772705
0.4729405343532562 0.22132208943367004 0.5816433429718018
0.48570793867111206 0.10968001931905746 0.5529003739356995
0.43713289499282837 0.13222527503967285 0.4018772840499878
0.47719240188598633 0.16178397834300995 0.4243023693561554
0.4581124782562256 0.10656455904245377 0.38464608788490295
0.5332869291305542 0.10622446238994598 0.48655372858047485
0.41400405764579773 0.13698963820934296 0.4590694010257721
0.5392634272575378 0.10526508837938309 0.4845905005931854
0.49266165494918823 0.21588969230651855 0.5157693028450012
0.517234742641449 0.19129207730293274 0.45262590050697327
0.5343672037124634 0.1581851989030838 0.529983639717102
0.5403807163238525 0.15184541046619415 0.41235679388046265
0.4783598482608795 0.13790611922740936 0.5230129361152649
0.5624302625656128 0.1051616370677948 0.4010765850543976
0.4367193877696991 0.11450411379337311 0.5344412326812744
0.5001650452613831 0.10458853095769882 0.5261276960372925
0.5250169634819031 0.18724274635314941 0.5281786918640137
0.41556745767593384 0.17579010128974915 0.5120355486869812
0.5808855891227722 0.15507599711418152 0.4012547433376312
0.49608609080314636 0.15802288055419922 0.5904842019081116
0.4411592185497284 0.10261363536119461 0.5297935605049133
0.4178607165813446 0.1711215227842331 0.5088080167770386
0.5127590894699097 0.21564695239067078 0.44436073303222656
0.44453927874565125 0.1632179468870163 0.4583702087402344
0.4493456184864044 0.09900809079408646 0.5738945007324219
0.5446286797523499 0.13500690460205078 0.46904468536376953
0.500551164150238 0.18659265339374542 0.5705364942550659
0.5130573511123657 0.10313547402620316 0.428016722202301
0.46507468819618225 0.12610265612602234 0.5862531661987305
0.6264598965644836 0.13861258327960968 0.4685293734073639
0.556954026222229 0.20214995741844177 0.451213002204895
0.48293906450271606 0.12566062808036804 0.45429179072380066
0.5198686718940735 0.10106586664915085 0.401435524225235
0.41344621777534485 0.14121124148368835 0.4392607510089874
0.5421796441078186 0.1981031745672226 0.5513783693313599
0.6317256093025208 0.1149713471531868 0.48450568318367004
0.5250152945518494 0.17576216161251068 0.48630109429359436
0.45861193537712097 0.18450450897216797 0.5459070801734924
0.4555262625217438 0.1124924048781395 0.4094337522983551
0.50721675157547 0.12701421976089478 0.5558226108551025
0.44281092286109924 0.13988909125328064 0.5225588083267212
0.5682220458984375 0.12483644485473633 0.4923851788043976
0.5328685641288757 0.13277709484100342 0.5066512823104858
0.4709276258945465 0.10702769458293915 0.43411704897880554
0.5343672037124634 0.1581851989030838 0.529983639717102
0.5403807163238525 0.15184541046619415 0.41235679388046265
0.4783598482608795 0.13790611922740936 0.5230129361152649
0.5624302625656128 0.1051616370677948 0.4010765850543976
0.4367193877696991 0.11450411379337311 0.5344412326812744
0.5001650452613831 0.10458853095769882 0.5261276960372925
0.5250169634819031 0.18724274635314941 0.5281786918640137
0.41556745767593384 0.17579010128974915 0.5120355486869812
0.5808855891227722 0.15507599711418152 0.4012547433376312
0.49608609080314636 0.15802288055419922 0.5904842019081116
0.4411592185497284 0.10261363536119461 0.5297935605049133
0.4178607165813446 0.1711215227842331 0.5088080167770386
0.5127590894699097 0.21564695239067078 0.44436073303222656
0.44453927874565125 0.1632179468870163 0.4583702087402344
0.4493456184864044 0.09900809079408646 0.5738945007324219
0.5446286797523499 0.13500690460205078 0.46904468536376953
0.500551164150238 0.18659265339374542 0.5705364942550659
0.5130573511123657 0.10313547402620316 0.428016722202301
0.46507468819618225 0.12610265612602234 0.5862531661987305
0.6264598965644836 0.13861258327960968 0.4685293734073639
0.556954026222229 0.20214995741844177 0.451213002204895
0.48293906450271606 0.12566062808036804 0.45429179072380066
0.4426784813404083 0.09841432422399521 0.5828238725662231
0.5397084951400757 0.1654420793056488 0.5705292224884033
0.58011394739151 0.17324097454547882 0.46671414375305176
0.5333696603775024 0.1004992425441742 0.5315403342247009
0.48760443925857544 0.10105457156896591 0.515981137752533
0.47715330123901367 0.1789146363735199 0.5364099740982056
0.4794480800628662 0.19892817735671997 0.5745259523391724
0.5446286797523499 0.13500690460205078 0.46904468536376953
0.42636245489120483 0.1107877716422081 0.5132686495780945
0.45759117603302 0.1429542452096939 0.4719524383544922
0.5949171185493469 0.1844942569732666 0.588586151599884
0.5371508002281189 0.13011793792247772 0.5000106692314148
0.44666239619255066 0.09798521548509598 0.5819005370140076
0.5535761117935181 0.14495840668678284 0.43848350644111633
0.4389302432537079 0.10161850601434708 0.3887774348258972
0.4514737129211426 0.09894958883523941 0.5424575805664062
0.4749770760536194 0.2019629031419754 0.5751078724861145
0.5169681310653687 0.23505523800849915 0.4741392135620117
0.5403335094451904 0.12644408643245697 0.48217353224754333
0.4688839316368103 0.13632172346115112 0.5810967683792114
0.5268633961677551 0.15500986576080322 0.47845762968063354
0.47923544049263 0.13081444799900055 0.42377349734306335
0.4858025312423706 0.1769673377275467 0.5927689075469971
0.5432965159416199 0.1763913333415985 0.5323805809020996
0.4639878273010254 0.22247986495494843 0.5270323157310486
0.4544920027256012 0.1876959353685379 0.49440494179725647
0.5249171257019043 0.1443915218114853 0.4321673512458801
0.42625752091407776 0.1860046684741974 0.4622976779937744
0.5011001825332642 0.1753968447446823 0.47685426473617554
0.5009337663650513 0.10267683863639832 0.44246694445610046
0.425314724445343 0.12593895196914673 0.5973601937294006
0.49314072728157043 0.11753826588392258 0.5461187362670898
0.5138778686523438 0.10054187476634979 0.4530005156993866
0.46243008971214294 0.10587164759635925 0.5483986139297485
0.46463876962661743 0.10913275927305222 0.5295776128768921
0.5729475021362305 0.20537227392196655 0.45026886463165283
0.42133069038391113 0.14469949901103973 0.43383046984672546
0.49672430753707886 0.11919348686933517 0.5180444121360779
0.5866252779960632 0.13444453477859497 0.5547715425491333
0.46507468819618225 0.12610265612602234 0.5862531661987305
0.5729475021362305 0.20537227392196655 0.45026886463165283
0.42133069038391113 0.14469949901103973 0.43383046984672546
0.6246244311332703 0.13159848749637604 0.5253097414970398
0.583772599697113 0.1425829529762268 0.4488251209259033
0.4441851079463959 0.10049305111169815 0.4511845111846924
0.4415731728076935 0.14429442584514618 0.4761505424976349
0.5665748119354248 0.21612130105495453 0.5953445434570312
0.4341137409210205 0.1731908917427063 0.5535049438476562
0.5226189494132996 0.10098434239625931 0.4563728868961334
0.4515868127346039 0.12511739134788513 0.5227034687995911
0.6066049933433533 0.11521150916814804 0.4849783182144165
0.4819387197494507 0.12341003865003586 0.45286041498184204
0.5863372683525085 0.12669488787651062 0.5032733678817749
0.4446061849594116 0.10773524641990662 0.5758265256881714
0.5238105058670044 0.11239416152238846 0.3948608636856079
0.5675176382064819 0.18827231228351593 0.5603148341178894
0.4845947027206421 0.10051651298999786 0.5447189211845398
0.4677419066429138 0.12687557935714722 0.5871415734291077
0.5355274677276611 0.12657509744167328 0.5390589833259583
0.5408176183700562 0.22129680216312408 0.5667847990989685
0.4682365357875824 0.09945404529571533 0.5431845188140869
0.5256650447845459 0.12199702113866806 0.5669204592704773
0.5255832076072693 0.2105311006307602 0.5728396773338318
0.40228667855262756 0.16353008151054382 0.5816547870635986
0.4851665496826172 0.1611889898777008 0.4527514576911926
0.4765912890434265 0.11867562681436539 0.604017436504364
0.5148879885673523 0.14118534326553345 0.41187843680381775
0.4849220812320709 0.10240455716848373 0.5523462295532227
0.47745180130004883 0.15197281539440155 0.47561749815940857
0.5391024351119995 0.10122501850128174 0.5324749946594238
0.5068124532699585 0.11298083513975143 0.420483261346817
0.5964165925979614 0.13286419212818146 0.5264552235603333
0.45759117603302 0.1429542452096939 0.4719524383544922
0.5949171185493469 0.1844942569732666 0.588586151599884
0.5371508002281189 0.13011793792247772 0.5000106692314148
0.44666239619255066 0.09798521548509598 0.5819005370140076
0.5535761117935181 0.14495840668678284 0.43848350644111633
0.4389302432537079 0.10161850601434708 0.3887774348258972
0.4514737129211426 0.09894958883523941 0.5424575805664062
0.4749770760536194 0.2019629031419754 0.5751078724861145
0.421261191368103 0.12750545144081116 0.5905402898788452
0.47456905245780945 0.1274786740541458 0.5522158145904541
0.5549123287200928 0.16972045600414276 0.5229558944702148
0.6081104278564453 0.13724568486213684 0.4749193489551544
0.4912583529949188 0.22301660478115082 0.46947136521339417
0.5628946423530579 0.21847698092460632 0.5168022513389587
0.45565640926361084 0.11719620227813721 0.549589991569519
0.5061951279640198 0.2128179520368576 0.4180685579776764
0.5214917063713074 0.1441330909729004 0.4608028829097748
0.4988967180252075 0.12397829443216324 0.5342279672622681
0.5093756914138794 0.14771492779254913 0.588459312915802
0.4217691421508789 0.14074043929576874 0.47761693596839905
0.4816744923591614 0.10124962031841278 0.48514631390571594
0.45321589708328247 0.10389667004346848 0.5825724005699158
0.5283200740814209 0.2493041306734085 0.517806887626648
0.4517383277416229 0.16130481660366058 0.5167420506477356
0.5774821043014526 0.14154884219169617 0.40538710355758667
0.481188029050827 0.1890403777360916 0.44787803292274475
0.6279379725456238 0.12849898636341095 0.5761125087738037
0.4445379078388214 0.170831099152565 0.4930069148540497
0.46375030279159546 0.10486024618148804 0.551617443561554
0.5649612545967102 0.17653822898864746 0.5808800458908081
0.5561948418617249 0.15343067049980164 0.48946520686149597
0.6317256093025208 0.1149713471531868 0.48450568318367004
0.5522314310073853 0.19286449253559113 0.4295715391635895
0.47504478693008423 0.21923203766345978 0.468219518661499
0.46024617552757263 0.19122420251369476 0.6052936911582947
0.4605671167373657 0.20189453661441803 0.5376918911933899
0.5264785289764404 0.1077786237001419 0.5684540867805481
0.5197846293449402 0.16698969900608063 0.47491922974586487
0.6311271786689758 0.1461382657289505 0.5754663944244385
0.44690442085266113 0.11608079075813293 0.42600294947624207
0.5656158924102783 0.14068830013275146 0.43069255352020264
0.6162262558937073 0.1115284115076065 0.5160348415374756
0.4831013083457947 0.22728845477104187 0.4654337465763092
0.6327066421508789 0.12302391231060028 0.4718426764011383
0.5773581862449646 0.11285392194986343 0.50295490026474
0.46736636757850647 0.10311835259199142 0.5855940580368042
0.4523591697216034 0.13089357316493988 0.4390397071838379
0.4457125961780548 0.09655662626028061 0.5021977424621582
0.4775916337966919 0.10127933323383331 0.389156699180603
0.4621039927005768 0.11415858566761017 0.49218034744262695
0.4073665142059326 0.16550283133983612 0.42671939730644226
0.49277979135513306 0.10687152296304703 0.49067583680152893
0.4634915888309479 0.1593528389930725 0.6041642427444458
0.4568191170692444 0.17276152968406677 0.5271725058555603
0.4632251560688019 0.19817636907100677 0.5047656297683716
0.4645809829235077 0.1498793661594391 0.46385419368743896
0.5135408043861389 0.09698503464460373 0.5551053285598755
0.6197235584259033 0.13949339091777802 0.4584469497203827
0.4568454623222351 0.14042840898036957 0.5391177535057068
0.5770305395126343 0.15470536053180695 0.5447799563407898
0.5039395689964294 0.1416560560464859 0.4131707549095154
0.40896308422088623 0.146169513463974 0.6035877466201782
0.42826414108276367 0.143610417842865 0.4857010841369629
0.4979100227355957 0.18360815942287445 0.45848777890205383
0.5016961693763733 0.17850396037101746 0.4308399260044098
0.5397456288337708 0.19119031727313995 0.5659815073013306
0.6287545561790466 0.14668995141983032 0.5691096186637878
0.5466755032539368 0.16413980722427368 0.44105786085128784
0.46781185269355774 0.09614986181259155 0.5101058483123779
0.4684627056121826 0.22826185822486877 0.4294320344924927
0.4033932685852051 0.1437070071697235 0.5596679449081421
0.4515705108642578 0.11200997233390808 0.5891005396842957
0.6064854264259338 0.11631985008716583 0.46248412132263184
0.4248725175857544 0.1417347639799118 0.525198221206665
0.49071481823921204 0.10057365894317627 0.4768817126750946
0.4459901750087738 0.09943679720163345 0.46502313017845154
0.6030810475349426 0.1373000293970108 0.5421618819236755
0.39847221970558167 0.14830926060676575 0.42842409014701843
0.4904811978340149 0.17647677659988403 0.446330726146698
0.4572048485279083 0.17316307127475739 0.48053839802742004
0.44641613960266113 0.1077694296836853 0.4500162899494171
0.4664471447467804 0.10734767466783524 0.4414469599723816
0.5583136677742004 0.14254556596279144 0.49886104464530945
0.4761546552181244 0.19839653372764587 0.5548236966133118
0.47153404355049133 0.2065870314836502 0.4761076867580414
0.4409373104572296 0.10698605328798294 0.3883034884929657
0.5515170693397522 0.19191449880599976 0.569582462310791
0.543430507183075 0.152991384267807 0.5815820097923279
0.5515170693397522 0.19191449880599976 0.569582462310791
0.543430507183075 0.152991384267807 0.5815820097923279
0.4676652252674103 0.17532290518283844 0.48821765184402466
0.6109422445297241 0.12741869688034058 0.5359434485435486
0.49368441104888916 0.2324102520942688 0.48053720593452454
0.4244924783706665 0.15174023807048798 0.41258397698402405
0.5101787447929382 0.16768191754817963 0.47751379013061523
0.6317256093025208 0.1149713471531868 0.48450568318367004
0.42133069038391113 0.14469949901103973 0.43383046984672546
0.49672430753707886 0.11919348686933517 0.5180444121360779
0.5866252779960632 0.13444453477859497 0.5547715425491333
0.5439403653144836 0.1668090671300888 0.5069573521614075
0.583772599697113 0.1425829529762268 0.4488251209259033
0.4441851079463959 0.10049305111169815 0.4511845111846924
0.5753873586654663 0.12176644057035446 0.5576876401901245
0.4177740812301636 0.1272388994693756 0.49100756645202637
0.4786771833896637 0.20405590534210205 0.5126106142997742
0.4258868396282196 0.11643806099891663 0.4414970874786377
0.5769579410552979 0.11192526668310165 0.3972626030445099
0.5803932547569275 0.12664037942886353 0.38943636417388916
0.5613576769828796 0.14164450764656067 0.4587816596031189
0.4806377589702606 0.2187035232782364 0.51584392786026
0.4819387197494507 0.12341003865003586 0.45286041498184204
0.5863372683525085 0.12669488787651062 0.5032733678817749
0.4446061849594116 0.10773524641990662 0.5758265256881714
0.5238105058670044 0.11239416152238846 0.3948608636856079
0.5675176382064819 0.18827231228351593 0.5603148341178894
0.4845947027206421 0.10051651298999786 0.5447189211845398
0.4677419066429138 0.12687557935714722 0.5871415734291077
0.5355274677276611 0.12657509744167328 0.5390589833259583
0.5408176183700562 0.22129680216312408 0.5667847990989685
0.4682365357875824 0.09945404529571533 0.5431845188140869
0.5256650447845459 0.12199702113866806 0.5669204592704773
0.5166642665863037 0.15973949432373047 0.5150099992752075
0.5197029709815979 0.25854888558387756 0.4672299325466156
0.4621582627296448 0.15083345770835876 0.5093525052070618
0.6112439632415771 0.13124775886535645 0.39245742559432983
0.4851665496826172 0.1611889898777008 0.4527514576911926
0.5120218396186829 0.10219224542379379 0.5158237814903259
0.4396582245826721 0.10020489245653152 0.5445680618286133
0.39847221970558167 0.14830926060676575 0.42842409014701843
0.4904811978340149 0.17647677659988403 0.446330726146698
0.4572048485279083 0.17316307127475739 0.48053839802742004
0.4664471447467804 0.10734767466783524 0.4414469599723816
0.5583136677742004 0.14254556596279144 0.49886104464530945
0.4761546552181244 0.19839653372764587 0.5548236966133118
0.47153404355049133 0.2065870314836502 0.4761076867580414
0.47153404355049133 0.2065870314836502 0.4761076867580414
0.4409373104572296 0.10698605328798294 0.3883034884929657
0.5515170693397522 0.19191449880599976 0.569582462310791
0.543430507183075 0.152991384267807 0.5815820097923279
0.4676652252674103 0.17532290518283844 0.48821765184402466
0.4676652252674103 0.17532290518283844 0.48821765184402466
0.6109422445297241 0.12741869688034058 0.5359434485435486
0.49368441104888916 0.2324102520942688 0.48053720593452454
0.5225437879562378 0.18282663822174072 0.43088871240615845
0.4244924783706665 0.15174023807048798 0.41258397698402405
0.5101787447929382 0.16768191754817963 0.47751379013061523
0.572401762008667 0.2102508693933487 0.5831096172332764
0.5298537015914917 0.26139235496520996 0.47775548696517944
0.5098822116851807 0.10841871798038483 0.4582613408565521
0.4660549461841583 0.1530984491109848 0.5323839783668518
0.44193997979164124 0.11877872049808502 0.529343843460083
0.46215322613716125 0.2274584323167801 0.42402657866477966
0.457387775182724 0.10255859792232513 0.49724656343460083
0.4909864068031311 0.12211550027132034 0.4990667998790741
0.43713489174842834 0.09934030473232269 0.516334593296051
0.43713489174842834 0.09934030473232269 0.516334593296051
0.5073383450508118 0.17430433630943298 0.4981280565261841
0.5630627870559692 0.1421661227941513 0.5368909239768982
0.5224035382270813 0.23598787188529968 0.4919789731502533
0.5114014148712158 0.18099196255207062 0.42296719551086426
0.5873005986213684 0.1584721952676773 0.4728577136993408
0.4773296117782593 0.1709403544664383 0.520651638507843
0.5727288722991943 0.17284250259399414 0.4372531771659851
0.4582892954349518 0.13216684758663177 0.594695508480072
0.47003281116485596 0.10511491447687149 0.44025421142578125
0.5401234030723572 0.23530574142932892 0.4775570333003998
0.4653152823448181 0.11202900856733322 0.5916107892990112
0.43478506803512573 0.10295407474040985 0.4496469795703888
0.40869179368019104 0.17060880362987518 0.5921042561531067
0.5612578988075256 0.2123231738805771 0.5966235995292664
0.44345661997795105 0.16394832730293274 0.5862476825714111
0.45150527358055115 0.19185906648635864 0.5462726950645447
0.44492223858833313 0.17912569642066956 0.4238537847995758
0.4659886062145233 0.09568093717098236 0.5134579539299011
0.5557993650436401 0.10256274789571762 0.46833881735801697
0.4393045902252197 0.1853705793619156 0.5033077001571655
0.5072295665740967 0.16072794795036316 0.5706540942192078
0.4497465491294861 0.19578933715820312 0.5310674905776978
0.4756925404071808 0.0995049700140953 0.46230944991111755
0.5172209143638611 0.2478882521390915 0.5731479525566101
0.5172209143638611 0.2478882521390915 0.5731479525566101
0.48669198155403137 0.10600122064352036 0.3938470184803009
0.5836545825004578 0.1505943238735199 0.40487760305404663
0.4916537404060364 0.14696042239665985 0.47243210673332214
0.4933384358882904 0.17458662390708923 0.44758331775665283
0.5999418497085571 0.13781677186489105 0.3985719382762909
0.5820313692092896 0.10613700747489929 0.5713603496551514
0.5538321137428284 0.15825149416923523 0.5205716490745544
0.5298937559127808 0.13592982292175293 0.49954840540885925
0.5024051666259766 0.13220804929733276 0.4143862724304199
0.537426233291626 0.16089197993278503 0.5205810070037842
0.5201436877250671 0.19513510167598724 0.4597680866718292
0.5601396560668945 0.10799361765384674 0.4881446659564972
0.5357769131660461 0.10129227489233017 0.4507726728916168
0.5154883861541748 0.11777907609939575 0.3944203555583954
0.4497465491294861 0.19578933715820312 0.5310674905776978
0.4756925404071808 0.0995049700140953 0.46230944991111755
0.5172209143638611 0.2478882521390915 0.5731479525566101
0.48669198155403137 0.10600122064352036 0.3938470184803009
0.5836545825004578 0.1505943238735199 0.40487760305404663
0.4916537404060364 0.14696042239665985 0.47243210673332214
0.4933384358882904 0.17458662390708923 0.44758331775665283
0.5999418497085571 0.13781677186489105 0.3985719382762909
0.5820313692092896 0.10613700747489929 0.5713603496551514
0.5538321137428284 0.15825149416923523 0.5205716490745544
0.5298937559127808 0.13592982292175293 0.49954840540885925
0.5171098709106445 0.12776845693588257 0.3959689736366272
0.5024051666259766 0.13220804929733276 0.4143862724304199
0.4387357234954834 0.1845449060201645 0.564903974533081
0.537426233291626 0.16089197993278503 0.5205810070037842
0.42636245489120483 0.1107877716422081 0.5132686495780945
0.45759117603302 0.1429542452096939 0.4719524383544922
0.5949171185493469 0.1844942569732666 0.588586151599884
0.5371508002281189 0.13011793792247772 0.5000106692314148
0.44666239619255066 0.09798521548509598 0.5819005370140076
0.5535761117935181 0.14495840668678284 0.43848350644111633
0.4389302432537079 0.10161850601434708 0.3887774348258972
0.4514737129211426 0.09894958883523941 0.5424575805664062
0.4749770760536194 0.2019629031419754 0.5751078724861145
0.421261191368103 0.12750545144081116 0.5905402898788452
0.47456905245780945 0.1274786740541458 0.5522158145904541
0.5522314310073853 0.19286449253559113 0.4295715391635895
0.43616369366645813 0.18536752462387085 0.5564373135566711
0.48570793867111206 0.10968001931905746 0.5529003739356995
0.5927923917770386 0.14619113504886627 0.4747345745563507
0.5669716000556946 0.12070892006158829 0.4798617660999298
0.442514032125473 0.10011013597249985 0.5324555039405823
0.4373759925365448 0.14943334460258484 0.4402175545692444
0.48142918944358826 0.13073639571666718 0.43301305174827576
0.42451211810112 0.16978514194488525 0.5975688099861145
0.48406267166137695 0.10043748468160629 0.5806886553764343
0.4727712869644165 0.12881378829479218 0.5904029011726379
0.4508301913738251 0.12201037257909775 0.5384393930435181
0.5236924886703491 0.16354747116565704 0.5244976878166199
0.48097655177116394 0.1058865413069725 0.4491625726222992
0.40915873646736145 0.15147057175636292 0.4471546709537506
0.4586552381515503 0.09740135818719864 0.5374817848205566
0.4909016788005829 0.1325392723083496 0.5434321761131287
0.5897830724716187 0.12004636973142624 0.44535553455352783
0.44362133741378784 0.12501148879528046 0.4981064796447754
0.5350728034973145 0.11757112294435501 0.49912309646606445
0.6049852967262268 0.1592152863740921 0.5381333231925964
0.4804425537586212 0.10898212343454361 0.5845171213150024
0.4274688959121704 0.1664564609527588 0.5384668111801147
0.47310763597488403 0.12731045484542847 0.595574676990509
0.5181306600570679 0.24509958922863007 0.5068856477737427
0.47734323143959045 0.12016823142766953 0.5255456566810608
0.40583744645118713 0.14033150672912598 0.4498073160648346
0.5411086082458496 0.11377523839473724 0.38765233755111694
0.6395043134689331 0.11444087326526642 0.5046346783638
0.5705409049987793 0.11661417782306671 0.4407186806201935
0.541835606098175 0.12926022708415985 0.5470994710922241
0.5040151476860046 0.11111514270305634 0.5969061255455017
0.5701838135719299 0.10653647780418396 0.5346285700798035
0.5016961693763733 0.17850396037101746 0.4308399260044098
0.6441901326179504 0.11650437861680984 0.5428323149681091
0.5101787447929382 0.16768191754817963 0.47751379013061523
0.572401762008667 0.2102508693933487 0.5831096172332764
0.5298537015914917 0.26139235496520996 0.47775548696517944
0.5098822116851807 0.10841871798038483 0.4582613408565521
0.4660549461841583 0.1530984491109848 0.5323839783668518
0.44193997979164124 0.11877872049808502 0.529343843460083
0.46215322613716125 0.2274584323167801 0.42402657866477966
0.457387775182724 0.10255859792232513 0.49724656343460083
0.4909864068031311 0.12211550027132034 0.4990667998790741
0.43713489174842834 0.09934030473232269 0.516334593296051
0.5073383450508118 0.17430433630943298 0.4981280565261841
0.5630627870559692 0.1421661227941513 0.5368909239768982
0.49019286036491394 0.12654651701450348 0.3936450481414795
0.5002990961074829 0.13085190951824188 0.5346787571907043
0.42489802837371826 0.13760624825954437 0.411146342754364
0.5254599452018738 0.21086274087429047 0.4438326358795166
0.4990284740924835 0.13080844283103943 0.5728375911712646
0.6266472339630127 0.15181896090507507 0.5830744504928589
0.46662962436676025 0.10992764681577682 0.516944169998169
0.624586284160614 0.11346665769815445 0.5681294202804565
0.5809145569801331 0.12849266827106476 0.5213503241539001
0.4189855456352234 0.12505893409252167 0.45582273602485657
0.5108250975608826 0.10769512504339218 0.46034741401672363
0.5480796694755554 0.1631157398223877 0.5618641376495361
0.41026750206947327 0.145806223154068 0.44552183151245117
0.48068767786026 0.12380807101726532 0.5233129858970642
0.5665748119354248 0.21612130105495453 0.5953445434570312
0.4341137409210205 0.1731908917427063 0.5535049438476562
0.5226189494132996 0.10098434239625931 0.4563728868961334
0.4515868127346039 0.12511739134788513 0.5227034687995911
0.42648452520370483 0.16289032995700836 0.4527541399002075
0.6287545561790466 0.14668995141983032 0.5691096186637878
0.5735325813293457 0.11515343189239502 0.39059972763061523
0.5433558821678162 0.10902977734804153 0.48702532052993774
0.49079430103302 0.21095675230026245 0.4725956618785858
0.5086683630943298 0.21810176968574524 0.4777587652206421
0.43408772349357605 0.10341718792915344 0.6012802124023438
0.45775532722473145 0.10538315773010254 0.4483296573162079
0.44046372175216675 0.12902788817882538 0.5447955131530762
0.5928047895431519 0.17566567659378052 0.5810039043426514
0.40945345163345337 0.15744201838970184 0.5349588990211487
0.47104766964912415 0.16731739044189453 0.5979388952255249
0.45740801095962524 0.22052137553691864 0.43601691722869873
0.4480265974998474 0.11390851438045502 0.4361427128314972
0.550277590751648 0.18089257180690765 0.5041901469230652
0.5265457034111023 0.18254254758358002 0.5506829619407654
0.4599612057209015 0.1528303325176239 0.45721980929374695
0.5397841334342957 0.17095431685447693 0.5523253083229065
0.43986621499061584 0.17636564373970032 0.5534119009971619
0.5525280833244324 0.15785802900791168 0.4921461343765259
0.4234227240085602 0.18460041284561157 0.4432326555252075
0.5345568656921387 0.11624293774366379 0.5609465837478638
0.4788408875465393 0.17773103713989258 0.5388420224189758
0.5008744597434998 0.23259992897510529 0.42110538482666016
0.5663743019104004 0.12819647789001465 0.5181170701980591
0.49726590514183044 0.09786395728588104 0.592812180519104
0.4914833605289459 0.1370456963777542 0.49943819642066956
0.5610301494598389 0.17257443070411682 0.44110795855522156
0.5513537526130676 0.0992295891046524 0.5906911492347717
0.47028324007987976 0.09768516570329666 0.5768665075302124
0.5439403653144836 0.1668090671300888 0.5069573521614075
0.583772599697113 0.1425829529762268 0.4488251209259033
0.4441851079463959 0.10049305111169815 0.4511845111846924
0.4867352247238159 0.1083754152059555 0.45110154151916504
0.5876768827438354 0.126769557595253 0.43248939514160156
0.470694363117218 0.14220085740089417 0.5529300570487976
0.4565526247024536 0.10233885794878006 0.5733190178871155
0.5702463984489441 0.20136438310146332 0.458644837141037
0.4967246949672699 0.16986463963985443 0.4193582534790039
0.5275264978408813 0.22887207567691803 0.5753599405288696
0.5546570420265198 0.22132045030593872 0.4486542046070099
0.5646536946296692 0.1580086052417755 0.5414453744888306
0.451396644115448 0.16736193001270294 0.5648877620697021
0.4739419221878052 0.12048026919364929 0.4155961871147156
0.40430116653442383 0.14279833436012268 0.4647086560726166
0.5002990961074829 0.13085190951824188 0.5346787571907043
0.42489802837371826 0.13760624825954437 0.411146342754364
0.5339493751525879 0.18449680507183075 0.5757388472557068
0.5321797728538513 0.18659672141075134 0.501624584197998
0.43467187881469727 0.10643038153648376 0.5674505233764648
0.43579038977622986 0.10052874684333801 0.4764366149902344
0.5582851767539978 0.1211647093296051 0.4683920443058014
0.490407258272171 0.1762845367193222 0.5818097591400146
0.44487330317497253 0.09613551944494247 0.43916505575180054
0.5068203806877136 0.1087038591504097 0.4195248782634735
0.6119509339332581 0.15525880455970764 0.45501354336738586
0.4346376359462738 0.1459425985813141 0.5409830212593079
0.5813891887664795 0.12647971510887146 0.403580904006958
0.43395596742630005 0.12700283527374268 0.4232322573661804
0.4227861762046814 0.11897032707929611 0.4851144552230835
0.5286172032356262 0.11102143675088882 0.403363972902298
0.5665748119354248 0.21612130105495453 0.5953445434570312
0.4341137409210205 0.1731908917427063 0.5535049438476562
0.5226189494132996 0.10098434239625931 0.4563728868961334
0.4515868127346039 0.12511739134788513 0.5227034687995911
0.4426784813404083 0.09841432422399521 0.5828238725662231
0.4389302432537079 0.10161850601434708 0.3887774348258972
0.4514737129211426 0.09894958883523941 0.5424575805664062
0.4749770760536194 0.2019629031419754 0.5751078724861145
0.421261191368103 0.12750545144081116 0.5905402898788452
0.47456905245780945 0.1274786740541458 0.5522158145904541
0.5522314310073853 0.19286449253559113 0.4295715391635895
0.47504478693008423 0.21923203766345978 0.468219518661499
0.46024617552757263 0.19122420251369476 0.6052936911582947
0.4605671167373657 0.20189453661441803 0.5376918911933899
0.5264785289764404 0.1077786237001419 0.5684540867805481
0.5197846293449402 0.16698969900608063 0.47491922974586487
0.4121001362800598 0.15811055898666382 0.41202571988105774
0.6118098497390747 0.1693412810564041 0.5556809902191162
0.6058582663536072 0.12981699407100677 0.5741391181945801
0.41309061646461487 0.13424642384052277 0.5573765635490417
0.4749109745025635 0.10375270247459412 0.503362774848938
0.5420287251472473 0.1364462524652481 0.3993949592113495
0.5039659142494202 0.20800431072711945 0.4250403940677643
0.44525372982025146 0.1299365609884262 0.5975354313850403
0.4811280369758606 0.13229286670684814 0.6025784611701965
0.5203437209129333 0.23530444502830505 0.4495985507965088
0.5447344779968262 0.10071607679128647 0.4449293911457062
0.6138094663619995 0.12368468195199966 0.5236946940422058
0.48553797602653503 0.15388795733451843 0.570839524269104
0.4595794081687927 0.09806465357542038 0.5865697264671326
0.45993369817733765 0.16800634562969208 0.5166832208633423
0.566834032535553 0.10883975774049759 0.4095606207847595
0.4522413909435272 0.1969708502292633 0.5403162240982056
0.5991775989532471 0.13688719272613525 0.4289039373397827
0.5490249395370483 0.2017287313938141 0.5753236413002014
0.4706134796142578 0.16577374935150146 0.5276797413825989
0.4599289000034332 0.17408320307731628 0.4422290623188019
0.48681995272636414 0.0982980951666832 0.44206947088241577
0.4924474358558655 0.20543812215328217 0.5165767669677734
0.5231223106384277 0.2354893535375595 0.45715200901031494
0.528322160243988 0.11341118067502975 0.5799137949943542
0.4988064467906952 0.11265797913074493 0.48132309317588806
0.49504154920578003 0.21071167290210724 0.42022237181663513
0.5067551732063293 0.10165215283632278 0.4951137900352478
0.5459647178649902 0.09834752231836319 0.5925774574279785
0.466450035572052 0.21936698257923126 0.45647576451301575
0.4168596565723419 0.1769723892211914 0.588572084903717
0.4958576560020447 0.1225600615143776 0.45513975620269775
0.46398553252220154 0.10736966133117676 0.41298237442970276
0.5578615069389343 0.13859260082244873 0.5755176544189453
0.5849966406822205 0.15521304309368134 0.4159387946128845
0.5238105058670044 0.11239416152238846 0.3948608636856079
0.5675176382064819 0.18827231228351593 0.5603148341178894
0.4845947027206421 0.10051651298999786 0.5447189211845398
0.4677419066429138 0.12687557935714722 0.5871415734291077
0.5355274677276611 0.12657509744167328 0.5390589833259583
0.5408176183700562 0.22129680216312408 0.5667847990989685
0.4682365357875824 0.09945404529571533 0.5431845188140869
0.5256650447845459 0.12199702113866806 0.5669204592704773
0.5166642665863037 0.15973949432373047 0.5150099992752075
0.5197029709815979 0.25854888558387756 0.4672299325466156
0.4842265248298645 0.10694603621959686 0.4923097491264343
0.5391024351119995 0.10122501850128174 0.5324749946594238
0.5068124532699585 0.11298083513975143 0.420483261346817
0.5323736071586609 0.2334996610879898 0.5078299641609192
0.47173112630844116 0.16248972713947296 0.4958438277244568
0.5306169986724854 0.20773199200630188 0.5454443693161011
0.47988182306289673 0.1008749008178711 0.44325733184814453
0.42636245489120483 0.1107877716422081 0.5132686495780945
0.5497575998306274 0.23528222739696503 0.5649606585502625
0.5157223343849182 0.09942693263292313 0.577141284942627
0.4567316472530365 0.19437484443187714 0.4844837188720703
0.4987887442111969 0.1425202190876007 0.5001636743545532
0.48127517104148865 0.12502355873584747 0.470542311668396
0.4032476544380188 0.13949863612651825 0.41847556829452515
0.6111301779747009 0.11817459017038345 0.40426596999168396
0.4224763512611389 0.1506977081298828 0.6124128699302673
0.4534163177013397 0.21008025109767914 0.5057325959205627
0.5321279168128967 0.2487730234861374 0.4262670874595642
0.525132954120636 0.14530707895755768 0.4274130165576935
0.47754722833633423 0.10387363284826279 0.49619537591934204
0.4949514865875244 0.1098301038146019 0.48477476835250854
0.5489140152931213 0.19036796689033508 0.5841648578643799
0.4977230131626129 0.10494384914636612 0.3917344808578491
0.47352078557014465 0.17748014628887177 0.4801265597343445
0.4953620731830597 0.15128694474697113 0.5465688705444336
0.5359970927238464 0.10252854228019714 0.5788382887840271
0.4377121031284332 0.1862785667181015 0.4759417176246643
0.5670967102050781 0.12825092673301697 0.5234766602516174
0.41149353981018066 0.13303019106388092 0.5154820680618286
0.6086639761924744 0.10777556151151657 0.4600456953048706
0.43787050247192383 0.11604632437229156 0.48304125666618347
0.5166425704956055 0.14200375974178314 0.4946693778038025
0.4340285360813141 0.1640297919511795 0.4272732436656952
0.5286798477172852 0.11516880989074707 0.4933030307292938
0.5484004616737366 0.17900310456752777 0.42119744420051575
0.4939708709716797 0.18910133838653564 0.49206244945526123
0.4247189164161682 0.1186349019408226 0.5666161179542542
0.46363016963005066 0.15084904432296753 0.42231953144073486
0.48913222551345825 0.11801610141992569 0.5124918818473816
0.5197846293449402 0.16698969900608063 0.47491922974586487
0.5157223343849182 0.09942693263292313 0.577141284942627
0.4567316472530365 0.19437484443187714 0.4844837188720703
0.4987887442111969 0.1425202190876007 0.5001636743545532
0.48127517104148865 0.12502355873584747 0.470542311668396
0.4032476544380188 0.13949863612651825 0.41847556829452515
0.6111301779747009 0.11817459017038345 0.40426596999168396
0.4224763512611389 0.1506977081298828 0.6124128699302673
0.5194244980812073 0.2354065328836441 0.5331295728683472
0.444490522146225 0.10336960852146149 0.5368242859840393
0.4605867862701416 0.13442423939704895 0.5625877976417542
0.5422272086143494 0.1997470110654831 0.4440682530403137
0.434090793132782 0.183904767036438 0.46077847480773926
0.5579209327697754 0.19500631093978882 0.5057738423347473
0.6280771493911743 0.13893531262874603 0.47417280077934265
0.6246089339256287 0.1312756985425949 0.549680233001709
0.436525821685791 0.17043377459049225 0.4834919571876526
0.47613900899887085 0.17351989448070526 0.5608091354370117
0.45061951875686646 0.1269351840019226 0.40504056215286255
0.5270750522613525 0.17501980066299438 0.5425384640693665
0.48947304487228394 0.12593840062618256 0.5429068207740784
0.543470561504364 0.22753334045410156 0.5822374820709229
0.4793439507484436 0.10167520493268967 0.5785710215568542
0.5104666948318481 0.14891381561756134 0.4991096258163452
0.4561707079410553 0.1203741729259491 0.5402220487594604
0.45587480068206787 0.1441977322101593 0.43591201305389404
0.5286798477172852 0.11516880989074707 0.4933030307292938
0.5484004616737366 0.17900310456752777 0.42119744420051575
0.4939708709716797 0.18910133838653564 0.49206244945526123
0.4247189164161682 0.1186349019408226 0.5666161179542542
0.46363016963005066 0.15084904432296753 0.42231953144073486
0.48913222551345825 0.11801610141992569 0.5124918818473816
0.4568191170692444 0.17276152968406677 0.5271725058555603
0.5315228700637817 0.24279551208019257 0.46162334084510803
0.47905051708221436 0.16703806817531586 0.5481575131416321
0.6045358180999756 0.1281825751066208 0.40522173047065735
0.4524568021297455 0.21123231947422028 0.47465813159942627
0.5689509510993958 0.17935003340244293 0.44620731472969055
0.5659770369529724 0.12347722798585892 0.5964068174362183
0.5382415652275085 0.10539839416742325 0.5180869698524475
0.40517696738243103 0.15547941625118256 0.4773200452327728
0.5110064744949341 0.23691600561141968 0.5141897201538086
0.44956448674201965 0.09865054488182068 0.5137159824371338
0.453326553106308 0.1665559560060501 0.47819674015045166
0.5378343462944031 0.17901667952537537 0.4145814776420593
0.4873831868171692 0.23063193261623383 0.5025769472122192
0.5393768548965454 0.10752018541097641 0.5505988001823425
0.4585370719432831 0.18794001638889313 0.595992922782898
0.45755890011787415 0.14743594825267792 0.5969411134719849
0.5753613710403442 0.1705535352230072 0.46446719765663147
0.5166642665863037 0.15973949432373047 0.5150099992752075
0.5197029709815979 0.25854888558387756 0.4672299325466156
0.4842265248298645 0.10694603621959686 0.4923097491264343
0.5391024351119995 0.10122501850128174 0.5324749946594238
0.5068124532699585 0.11298083513975143 0.420483261346817
0.5323736071586609 0.2334996610879898 0.5078299641609192
0.47173112630844116 0.16248972713947296 0.4958438277244568
0.5306169986724854 0.20773199200630188 0.5454443693161011
0.47988182306289673 0.1008749008178711 0.44325733184814453
0.5633757710456848 0.14289388060569763 0.5578322410583496
0.5069557428359985 0.14703281223773956 0.40493646264076233
0.5134584903717041 0.2367708683013916 0.4697088301181793
0.47609585523605347 0.09895385801792145 0.4272661507129669
0.5460624098777771 0.21649326384067535 0.5164986252784729
0.5439403653144836 0.1668090671300888 0.5069573521614075
0.4224763512611389 0.1506977081298828 0.6124128699302673
0.5194244980812073 0.2354065328836441 0.5331295728683472
0.444490522146225 0.10336960852146149 0.5368242859840393
0.4605867862701416 0.13442423939704895 0.5625877976417542
0.5422272086143494 0.1997470110654831 0.4440682530403137
0.434090793132782 0.183904767036438 0.46077847480773926
0.5579209327697754 0.19500631093978882 0.5057738423347473
0.4124220609664917 0.16661041975021362 0.5858271718025208
0.4211030602455139 0.12727735936641693 0.4271143972873688
0.5566920042037964 0.17672523856163025 0.40209895372390747
0.4955647885799408 0.19006341695785522 0.4394613206386566
0.403795450925827 0.16553673148155212 0.6045793890953064
0.606600284576416 0.10872045159339905 0.46327874064445496
0.6025399565696716 0.13273048400878906 0.5022189617156982
0.4876538813114166 0.1367885321378708 0.5037258863449097
0.4790124297142029 0.19030652940273285 0.5807462334632874
0.5351507663726807 0.11491944640874863 0.49333471059799194
0.5465012192726135 0.11893138289451599 0.39036989212036133
0.44472816586494446 0.14537180960178375 0.5679706931114197
0.44061407446861267 0.09800146520137787 0.39800259470939636
0.48303306102752686 0.19492219388484955 0.5536419153213501
0.4764808416366577 0.11349862813949585 0.5871388912200928
0.5094423890113831 0.23431822657585144 0.5995385050773621
0.5141015648841858 0.09846752882003784 0.5398838520050049
0.45035359263420105 0.17199233174324036 0.43874552845954895
0.44339388608932495 0.12137427181005478 0.44455617666244507
0.48835939168930054 0.10267665982246399 0.3955304026603699
0.4549100399017334 0.13523444533348083 0.5335478186607361
0.5809434056282043 0.19509568810462952 0.5270253419876099
0.5756570100784302 0.17137683928012848 0.5510711073875427
0.5382177829742432 0.11806634813547134 0.4434486925601959
0.583772599697113 0.1425829529762268 0.4488251209259033
0.5664960741996765 0.13799186050891876 0.4858454763889313
0.39886778593063354 0.15241889655590057 0.4784247577190399
0.4480822682380676 0.1046646386384964 0.43003156781196594
0.47795671224594116 0.10250252485275269 0.5498290657997131
0.4906493127346039 0.1850060075521469 0.440927118062973
0.45137926936149597 0.18753154575824738 0.5722244381904602
0.5531137585639954 0.17380575835704803 0.48126474022865295
0.5238720774650574 0.22582674026489258 0.4393109679222107
0.5648449063301086 0.16799820959568024 0.5897777676582336
0.4134029746055603 0.16627079248428345 0.5110828876495361
0.4367522895336151 0.1684565246105194 0.5481833815574646
0.5712856650352478 0.12206566333770752 0.5734378099441528
0.6114049553871155 0.1626817137002945 0.5941134095191956
0.46493545174598694 0.12776781618595123 0.4565713405609131
0.5151298642158508 0.15743489563465118 0.5329182147979736
0.4863058924674988 0.09614351391792297 0.5596137046813965
0.46153682470321655 0.1779361069202423 0.475165456533432
0.5439920425415039 0.2187967598438263 0.5275435447692871
0.5263606905937195 0.220279261469841 0.43186357617378235
0.418432354927063 0.13812707364559174 0.5208973288536072
0.4194711446762085 0.17074686288833618 0.6058565974235535
0.5852028131484985 0.1497655063867569 0.5476310849189758
0.5358061790466309 0.21251796185970306 0.5240634679794312
0.44208604097366333 0.2057805359363556 0.4960048794746399
0.5339194536209106 0.21291452646255493 0.5576109886169434
0.470693975687027 0.11396229267120361 0.5515707731246948
0.591280460357666 0.11335070431232452 0.44973087310791016
0.5802452564239502 0.1914171576499939 0.507445752620697
0.46793505549430847 0.13549472391605377 0.40785080194473267
0.5005764961242676 0.2408112734556198 0.4858545958995819
0.49266383051872253 0.13897493481636047 0.5059608221054077
