ply
format ascii 1.0
element vertex 822
property float x
property float y
property float z
end_header
0.22690238058567047 0.30229949951171875 0.46704456210136414
0.2607954442501068 0.32353413105010986 0.5842182636260986
0.25668811798095703 0.23681947588920593 0.5956575870513916
0.3128531575202942 0.11932157725095749 0.5797584056854248
0.32342609763145447 0.1908518373966217 0.5631837844848633
0.19427183270454407 0.20231279730796814 0.5182374715805054
0.31598520278930664 0.19907929003238678 0.4901202619075775
0.2632251977920532 0.1387268602848053 0.5227214097976685
0.28728699684143066 0.1346646100282669 0.4077501893043518
0.2738519012928009 0.18832674622535706 0.5683022737503052
0.2716873288154602 0.28404831886291504 0.4914417862892151
0.19987404346466064 0.15319885313510895 0.461073100566864
0.250048965215683 0.2573244869709015 0.4368450939655304
0.25663453340530396 0.11528690904378891 0.568856954574585
0.3173830807209015 0.11498696357011795 0.4300228953361511
0.3135424852371216 0.27143484354019165 0.4805738627910614
0.25108182430267334 0.16252616047859192 0.5702969431877136
0.21654124557971954 0.28072404861450195 0.4004659056663513
0.2577742636203766 0.2106804996728897 0.5482512712478638
0.21330760419368744 0.135287806391716 0.48475492000579834
0.3429704010486603 0.12128837406635284 0.47186315059661865
0.2766934037208557 0.24261991679668427 0.47279295325279236
0.2531401515007019 0.2407938539981842 0.46240246295928955
0.24320660531520844 0.18822024762630463 0.5555444955825806
0.34196963906288147 0.23581136763095856 0.5108969807624817
0.3424910604953766 0.24639271199703217 0.5619595646858215
0.28671833872795105 0.2076769769191742 0.5221827626228333
0.31659772992134094 0.1993442326784134 0.4483645558357239
0.21062879264354706 0.2079474776983261 0.4037860631942749
0.172914519906044 0.20050448179244995 0.44299349188804626
0.19068029522895813 0.21104124188423157 0.41857990622520447
0.31765246391296387 0.10976975411176682 0.4957836866378784
0.2950054109096527 0.1059940904378891 0.41996267437934875
0.2492923140525818 0.2276822179555893 0.4717445373535156
0.2637048363685608 0.28846001625061035 0.477752149105072
0.2961652874946594 0.23363439738750458 0.5251148343086243
0.31334394216537476 0.17821332812309265 0.5275170207023621
0.18633076548576355 0.16369807720184326 0.4842722415924072
0.29394370317459106 0.21072398126125336 0.5954297780990601
0.31911712884902954 0.1278020143508911 0.5929178595542908
0.40521714091300964 0.22315789759159088 0.5092577934265137
0.3478530943393707 0.24877266585826874 0.4583530128002167
0.31604549288749695 0.15410703420639038 0.4169853627681732
0.26207154989242554 0.3210829198360443 0.43387728929519653
0.22017128765583038 0.16352534294128418 0.41444551944732666
0.15083208680152893 0.16926603019237518 0.5177079439163208
0.3673064112663269 0.185369074344635 0.44784316420555115
0.19611835479736328 0.20755450427532196 0.44100213050842285
0.2158382385969162 0.18309460580348969 0.4935254156589508
0.18071050941944122 0.14372409880161285 0.5165573358535767
0.17924699187278748 0.17974503338336945 0.44192785024642944
0.394244521856308 0.19475989043712616 0.602236807346344
0.3749696612358093 0.1692582368850708 0.41381433606147766
0.345287024974823 0.14357538521289825 0.43735039234161377
0.15480123460292816 0.1802646964788437 0.5174873471260071
0.24523118138313293 0.21753133833408356 0.5750206708908081
0.3259164094924927 0.16967611014842987 0.5983811616897583
0.2517712414264679 0.13305820524692535 0.5340188145637512
0.24269790947437286 0.11825672537088394 0.4498445391654968
0.251421183347702 0.14501115679740906 0.5089388489723206
0.21766358613967896 0.20134928822517395 0.5123680233955383
0.28624361753463745 0.251158207654953 0.4999544620513916
0.19456544518470764 0.22069589793682098 0.4102761149406433
0.2919463515281677 0.10910844802856445 0.4973556399345398
0.27905330061912537 0.17719332873821259 0.46239328384399414
0.31819236278533936 0.23968085646629333 0.4828992187976837
0.2750093340873718 0.10619214177131653 0.5804361701011658
0.29506197571754456 0.17060238122940063 0.5525205731391907
0.31334394216537476 0.17821332812309265 0.5275170207023621
0.3607371747493744 0.17670853435993195 0.5368021726608276
0.19451028108596802 0.23188287019729614 0.5466575026512146
0.3387596607208252 0.20545539259910583 0.43279770016670227
0.3062882721424103 0.217552050948143 0.5838085412979126
0.33807042241096497 0.19032970070838928 0.4017311632633209
0.18633076548576355 0.16369807720184326 0.4842722415924072
0.29394370317459106 0.21072398126125336 0.5954297780990601
0.31911712884902954 0.1278020143508911 0.5929178595542908
0.40521714091300964 0.22315789759159088 0.5092577934265137
0.3478530943393707 0.24877266585826874 0.4583530128002167
0.31604549288749695 0.15410703420639038 0.4169853627681732
0.26207154989242554 0.3210829198360443 0.43387728929519653
0.22017128765583038 0.16352534294128418 0.41444551944732666
0.14571596682071686 0.16799576580524445 0.5214112401008606
0.22667141258716583 0.23182721436023712 0.4012567400932312
0.2558478116989136 0.3045494556427002 0.45919740200042725
0.24213480949401855 0.24249359965324402 0.45225998759269714
0.25592848658561707 0.16346758604049683 0.46889370679855347
0.22427210211753845 0.2317749261856079 0.4058484137058258
0.3350194990634918 0.27695539593696594 0.5132478475570679
0.19751198589801788 0.1908470243215561 0.5278250575065613
0.16376642882823944 0.19220595061779022 0.4372784197330475
0.2324123978614807 0.26726046204566956 0.4710429012775421
0.31949326395988464 0.12890233099460602 0.4218623638153076
0.338032990694046 0.27620455622673035 0.5682064890861511
0.19998057186603546 0.17530512809753418 0.46091100573539734
0.3266436755657196 0.13292768597602844 0.558271586894989
0.3746795058250427 0.207757368683815 0.462432324886322
0.3033834993839264 0.10506220161914825 0.5619644522666931
0.26470622420310974 0.3117435574531555 0.5412507057189941
0.3212924897670746 0.285481333732605 0.5950539708137512
0.30609720945358276 0.2519032657146454 0.5725440382957458
0.3607371747493744 0.17670853435993195 0.5368021726608276
0.19451028108596802 0.23188287019729614 0.5466575026512146
0.24730847775936127 0.31309694051742554 0.44568440318107605
0.2754908502101898 0.2689758539199829 0.5757355093955994
0.2599383592605591 0.12524251639842987 0.4809059798717499
0.2558743357658386 0.29646462202072144 0.586730420589447
0.3301444947719574 0.1795070916414261 0.5976526737213135
0.26847603917121887 0.26430076360702515 0.4066593050956726
0.24431626498699188 0.11768654733896255 0.5803622007369995
0.3266160488128662 0.24972815811634064 0.4712553322315216
0.20040757954120636 0.1762504130601883 0.46451687812805176
0.20518939197063446 0.2087237685918808 0.46513831615448
0.23952285945415497 0.19621893763542175 0.5856509804725647
0.35017135739326477 0.21952857077121735 0.5691820383071899
0.17434613406658173 0.20314285159111023 0.42970040440559387
0.3130822479724884 0.10983136296272278 0.5623633861541748
0.17521929740905762 0.17707352340221405 0.5557828545570374
0.34503692388534546 0.1835588961839676 0.516022801399231
0.30461055040359497 0.10528445243835449 0.473684161901474
0.24001897871494293 0.13953320682048798 0.5318493247032166
0.2965858578681946 0.2340541034936905 0.5496063828468323
0.21427536010742188 0.23738691210746765 0.5483934879302979
0.25059667229652405 0.2408403903245926 0.4184712767601013
0.3754558563232422 0.17022213339805603 0.5840660333633423
0.3292216956615448 0.22214949131011963 0.5368533134460449
0.3849245607852936 0.20224489271640778 0.4362742304801941
0.18735842406749725 0.20592226088047028 0.43480461835861206
0.2759345769882202 0.11573726683855057 0.48797866702079773
0.2539876401424408 0.23556062579154968 0.5195518732070923
0.3611239492893219 0.17266593873500824 0.42489004135131836
0.2547365128993988 0.2831292450428009 0.5473313331604004
0.3607371747493744 0.17670853435993195 0.5368021726608276
0.3301602602005005 0.19301965832710266 0.4277588427066803
0.24062004685401917 0.22858060896396637 0.5607868432998657
0.3485630452632904 0.187471404671669 0.5751752853393555
0.2725115418434143 0.12571851909160614 0.5656522512435913
0.2816927134990692 0.24938027560710907 0.5659307241439819
0.41277357935905457 0.21263529360294342 0.45797526836395264
0.2511856257915497 0.1396970897912979 0.5141389966011047
0.2915271520614624 0.2789869010448456 0.5769051313400269
0.28814497590065 0.1119592934846878 0.5597004890441895
0.2964334189891815 0.24130100011825562 0.4453650116920471
0.2525404989719391 0.1690208464860916 0.4519282281398773
0.25965097546577454 0.2204308658838272 0.44597092270851135
0.3284348249435425 0.23946291208267212 0.4875358045101166
0.2633577585220337 0.3194476068019867 0.42640551924705505
0.34815263748168945 0.1387052834033966 0.4904722273349762
0.38431981205940247 0.1954207867383957 0.5930383205413818
0.3341446816921234 0.12229923158884048 0.47961992025375366
0.2490663230419159 0.3003440797328949 0.5644540786743164
0.23203101754188538 0.2413043975830078 0.585354208946228
0.3980633020401001 0.22146843373775482 0.4315187633037567
0.25904250144958496 0.157710999250412 0.5773776769638062
0.28800687193870544 0.25681760907173157 0.46474266052246094
0.33873143792152405 0.1974162757396698 0.5179644823074341
0.2819943130016327 0.13336490094661713 0.498418927192688
0.3974117636680603 0.2091246396303177 0.5264759659767151
0.2614375054836273 0.30181828141212463 0.580681562423706
0.32383331656455994 0.1248432993888855 0.5704644918441772
0.31868207454681396 0.19191056489944458 0.46254977583885193
0.2586050033569336 0.2817992866039276 0.4575059413909912
0.25054240226745605 0.19945870339870453 0.5277990102767944
0.28466421365737915 0.30886512994766235 0.5596159100532532
0.2501634955406189 0.19063273072242737 0.5879829525947571
0.31604549288749695 0.15410703420639038 0.4169853627681732
0.26207154989242554 0.3210829198360443 0.43387728929519653
0.22017128765583038 0.16352534294128418 0.41444551944732666
0.15083208680152893 0.16926603019237518 0.5177079439163208
0.18535484373569489 0.16863200068473816 0.524735152721405
0.3266160488128662 0.24972815811634064 0.4712553322315216
0.20040757954120636 0.1762504130601883 0.46451687812805176
0.20518939197063446 0.2087237685918808 0.46513831615448
0.23952285945415497 0.19621893763542175 0.5856509804725647
0.35017135739326477 0.21952857077121735 0.5691820383071899
0.17434613406658173 0.20314285159111023 0.42970040440559387
0.3337472975254059 0.2628723978996277 0.4011738896369934
0.2789589464664459 0.1984863132238388 0.5252813696861267
0.2595551311969757 0.2954246997833252 0.41683876514434814
0.3505450189113617 0.25471657514572144 0.5901145339012146
0.20535501837730408 0.27015355229377747 0.4505244493484497
0.17172975838184357 0.1865655779838562 0.5244165658950806
0.31572872400283813 0.2305053472518921 0.4162146747112274
0.1552225798368454 0.16995777189731598 0.5520513653755188
0.3271966874599457 0.1558532565832138 0.5733906030654907
0.3314579725265503 0.15953794121742249 0.4222235381603241
0.1913330852985382 0.1995728462934494 0.439850777387619
0.26486435532569885 0.31020545959472656 0.4499870836734772
0.17671355605125427 0.1573958843946457 0.424020916223526
0.27028071880340576 0.22303007543087006 0.42710965871810913
0.2751116156578064 0.13318966329097748 0.5475685596466064
0.19526217877864838 0.19747620820999146 0.49584951996803284
0.2676689922809601 0.23972778022289276 0.4385177493095398
0.2737690508365631 0.21369342505931854 0.4909718930721283
0.33766067028045654 0.18751224875450134 0.5950945615768433
0.30904456973075867 0.23546060919761658 0.5355445742607117
0.30117887258529663 0.2593083381652832 0.519676923751831
0.24730847775936127 0.31309694051742554 0.44568440318107605
0.2754908502101898 0.2689758539199829 0.5757355093955994
0.2599383592605591 0.12524251639842987 0.4809059798717499
0.2558743357658386 0.29646462202072144 0.586730420589447
0.3301444947719574 0.1795070916414261 0.5976526737213135
0.26847603917121887 0.26430076360702515 0.4066593050956726
0.24431626498699188 0.11768654733896255 0.5803622007369995
0.3266160488128662 0.24972815811634064 0.4712553322315216
0.20040757954120636 0.1762504130601883 0.46451687812805176
0.20518939197063446 0.2087237685918808 0.46513831615448
0.3846765458583832 0.1809861809015274 0.5207838416099548
0.20334461331367493 0.15320424735546112 0.4836408793926239
0.26453307271003723 0.1558985561132431 0.5343986749649048
0.25215616822242737 0.17268076539039612 0.5286689400672913
0.2169748842716217 0.17320504784584045 0.40895897150039673
0.30997100472450256 0.27390730381011963 0.5296837091445923
0.30049172043800354 0.24363309144973755 0.5531521439552307
0.3160298764705658 0.12334462255239487 0.5564746856689453
0.28510501980781555 0.23525425791740417 0.5781411528587341
0.2783462703227997 0.11151950061321259 0.5032150149345398
0.24246612191200256 0.1903780996799469 0.535918653011322
0.3708086907863617 0.24840810894966125 0.44333428144454956
0.3128531575202942 0.11932157725095749 0.5797584056854248
0.2759345769882202 0.11573726683855057 0.48797866702079773
0.2539876401424408 0.23556062579154968 0.5195518732070923
0.3611239492893219 0.17266593873500824 0.42489004135131836
0.2547365128993988 0.2831292450428009 0.5473313331604004
0.2793484926223755 0.11808326840400696 0.4184248447418213
0.23147813975811005 0.1865862011909485 0.48149052262306213
0.26898109912872314 0.1856580525636673 0.5341669917106628
0.39291054010391235 0.1973026841878891 0.5867412090301514
0.3615782558917999 0.15986046195030212 0.46195733547210693
0.30206090211868286 0.17787569761276245 0.5226466655731201
0.1953931599855423 0.1569584310054779 0.5890529155731201
0.16987517476081848 0.1702076643705368 0.4014228582382202
0.2914646565914154 0.15125221014022827 0.4455006420612335
0.23204396665096283 0.29492247104644775 0.4260271191596985
0.3660663664340973 0.19346648454666138 0.408804714679718
0.29316386580467224 0.26128533482551575 0.5418820977210999
0.2847754955291748 0.26772189140319824 0.5752285718917847
0.32556313276290894 0.13064882159233093 0.4481670558452606
0.23239797353744507 0.21166719496250153 0.5682691931724548
0.24618975818157196 0.13854435086250305 0.5005542039871216
0.24331724643707275 0.2219141572713852 0.5441817045211792
0.33609122037887573 0.17556409537792206 0.5416883826255798
0.3177947700023651 0.25734958052635193 0.5230666995048523
0.24541205167770386 0.28386831283569336 0.4279730021953583
0.2414136677980423 0.30520135164260864 0.4650575816631317
0.2705237865447998 0.15162329375743866 0.519567608833313
0.31044191122055054 0.12793561816215515 0.5865246653556824
0.27296218276023865 0.2554711401462555 0.41132888197898865
0.29621025919914246 0.24648809432983398 0.4987000524997711
0.3424687087535858 0.1769363135099411 0.4827881157398224
0.25076085329055786 0.14152377843856812 0.6009661555290222
0.2920238971710205 0.21200630068778992 0.5737901926040649
0.28341975808143616 0.10955800861120224 0.44589853286743164
0.20235972106456757 0.2540726661682129 0.4901697635650635
0.16530996561050415 0.20292022824287415 0.40369564294815063
0.32158932089805603 0.2527243494987488 0.5504116415977478
0.337658166885376 0.18840321898460388 0.43518540263175964
0.31368985772132874 0.15473631024360657 0.503801703453064
0.24196231365203857 0.24613359570503235 0.4327467978000641
0.25421151518821716 0.16295292973518372 0.5123364329338074
0.23523640632629395 0.24842077493667603 0.42806851863861084
0.3867436349391937 0.23320432007312775 0.5751805305480957
0.16421374678611755 0.17106591165065765 0.5621615052223206
0.2382201850414276 0.17385011911392212 0.5753938555717468
0.24037288129329681 0.12472879886627197 0.534697413444519
0.2928820550441742 0.17105433344841003 0.4567139148712158
0.2741895914077759 0.1463204026222229 0.5428726673126221
0.33545976877212524 0.21724316477775574 0.48523831367492676
0.24434088170528412 0.17811830341815948 0.45349782705307007
0.2561121881008148 0.26086127758026123 0.40222594141960144
0.27383953332901 0.18202507495880127 0.5926442742347717
0.2627142369747162 0.22041015326976776 0.48810917139053345
0.33201900124549866 0.18353217840194702 0.5340694189071655
0.24378588795661926 0.21766410768032074 0.5763787627220154
0.26348456740379333 0.22670488059520721 0.4693746566772461
0.39801132678985596 0.21949733793735504 0.4074711203575134
0.27037063241004944 0.11332099884748459 0.6051317453384399
0.2342236042022705 0.1667199581861496 0.43893831968307495
0.1766623705625534 0.16562457382678986 0.5185944437980652
0.18682502210140228 0.1422935277223587 0.5113794803619385
0.2028036266565323 0.26692619919776917 0.4888366758823395
0.23463425040245056 0.12491425126791 0.5838191509246826
0.32879188656806946 0.27309414744377136 0.5260168313980103
0.33336350321769714 0.1208404153585434 0.4848422110080719
0.36206409335136414 0.2433023303747177 0.4444749355316162
0.21062780916690826 0.22662080824375153 0.4104970097541809
0.22161118686199188 0.14316527545452118 0.4731098413467407
0.372789204120636 0.18243902921676636 0.457603394985199
0.36630481481552124 0.17583568394184113 0.4856119155883789
0.37040406465530396 0.19809091091156006 0.4344254434108734
0.24166403710842133 0.18337617814540863 0.4673835337162018
0.2989448606967926 0.1470247358083725 0.5752031207084656
0.21152818202972412 0.1596762090921402 0.5665403008460999
0.2325851321220398 0.16659244894981384 0.5802988409996033
0.35201066732406616 0.1624959260225296 0.5540989637374878
0.2919825315475464 0.10513851046562195 0.60481196641922
0.3521142601966858 0.1640801578760147 0.42862552404403687
0.33155760169029236 0.2401258796453476 0.5592951774597168
0.31771135330200195 0.2074129283428192 0.547755241394043
0.2768528461456299 0.24535627663135529 0.4261769950389862
0.27344563603401184 0.25639134645462036 0.4152394235134125
0.24817349016666412 0.12137382477521896 0.5424427390098572
0.18174347281455994 0.2233414202928543 0.4173009991645813
0.36907047033309937 0.1746264100074768 0.46834495663642883
0.23136702179908752 0.2932814359664917 0.40804189443588257
0.30007120966911316 0.29678305983543396 0.4092272222042084
0.2203381061553955 0.23353010416030884 0.5459399223327637
0.27624326944351196 0.12302181124687195 0.5288399457931519
0.21360863745212555 0.21863427758216858 0.5064190626144409
0.3635258376598358 0.2560880482196808 0.4910256266593933
0.22008183598518372 0.2722451686859131 0.4128860533237457
0.3946791887283325 0.22891266644001007 0.46139368414878845
0.25515589118003845 0.16100771725177765 0.40590858459472656
0.20309452712535858 0.17739425599575043 0.5219331979751587
0.15329153835773468 0.17265993356704712 0.5066952705383301
0.3360699415206909 0.13166460394859314 0.4040204584598541
0.2826048731803894 0.23224635422229767 0.5911821126937866
0.23738136887550354 0.18129561841487885 0.4650129973888397
0.3151657283306122 0.1379546970129013 0.5739471316337585
0.2662631869316101 0.1894046813249588 0.5238757133483887
0.31119978427886963 0.10814767330884933 0.47960367798805237
0.2720317840576172 0.3087220788002014 0.49029237031936646
0.277050644159317 0.27774232625961304 0.5909688472747803
0.31042855978012085 0.18211627006530762 0.5465187430381775
0.24374692142009735 0.21891732513904572 0.45609816908836365
0.3098336458206177 0.29804104566574097 0.5660485625267029
0.26442697644233704 0.12063425034284592 0.462860107421875
0.212090864777565 0.13656744360923767 0.5851585268974304
0.3317139744758606 0.1822112798690796 0.47602784633636475
0.33719784021377563 0.16767404973506927 0.4693855941295624
0.1909707486629486 0.1387426257133484 0.5844494104385376
0.3007031977176666 0.10709277540445328 0.4227823317050934
0.2813386619091034 0.3155122995376587 0.5868980884552002
0.2658584713935852 0.15583273768424988 0.4871598482131958
0.1563117951154709 0.1601857990026474 0.48994699120521545
0.22626565396785736 0.1938474178314209 0.42180338501930237
0.2158571481704712 0.2370539754629135 0.5849524736404419
0.37597760558128357 0.1710711270570755 0.4478321075439453
0.22852584719657898 0.12712889909744263 0.5615876913070679
0.3984028398990631 0.19029764831066132 0.4815915524959564
0.2781408429145813 0.16070978343486786 0.404762327671051
0.2152896523475647 0.262611448764801 0.43140965700149536
0.23509304225444794 0.18756495416164398 0.5283825993537903
0.3382120430469513 0.12948790192604065 0.46903926134109497
0.29929402470588684 0.1951182633638382 0.4753137528896332
0.3045758605003357 0.2391982078552246 0.42907747626304626
0.3257754147052765 0.1683364361524582 0.5336642861366272
0.29809504747390747 0.1006167083978653 0.41062548756599426
0.19638143479824066 0.17258988320827484 0.4698227643966675
0.28698933124542236 0.17584729194641113 0.40253108739852905
0.36492714285850525 0.23198065161705017 0.5322704315185547
0.1483287215232849 0.1605890542268753 0.563838541507721
0.36241665482521057 0.2529497742652893 0.4667086601257324
0.24221612513065338 0.30607354640960693 0.45756468176841736
0.2768983244895935 0.14978823065757751 0.4626164138317108
0.33268001675605774 0.1976929008960724 0.446252703666687
0.30864667892456055 0.16238917410373688 0.5634609460830688
0.22262418270111084 0.17354650795459747 0.410064697265625
0.2657577097415924 0.19432653486728668 0.47688159346580505
0.2752002775669098 0.19509239494800568 0.4879319369792938
0.280324250459671 0.2888105809688568 0.5828681588172913
0.24461904168128967 0.26848286390304565 0.5702584981918335
0.37817591428756714 0.18480663001537323 0.4430997967720032
0.1820983588695526 0.15442754328250885 0.5028311610221863
0.377551794052124 0.19073645770549774 0.4029245972633362
0.27714768052101135 0.20563547313213348 0.40692955255508423
0.23568740487098694 0.11851462721824646 0.45742562413215637
0.2789168059825897 0.23651771247386932 0.5849247574806213
0.3380527198314667 0.15993572771549225 0.4127618968486786
0.25211837887763977 0.18941722810268402 0.5641739964485168
0.2998601496219635 0.2504537105560303 0.5737730264663696
0.29246440529823303 0.24634279310703278 0.509451687335968
0.34508880972862244 0.24744735658168793 0.5268478989601135
0.21137134730815887 0.21866214275360107 0.41131147742271423
0.2930481433868408 0.23431944847106934 0.5307945609092712
0.19899915158748627 0.1692570298910141 0.4000907242298126
0.34222668409347534 0.16726981103420258 0.5457128286361694
0.2056930959224701 0.17540951073169708 0.4421995282173157
0.34439095854759216 0.22790926694869995 0.5598397254943848
0.2764441668987274 0.21636167168617249 0.4570043385028839
0.2910224497318268 0.29610055685043335 0.4901130497455597
0.18559661507606506 0.1752731204032898 0.4609926640987396
0.29478707909584045 0.28871843218803406 0.4219195544719696
0.3907615542411804 0.20328150689601898 0.5034531354904175
0.361148476600647 0.16885562241077423 0.5010014772415161
0.3636908531188965 0.2506777048110962 0.583060085773468
0.2582603394985199 0.3214612901210785 0.40229150652885437
0.35925132036209106 0.17870956659317017 0.5158676505088806
0.20388728380203247 0.14862513542175293 0.5230893492698669
0.21076960861682892 0.2575496733188629 0.45391300320625305
0.36063969135284424 0.15565814077854156 0.4025009870529175
0.2115427404642105 0.1921408325433731 0.41466572880744934
0.396209716796875 0.21820451319217682 0.4817098081111908
0.18997421860694885 0.15602046251296997 0.5113140940666199
0.2644978165626526 0.2814110517501831 0.5621297955513
0.23725491762161255 0.19668081402778625 0.5326064229011536
0.19298875331878662 0.18227140605449677 0.5581926107406616
0.3235647976398468 0.17943960428237915 0.43131783604621887
0.3647972643375397 0.20263442397117615 0.5353567004203796
0.363100528717041 0.2137717604637146 0.4585943818092346
0.27940699458122253 0.3120238482952118 0.5842918753623962
0.33414292335510254 0.11459944397211075 0.41683855652809143
0.2183738499879837 0.2613195478916168 0.504802942276001
0.21712754666805267 0.2156156301498413 0.5798264741897583
0.27838316559791565 0.2146599292755127 0.4852125346660614
0.2514549493789673 0.3359334170818329 0.4875718355178833
0.3433648943901062 0.23739933967590332 0.5293096303939819
0.27178987860679626 0.24095040559768677 0.5072129964828491
0.25181180238723755 0.24773713946342468 0.40507856011390686
0.2460905909538269 0.330546110868454 0.4347241222858429
0.3096262514591217 0.2631114423274994 0.5912686586380005
0.25039198994636536 0.15211236476898193 0.5638015270233154
0.30246487259864807 0.26919451355934143 0.4879770278930664
0.2578248083591461 0.14551372826099396 0.5792754292488098
0.3595619201660156 0.2558663487434387 0.4499397277832031
0.22540609538555145 0.2224210500717163 0.4973483383655548
0.24844928085803986 0.21401140093803406 0.5709020495414734
0.21743330359458923 0.16063590347766876 0.4598265290260315
0.22761043906211853 0.1698426753282547 0.4147690534591675
0.2300330251455307 0.12426301836967468 0.4424358010292053
0.2646435797214508 0.21063126623630524 0.41462427377700806
0.2587498128414154 0.22203567624092102 0.42569440603256226
0.23245979845523834 0.1204526349902153 0.5427671074867249
0.24732163548469543 0.3285641670227051 0.42759382724761963
0.26110514998435974 0.32016122341156006 0.4110456705093384
0.2435382604598999 0.2549949884414673 0.5086988806724548
0.28243911266326904 0.13895630836486816 0.4724947512149811
0.29781049489974976 0.15737630426883698 0.4257676899433136
0.23880146443843842 0.2979731559753418 0.40530526638031006
0.3765011727809906 0.17609545588493347 0.45945975184440613
0.2135898619890213 0.19181998074054718 0.4081129729747772
0.24713297188282013 0.3174070715904236 0.5470014810562134
0.3977941572666168 0.21259398758411407 0.42402172088623047
0.27450597286224365 0.1297159343957901 0.44609126448631287
0.2447446584701538 0.21939028799533844 0.5057814121246338
0.2712736129760742 0.2385134994983673 0.5414785742759705
0.30587804317474365 0.22779728472232819 0.5267379879951477
0.30004575848579407 0.29634198546409607 0.44124752283096313
0.33197736740112305 0.24114464223384857 0.5668211579322815
0.27230989933013916 0.1945665180683136 0.4962722659111023
0.2641502320766449 0.13222840428352356 0.5254155397415161
0.2227446436882019 0.1908576488494873 0.41260573267936707
0.282266765832901 0.19899293780326843 0.5798406004905701
0.37760674953460693 0.1768530160188675 0.5104271769523621
0.31647974252700806 0.20469610393047333 0.4084576368331909
0.2578248083591461 0.14551372826099396 0.5792754292488098
0.3595619201660156 0.2558663487434387 0.4499397277832031
0.22540609538555145 0.2224210500717163 0.4973483383655548
0.24844928085803986 0.21401140093803406 0.5709020495414734
0.21743330359458923 0.16063590347766876 0.4598265290260315
0.22761043906211853 0.1698426753282547 0.4147690534591675
0.2300330251455307 0.12426301836967468 0.4424358010292053
0.23147813975811005 0.1865862011909485 0.48149052262306213
0.27037063241004944 0.11332099884748459 0.6051317453384399
0.2342236042022705 0.1667199581861496 0.43893831968307495
0.1766623705625534 0.16562457382678986 0.5185944437980652
0.18682502210140228 0.1422935277223587 0.5113794803619385
0.3774072229862213 0.17434339225292206 0.475585401058197
0.3355894386768341 0.2457720786333084 0.40852227807044983
0.29206833243370056 0.11522585153579712 0.4397818446159363
0.3250553011894226 0.2534283995628357 0.49203813076019287
0.23310798406600952 0.2784339189529419 0.42727404832839966
0.1619003713130951 0.16158688068389893 0.57622230052948
0.3647978603839874 0.21768568456172943 0.445791095495224
0.33373090624809265 0.2606169283390045 0.40807482600212097
0.3556345999240875 0.207067608833313 0.3999687731266022
0.3130156993865967 0.23891454935073853 0.5484410524368286
0.28857478499412537 0.3011174201965332 0.5394073724746704
0.3096262514591217 0.2631114423274994 0.5912686586380005
0.25039198994636536 0.15211236476898193 0.5638015270233154
0.30246487259864807 0.26919451355934143 0.4879770278930664
0.2578248083591461 0.14551372826099396 0.5792754292488098
0.3595619201660156 0.2558663487434387 0.4499397277832031
0.22540609538555145 0.2224210500717163 0.4973483383655548
0.24844928085803986 0.21401140093803406 0.5709020495414734
0.21743330359458923 0.16063590347766876 0.4598265290260315
0.22761043906211853 0.1698426753282547 0.4147690534591675
0.2300330251455307 0.12426301836967468 0.4424358010292053
0.24156522750854492 0.15211477875709534 0.5729712843894958
0.25833839178085327 0.11563094705343246 0.563105046749115
0.3596789538860321 0.13863614201545715 0.5085310339927673
0.339273601770401 0.16287533938884735 0.4253811836242676
0.1943461000919342 0.19596555829048157 0.5782864689826965
0.17207930982112885 0.20566554367542267 0.4044383764266968
0.2676689326763153 0.3018369674682617 0.557798445224762
0.27714768052101135 0.20563547313213348 0.40692955255508423
0.23568740487098694 0.11851462721824646 0.45742562413215637
0.2789168059825897 0.23651771247386932 0.5849247574806213
0.22837969660758972 0.2195175141096115 0.4999375641345978
0.35907793045043945 0.14299660921096802 0.5542550086975098
0.2843727171421051 0.3145522475242615 0.5317085385322571
0.24726268649101257 0.15145398676395416 0.5031944513320923
0.37946709990501404 0.185015007853508 0.5987556576728821
0.2597237527370453 0.18876314163208008 0.593867301940918
0.16930630803108215 0.21568280458450317 0.4764007031917572
0.23640167713165283 0.22808445990085602 0.5523772835731506
0.38210436701774597 0.1751810759305954 0.5477582216262817
0.16497690975666046 0.20121242105960846 0.4079511761665344
0.1971602439880371 0.14389702677726746 0.42844635248184204
0.2724359631538391 0.26523295044898987 0.5462455153465271
0.2785034477710724 0.31251269578933716 0.5044292211532593
0.29143068194389343 0.3092626929283142 0.4300467073917389
0.4101153612136841 0.21491466462612152 0.45456668734550476
0.28882524371147156 0.24055275321006775 0.47054052352905273
0.22776927053928375 0.1720583587884903 0.5955782532691956
0.2202031910419464 0.2945410907268524 0.48179686069488525
0.25772300362586975 0.23812967538833618 0.4997043013572693
0.29359641671180725 0.18494337797164917 0.50514817237854
0.2753713130950928 0.2423187792301178 0.5138477683067322
0.34805965423583984 0.19904974102973938 0.4048110544681549
0.33855149149894714 0.15333805978298187 0.45391905307769775
0.2669790983200073 0.21091140806674957 0.4531375467777252
0.14875604212284088 0.17041827738285065 0.5344467163085938
0.26600784063339233 0.2786754369735718 0.591390073299408
0.23626647889614105 0.13009513914585114 0.5611492991447449
0.27525413036346436 0.28830721974372864 0.5263822674751282
0.2657577097415924 0.19432653486728668 0.47688159346580505
0.366502970457077 0.2525169849395752 0.5885624885559082
0.16919033229351044 0.20045341551303864 0.5431877970695496
0.22536282241344452 0.23101592063903809 0.5709630250930786
0.3442598879337311 0.17324790358543396 0.4987974166870117
0.32875287532806396 0.17199932038784027 0.4610689580440521
0.2820209860801697 0.1665051281452179 0.4887615442276001
0.23896178603172302 0.2473905086517334 0.4124217629432678
0.21716520190238953 0.15689046680927277 0.56083083152771
0.3606124818325043 0.167204350233078 0.49064186215400696
0.3634786307811737 0.1554611325263977 0.427820086479187
0.2017912119626999 0.15686708688735962 0.5004897117614746
0.25870761275291443 0.15099439024925232 0.4942099452018738
0.18994759023189545 0.19259262084960938 0.576923131942749
0.31353580951690674 0.17017239332199097 0.457165390253067
0.21636706590652466 0.28638720512390137 0.5876314640045166
0.3096262514591217 0.2631114423274994 0.5912686586380005
0.25039198994636536 0.15211236476898193 0.5638015270233154
0.30246487259864807 0.26919451355934143 0.4879770278930664
0.2578248083591461 0.14551372826099396 0.5792754292488098
0.3595619201660156 0.2558663487434387 0.4499397277832031
0.22540609538555145 0.2224210500717163 0.4973483383655548
0.3269873857498169 0.18433229625225067 0.4879438281059265
0.31454575061798096 0.11656640470027924 0.468693345785141
0.3680284321308136 0.2305234670639038 0.47970259189605713
0.19781947135925293 0.1484586000442505 0.43564581871032715
0.2632558345794678 0.1601855307817459 0.4852646291255951
0.31611379981040955 0.11194250732660294 0.5937188863754272
0.34643617272377014 0.18057185411453247 0.4644879698753357
0.21253424882888794 0.2811794579029083 0.40225398540496826
0.17651613056659698 0.213292196393013 0.5538865923881531
0.28046897053718567 0.17174959182739258 0.4956863224506378
0.18589992821216583 0.16613908112049103 0.5677149295806885
0.18458451330661774 0.1526731550693512 0.5987603664398193
0.3895028531551361 0.22973765432834625 0.5491686463356018
0.3380527198314667 0.15993572771549225 0.4127618968486786
0.25211837887763977 0.18941722810268402 0.5641739964485168
0.2998601496219635 0.2504537105560303 0.5737730264663696
0.29246440529823303 0.24634279310703278 0.509451687335968
0.34508880972862244 0.24744735658168793 0.5268478989601135
0.21137134730815887 0.21866214275360107 0.41131147742271423
0.2930481433868408 0.23431944847106934 0.5307945609092712
0.21758756041526794 0.256833016872406 0.4929567575454712
0.23776878416538239 0.16593295335769653 0.43355828523635864
0.2163478285074234 0.1689060628414154 0.5521038174629211
0.25576862692832947 0.31323492527008057 0.43538936972618103
0.28477662801742554 0.2749393880367279 0.5124409198760986
0.20017604529857635 0.15796861052513123 0.5178122520446777
0.2858167588710785 0.2560122013092041 0.5882884860038757
0.19215185940265656 0.21749287843704224 0.4353889226913452
0.16017109155654907 0.17844830453395844 0.5086365342140198
0.26903554797172546 0.16330046951770782 0.4372117519378662
0.29928240180015564 0.12750792503356934 0.4744151532649994
0.2141904979944229 0.2533186376094818 0.5436437726020813
0.293770968914032 0.1193147599697113 0.39813151955604553
0.34342053532600403 0.22882461547851562 0.5644163489341736
0.15721675753593445 0.18413355946540833 0.5694224238395691
0.28175386786460876 0.306340754032135 0.5311349034309387
0.27648109197616577 0.11401292681694031 0.4425972104072571
0.32874882221221924 0.23641180992126465 0.5747439861297607
0.3392089009284973 0.1939031481742859 0.5672109127044678
0.2555689513683319 0.1876542717218399 0.5314496159553528
0.31408262252807617 0.1342422068119049 0.565987229347229
0.3497689366340637 0.18411828577518463 0.5990659594535828
0.39801132678985596 0.21949733793735504 0.4074711203575134
0.2691158950328827 0.12619690597057343 0.40672066807746887
0.23343533277511597 0.1722630262374878 0.4967684745788574
0.2737120985984802 0.11534998565912247 0.44571369886398315
0.2998042106628418 0.15354511141777039 0.4129660129547119
0.2851315438747406 0.1604672223329544 0.46428409218788147
0.22714442014694214 0.1484210044145584 0.45004886388778687
0.2928607165813446 0.118297278881073 0.5834632515907288
0.15910951793193817 0.15701307356357574 0.43655261397361755
0.2224365472793579 0.22409328818321228 0.5224185585975647
0.3271632194519043 0.11083324253559113 0.4132370054721832
0.2831544280052185 0.136474609375 0.5835002064704895
0.3000026047229767 0.12098890542984009 0.41687673330307007
0.29215487837791443 0.13612356781959534 0.5042517781257629
0.2522420585155487 0.2154083400964737 0.4219319522380829
0.2622804045677185 0.20704133808612823 0.5486335754394531
0.27354609966278076 0.10920070111751556 0.5113458037376404
0.24526256322860718 0.20224051177501678 0.4702818989753723
0.24931226670742035 0.19203200936317444 0.5379765629768372
0.1813451498746872 0.20056968927383423 0.42180335521698
0.2179478108882904 0.1472436934709549 0.5518568158149719
0.3484797179698944 0.23435835540294647 0.5854291915893555
0.26172593235969543 0.14040887355804443 0.4466935694217682
0.23031280934810638 0.24518239498138428 0.5178155899047852
0.2733972370624542 0.2882295250892639 0.449910432100296
0.23387715220451355 0.16055381298065186 0.4327276051044464
0.2928692102432251 0.16527946293354034 0.5928959250450134
0.2911229133605957 0.17154651880264282 0.5968351364135742
0.18416738510131836 0.19778065383434296 0.586300253868103
0.2098434567451477 0.24918030202388763 0.49438050389289856
0.29691559076309204 0.10590460896492004 0.5629515051841736
0.2886107563972473 0.18647915124893188 0.5340120792388916
0.2152896523475647 0.262611448764801 0.43140965700149536
0.3237270712852478 0.22509607672691345 0.5976616740226746
0.3684959411621094 0.2053258866071701 0.5809264779090881
0.27503544092178345 0.24572987854480743 0.4944266974925995
0.37305009365081787 0.20377059280872345 0.43701058626174927
0.32551902532577515 0.2778366506099701 0.5554124116897583
0.2048143446445465 0.22515231370925903 0.5581936836242676
0.28852635622024536 0.12066841125488281 0.5706199407577515
0.15443381667137146 0.16399580240249634 0.5323789119720459
0.2964617609977722 0.20012247562408447 0.4956771731376648
0.21103736758232117 0.23929469287395477 0.5214660167694092
0.2144862860441208 0.2524588406085968 0.5843870639801025
0.40133136510849 0.22552773356437683 0.5940898656845093
0.2745031714439392 0.23115789890289307 0.4535878598690033
0.2640353739261627 0.1888800710439682 0.5546866059303284
0.2801508605480194 0.2622259557247162 0.4413873255252838
0.15540477633476257 0.1691271960735321 0.4408220946788788
0.34141305088996887 0.12692022323608398 0.4132225811481476
0.24180614948272705 0.2041229009628296 0.511918306350708
0.23611204326152802 0.13532862067222595 0.5628966689109802
0.3914455771446228 0.18790969252586365 0.48550939559936523
0.2597510516643524 0.20663218200206757 0.4606515169143677
0.2568146586418152 0.1630222499370575 0.5847618579864502
0.2544078230857849 0.19422690570354462 0.4291674494743347
0.1537390500307083 0.1556016504764557 0.4617651700973511
0.2552446722984314 0.24304448068141937 0.45108041167259216
0.2674974203109741 0.14557614922523499 0.5612243413925171
0.29574891924858093 0.2227083146572113 0.4274718761444092
0.29946035146713257 0.15389737486839294 0.4290666878223419
0.26641809940338135 0.16113771498203278 0.40626537799835205
0.19925937056541443 0.25843122601509094 0.5013187527656555
0.34327444434165955 0.2097466140985489 0.4663728177547455
0.26705753803253174 0.19344662129878998 0.4651094973087311
0.277050644159317 0.27774232625961304 0.5909688472747803
0.37848901748657227 0.1869359314441681 0.4399721920490265
0.2243311107158661 0.22605237364768982 0.527872622013092
0.24458034336566925 0.21210891008377075 0.44384297728538513
0.1470216065645218 0.16712021827697754 0.5355058312416077
0.3188893496990204 0.17888300120830536 0.4816787838935852
0.20032525062561035 0.22649860382080078 0.5260981321334839
0.3347663879394531 0.16337686777114868 0.5673489570617676
0.3055127263069153 0.20354706048965454 0.5915192365646362
0.2898887097835541 0.10551222413778305 0.4931844174861908
0.2873690128326416 0.12373730540275574 0.5925518870353699
0.24978572130203247 0.15231512486934662 0.47555944323539734
0.23755113780498505 0.3148449957370758 0.5543761849403381
0.3216888904571533 0.1518065631389618 0.584679901599884
0.28649649024009705 0.11939669400453568 0.39800775051116943
0.30264532566070557 0.19641703367233276 0.514367938041687
0.2379479557275772 0.2996765971183777 0.5350664258003235
0.16683191061019897 0.1752888411283493 0.569252073764801
0.17768265306949615 0.16782528162002563 0.43565598130226135
0.19391538202762604 0.19080199301242828 0.45870375633239746
0.28828948736190796 0.18041837215423584 0.5081202983856201
0.2897835373878479 0.30933114886283875 0.4232855439186096
0.2585057318210602 0.2179979383945465 0.46988973021507263
0.3060058653354645 0.2245728224515915 0.472389280796051
0.23847879469394684 0.1686428338289261 0.522667646408081
0.3137832283973694 0.16063641011714935 0.46536168456077576
0.24219422042369843 0.13789109885692596 0.4310179054737091
0.26235833764076233 0.31210780143737793 0.5128230452537537
0.3568011522293091 0.16396424174308777 0.43245187401771545
0.2762405574321747 0.1509348601102829 0.5481274127960205
0.15601027011871338 0.1711573302745819 0.4021412432193756
0.3979836702346802 0.19296732544898987 0.5193079710006714
0.2444690614938736 0.26703670620918274 0.4196149408817291
0.2806520164012909 0.2398991733789444 0.5809508562088013
0.23077714443206787 0.22387667000293732 0.4636838734149933
0.19301800429821014 0.24665044248104095 0.4397084414958954
0.2917156219482422 0.10196593403816223 0.5540083646774292
0.26242595911026 0.3203102648258209 0.4574977457523346
0.3321972191333771 0.217587411403656 0.42993834614753723
0.2990696132183075 0.14103224873542786 0.5401654243469238
0.2753542363643646 0.14903388917446136 0.5832005143165588
0.3627748191356659 0.17332300543785095 0.5218373537063599
0.1635664999485016 0.2064349502325058 0.5462197661399841
0.25014087557792664 0.31011608242988586 0.47706374526023865
0.3671799898147583 0.20753420889377594 0.43100810050964355
0.3170247972011566 0.13073614239692688 0.40008655190467834
0.21673041582107544 0.15920904278755188 0.4914511442184448
0.3477111756801605 0.2533629834651947 0.4064740538597107
0.2688041925430298 0.19400450587272644 0.5342946648597717
0.3276882767677307 0.20934373140335083 0.5507789850234985
0.3773776590824127 0.23739230632781982 0.5562447905540466
0.26473721861839294 0.10855396836996078 0.5497415065765381
0.2312500923871994 0.17771483957767487 0.5886704325675964
0.31546688079833984 0.17318202555179596 0.44161123037338257
0.22500041127204895 0.15179961919784546 0.43084126710891724
0.2603053152561188 0.27755266427993774 0.4036595821380615
0.24344997107982635 0.16512742638587952 0.5916203856468201
0.3149861991405487 0.2888549566268921 0.4534393548965454
0.36177414655685425 0.20730799436569214 0.4576079249382019
0.22048693895339966 0.2912427484989166 0.4817386269569397
0.28100332617759705 0.14941377937793732 0.5173937678337097
0.28464627265930176 0.10878156870603561 0.4844399094581604
0.30181047320365906 0.27122488617897034 0.42056071758270264
0.20017604529857635 0.15796861052513123 0.5178122520446777
0.23473285138607025 0.12872207164764404 0.40296366810798645
0.25468364357948303 0.23694060742855072 0.536038339138031
0.28836292028427124 0.10654664039611816 0.4648142457008362
0.15721675753593445 0.18413355946540833 0.5694224238395691
0.28175386786460876 0.306340754032135 0.5311349034309387
0.27648109197616577 0.11401292681694031 0.4425972104072571
0.32874882221221924 0.23641180992126465 0.5747439861297607
0.3392089009284973 0.1939031481742859 0.5672109127044678
0.2555689513683319 0.1876542717218399 0.5314496159553528
0.31408262252807617 0.1342422068119049 0.565987229347229
0.3497689366340637 0.18411828577518463 0.5990659594535828
0.28137102723121643 0.19535070657730103 0.5159610509872437
0.321980744600296 0.11546516418457031 0.4598405957221985
0.3008338212966919 0.15074589848518372 0.5594968199729919
0.41401946544647217 0.20622201263904572 0.5163987874984741
0.18935613334178925 0.19578300416469574 0.43944159150123596
0.23178230226039886 0.2815344035625458 0.46265172958374023
0.3939031660556793 0.19013828039169312 0.4059533476829529
0.30193713307380676 0.11738271266222 0.5473037362098694
0.3168513774871826 0.25822028517723083 0.5678601264953613
0.3339084982872009 0.20862434804439545 0.4553399682044983
0.35972774028778076 0.18242020905017853 0.5411325693130493
0.22244173288345337 0.180227130651474 0.5875568985939026
0.2504463493824005 0.2411639392375946 0.48136234283447266
0.2448706030845642 0.2969188690185547 0.5059773325920105
0.26095303893089294 0.18532486259937286 0.4799139201641083
0.29722243547439575 0.24213288724422455 0.58925461769104
0.2630508244037628 0.11116273701190948 0.469975084066391
0.26106664538383484 0.20434387028217316 0.4350544512271881
0.28212645649909973 0.23333396017551422 0.5254418849945068
0.32744359970092773 0.1914919912815094 0.5110851526260376
0.3100930452346802 0.1236906349658966 0.4312002956867218
0.21253424882888794 0.2811794579029083 0.40225398540496826
0.17651613056659698 0.213292196393013 0.5538865923881531
0.2859508693218231 0.14369969069957733 0.46933209896087646
0.1972115933895111 0.23654258251190186 0.5751314759254456
0.18855763971805573 0.16685491800308228 0.5378314256668091
0.35909950733184814 0.21858994662761688 0.48481422662734985
0.3079216778278351 0.24066796898841858 0.5926088094711304
0.3458189368247986 0.1216404139995575 0.5470002293586731
0.31719478964805603 0.11665116995573044 0.41609761118888855
0.2936442494392395 0.11859101802110672 0.4751136302947998
0.2542111277580261 0.14994919300079346 0.4640713334083557
0.24789223074913025 0.2477492243051529 0.5856725573539734
0.26107779145240784 0.26482701301574707 0.5237147212028503
0.26275044679641724 0.31045424938201904 0.5138474106788635
0.2313111126422882 0.30717572569847107 0.46519744396209717
0.30000919103622437 0.10597920417785645 0.47920358180999756
0.28406381607055664 0.16950158774852753 0.44560691714286804
0.19306562840938568 0.24894104897975922 0.591616153717041
0.3773776590824127 0.23739230632781982 0.5562447905540466
0.26473721861839294 0.10855396836996078 0.5497415065765381
0.2312500923871994 0.17771483957767487 0.5886704325675964
0.31546688079833984 0.17318202555179596 0.44161123037338257
0.22500041127204895 0.15179961919784546 0.43084126710891724
0.2603053152561188 0.27755266427993774 0.4036595821380615
0.24344997107982635 0.16512742638587952 0.5916203856468201
0.3149861991405487 0.2888549566268921 0.4534393548965454
0.36177414655685425 0.20730799436569214 0.4576079249382019
0.22048693895339966 0.2912427484989166 0.4817386269569397
0.28100332617759705 0.14941377937793732 0.5173937678337097
0.28464627265930176 0.10878156870603561 0.4844399094581604
0.30181047320365906 0.27122488617897034 0.42056071758270264
0.28268998861312866 0.12486693263053894 0.4508824050426483
0.1907358318567276 0.1632692664861679 0.5636003017425537
0.39513885974884033 0.2281641662120819 0.5983473062515259
0.26668283343315125 0.3072648048400879 0.5710837244987488
0.34190577268600464 0.16849812865257263 0.49137043952941895
0.2694050371646881 0.1174701675772667 0.4568405747413635
0.21842792630195618 0.2643592655658722 0.4667888879776001
0.3892572522163391 0.1946624219417572 0.4307922422885895
0.2670803368091583 0.22127729654312134 0.5374911427497864
0.33641481399536133 0.17214243113994598 0.5849325060844421
0.2619806230068207 0.24173393845558167 0.4640566408634186
0.3220581114292145 0.16928908228874207 0.587424635887146
0.2723301351070404 0.2612122595310211 0.506077229976654
0.24335432052612305 0.13601168990135193 0.5133551359176636
0.3807551860809326 0.19321607053279877 0.44675734639167786
0.3773776590824127 0.23739230632781982 0.5562447905540466
0.26473721861839294 0.10855396836996078 0.5497415065765381
0.2312500923871994 0.17771483957767487 0.5886704325675964
0.31546688079833984 0.17318202555179596 0.44161123037338257
0.22500041127204895 0.15179961919784546 0.43084126710891724
0.2603053152561188 0.27755266427993774 0.4036595821380615
0.24344997107982635 0.16512742638587952 0.5916203856468201
0.3149861991405487 0.2888549566268921 0.4534393548965454
0.36177414655685425 0.20730799436569214 0.4576079249382019
0.22048693895339966 0.2912427484989166 0.4817386269569397
0.28100332617759705 0.14941377937793732 0.5173937678337097
0.28464627265930176 0.10878156870603561 0.4844399094581604
0.30181047320365906 0.27122488617897034 0.42056071758270264
0.2642417252063751 0.202479287981987 0.43498486280441284
0.23005099594593048 0.13080641627311707 0.49508175253868103
0.2558991014957428 0.2960812747478485 0.5642014741897583
0.2831425964832306 0.10797131061553955 0.4580327272415161
0.4069865047931671 0.21509024500846863 0.4491022229194641
0.23611204326152802 0.13532862067222595 0.5628966689109802
0.3914455771446228 0.18790969252586365 0.48550939559936523
0.2597510516643524 0.20663218200206757 0.4606515169143677
0.2568146586418152 0.1630222499370575 0.5847618579864502
0.2544078230857849 0.19422690570354462 0.4291674494743347
0.1537390500307083 0.1556016504764557 0.4617651700973511
0.2552446722984314 0.24304448068141937 0.45108041167259216
0.3474180996417999 0.15431460738182068 0.5412365794181824
0.24323806166648865 0.3246304988861084 0.4630652964115143
0.2214026004076004 0.23696213960647583 0.5205928683280945
0.19828931987285614 0.16868871450424194 0.5215627551078796
0.15212148427963257 0.18425250053405762 0.518200695514679
0.26191046833992004 0.18042585253715515 0.442641019821167
0.29197314381599426 0.11834161728620529 0.43993622064590454
0.27106142044067383 0.10840961337089539 0.4258991479873657
0.3437286615371704 0.1796039193868637 0.43797680735588074
0.2806515395641327 0.19421586394309998 0.543124258518219
