ply
format ascii 1.0
element vertex 820
property float x
property float y
property float z
end_header
0.155221089720726 0.12057477235794067 0.4252220690250397
0.3647352159023285 0.19785471260547638 0.4647272527217865
0.26089417934417725 0.20297269523143768 0.5548747181892395
0.1630902886390686 0.18828076124191284 0.4900648593902588
0.3075312077999115 0.18542338907718658 0.44254112243652344
0.14550000429153442 0.12021926045417786 0.4658919870853424
0.20791584253311157 0.13095001876354218 0.41445299983024597
0.3569074869155884 0.15491440892219543 0.5420697927474976
0.32679203152656555 0.2058078646659851 0.5376680493354797
0.20843037962913513 0.19228601455688477 0.3979310691356659
0.3699221909046173 0.22684983909130096 0.4851730763912201
0.23707851767539978 0.13978643715381622 0.5849741697311401
0.22389382123947144 0.11091044545173645 0.6040452718734741
0.2686665952205658 0.1957239806652069 0.5271220803260803
0.33656594157218933 0.12673282623291016 0.49492573738098145
0.28330594301223755 0.10383260250091553 0.5759291052818298
0.2851047217845917 0.1009930744767189 0.5695132613182068
0.1874820739030838 0.2092778980731964 0.4105777442455292
0.23770539462566376 0.13251245021820068 0.5691509246826172
0.280070036649704 0.16213804483413696 0.5094637274742126
0.3359454572200775 0.14365187287330627 0.5594521164894104
0.19601276516914368 0.21046265959739685 0.5247855186462402
0.24938105046749115 0.15515267848968506 0.5861800312995911
0.2600838541984558 0.10405953228473663 0.4454161822795868
0.18341970443725586 0.11161649972200394 0.41338327527046204
0.2367364913225174 0.19529584050178528 0.44620829820632935
0.24790963530540466 0.15367385745048523 0.5534664392471313
0.33576756715774536 0.15896499156951904 0.4078197479248047
0.32409271597862244 0.14944735169410706 0.47053247690200806
0.24080844223499298 0.24345915019512177 0.4159722328186035
0.32715269923210144 0.14091794192790985 0.5108442306518555
0.18158818781375885 0.11253472417593002 0.5172284841537476
0.31449154019355774 0.17023254930973053 0.5067827105522156
0.27028611302375793 0.10330583900213242 0.4564315974712372
0.3801406919956207 0.1964445263147354 0.45778965950012207
0.17072679102420807 0.17502352595329285 0.5717206001281738
0.22919723391532898 0.1601547747850418 0.514127254486084
0.23997938632965088 0.18196995556354523 0.5016890168190002
0.25716355443000793 0.11626800894737244 0.509407639503479
0.3827648162841797 0.21832750737667084 0.5145685076713562
0.20666801929473877 0.1214011013507843 0.4326423406600952
0.2061087042093277 0.2900499999523163 0.44553041458129883
0.3251327872276306 0.15174806118011475 0.44775477051734924
0.23589423298835754 0.13624101877212524 0.4941977262496948
0.28597670793533325 0.2555302381515503 0.41703540086746216
0.2303675413131714 0.25960156321525574 0.48230475187301636
0.31087011098861694 0.159698948264122 0.5830851793289185
0.22223761677742004 0.24146677553653717 0.49318554997444153
0.3367973864078522 0.23382556438446045 0.5786441564559937
0.233443945646286 0.28131693601608276 0.46212005615234375
0.20385901629924774 0.2720588445663452 0.5733229517936707
0.2896305024623871 0.14323794841766357 0.5545793175697327
0.32643285393714905 0.2045944184064865 0.5138734579086304
0.1757889837026596 0.10779348015785217 0.5031465888023376
0.3367197811603546 0.1610860675573349 0.5213277339935303
0.3469969928264618 0.16568495333194733 0.5009473562240601
0.1949279010295868 0.19764050841331482 0.5141741633415222
0.1784958839416504 0.23133939504623413 0.4737430810928345
0.19912020862102509 0.19532102346420288 0.5913986563682556
0.31393560767173767 0.1932111382484436 0.4595341384410858
0.2951377034187317 0.2116556316614151 0.4220433831214905
0.15153832733631134 0.11048365384340286 0.49803227186203003
0.35885414481163025 0.15690098702907562 0.49302372336387634
0.2957565486431122 0.20019258558750153 0.4392648935317993
0.3074077069759369 0.11385337263345718 0.4888695776462555
0.2659066617488861 0.12600627541542053 0.5715227723121643
0.31087011098861694 0.159698948264122 0.5830851793289185
0.22223761677742004 0.24146677553653717 0.49318554997444153
0.3367973864078522 0.23382556438446045 0.5786441564559937
0.20822669565677643 0.27292898297309875 0.5986496806144714
0.23155371844768524 0.1671523153781891 0.49978309869766235
0.18556678295135498 0.164795383810997 0.4990150034427643
0.26717832684516907 0.12300112098455429 0.5154067873954773
0.24116796255111694 0.10634558647871017 0.4289364516735077
0.23355861008167267 0.16142989695072174 0.4430713355541229
0.3035391867160797 0.12218720465898514 0.5167215466499329
0.16688016057014465 0.11866772174835205 0.4301494359970093
0.2412566989660263 0.13005289435386658 0.5410687923431396
0.2928050756454468 0.10487183183431625 0.5420688390731812
0.23912274837493896 0.12063110619783401 0.42574048042297363
0.17612983286380768 0.21307389438152313 0.4579210579395294
0.2893872857093811 0.1746944636106491 0.5217200517654419
0.23901209235191345 0.23297244310379028 0.41740965843200684
0.2881619334220886 0.10731425136327744 0.41008859872817993
0.25177624821662903 0.2152833193540573 0.4223722815513611
0.3132411241531372 0.15089525282382965 0.5042874813079834
0.27927350997924805 0.16724328696727753 0.557981550693512
0.32715269923210144 0.14091794192790985 0.5108442306518555
0.32558539509773254 0.21701575815677643 0.5828381180763245
0.22686399519443512 0.17462509870529175 0.4049338698387146
0.31597214937210083 0.21824565529823303 0.5591054558753967
0.2677391469478607 0.12124896794557571 0.4086839258670807
0.28308558464050293 0.14202137291431427 0.5473358631134033
0.16324986517429352 0.1438482105731964 0.510335385799408
0.2923503518104553 0.19677665829658508 0.5044677257537842
0.2198534905910492 0.20504169166088104 0.5805588364601135
0.2674608528614044 0.14338922500610352 0.43905943632125854
0.24756251275539398 0.1447986513376236 0.4267166256904602
0.28788596391677856 0.151728555560112 0.5228012800216675
0.19181086122989655 0.24627332389354706 0.45025891065597534
0.135564386844635 0.12688766419887543 0.5877043604850769
0.24648955464363098 0.19421625137329102 0.5241789817810059
0.3427664637565613 0.21646429598331451 0.4829148054122925
0.3001915216445923 0.22710026800632477 0.5005882382392883
0.35574641823768616 0.15247979760169983 0.41129598021507263
0.23729412257671356 0.224135622382164 0.5016005635261536
0.314146488904953 0.1266404092311859 0.41527676582336426
0.3004830479621887 0.11222711950540543 0.5349863171577454
0.1941324919462204 0.1266830414533615 0.4919124245643616
0.22490520775318146 0.13383673131465912 0.5899158120155334
0.3642862141132355 0.1608976274728775 0.48199984431266785
0.22186002135276794 0.21032488346099854 0.5315909385681152
0.25867071747779846 0.25092965364456177 0.5773198008537292
0.20348584651947021 0.11447297781705856 0.39937740564346313
0.23835057020187378 0.24847504496574402 0.45020708441734314
0.3608994781970978 0.2316182553768158 0.5274955630302429
0.3322340250015259 0.20483815670013428 0.5760320425033569
0.16987791657447815 0.13142311573028564 0.5818635821342468
0.26942726969718933 0.17993643879890442 0.5711455345153809
0.20510561764240265 0.20949552953243256 0.5205018520355225
0.3440350294113159 0.17194639146327972 0.41443416476249695
0.2519514560699463 0.170536607503891 0.5107929110527039
0.28860461711883545 0.2510536015033722 0.4193306267261505
0.17737379670143127 0.13042327761650085 0.42962580919265747
0.24712033569812775 0.24304279685020447 0.594378650188446
0.19048792123794556 0.23652802407741547 0.49894967675209045
0.22599084675312042 0.13181449472904205 0.5452569723129272
0.14600291848182678 0.14561575651168823 0.5239359140396118
0.13325396180152893 0.12315980345010757 0.5703492164611816
0.3263310492038727 0.1847454160451889 0.4581585228443146
0.23444710671901703 0.2314271628856659 0.524300754070282
0.16616672277450562 0.11745820194482803 0.487076073884964
0.2731696665287018 0.17859506607055664 0.5158393979072571
0.2637080252170563 0.248307466506958 0.4145529568195343
0.2487579584121704 0.16762655973434448 0.5332993865013123
0.16062375903129578 0.18607881665229797 0.573482871055603
0.26464155316352844 0.10907071828842163 0.509482741355896
0.29983681440353394 0.1073896735906601 0.5031742453575134
0.18734915554523468 0.13944484293460846 0.5804218649864197
0.32921984791755676 0.17963725328445435 0.4737858474254608
0.16983948647975922 0.12091532349586487 0.48045337200164795
0.20428675413131714 0.15942057967185974 0.5852625966072083
0.1865488737821579 0.20850321650505066 0.49092942476272583
0.3601173460483551 0.1626357138156891 0.5318546891212463
0.17358539998531342 0.14822518825531006 0.4908697009086609
0.188256174325943 0.13278360664844513 0.5019572973251343
0.25321564078330994 0.2351113110780716 0.4076586961746216
0.34339216351509094 0.2044871747493744 0.4757407009601593
0.2984481751918793 0.2557154595851898 0.5287145376205444
0.26953354477882385 0.10560782253742218 0.5636070966720581
0.27561089396476746 0.10384923964738846 0.5075012445449829
0.2776966392993927 0.24019496142864227 0.43990230560302734
0.22223761677742004 0.24146677553653717 0.49318554997444153
0.3367973864078522 0.23382556438446045 0.5786441564559937
0.20822669565677643 0.27292898297309875 0.5986496806144714
0.23155371844768524 0.1671523153781891 0.49978309869766235
0.3304955065250397 0.15272721648216248 0.4644724130630493
0.26670166850090027 0.22558680176734924 0.4761941432952881
0.3312780261039734 0.21412524580955505 0.5099020004272461
0.30963653326034546 0.17276719212532043 0.4340633451938629
0.2439885437488556 0.1467018872499466 0.5800289511680603
0.3123804032802582 0.19846083223819733 0.5783636569976807
0.25064459443092346 0.1637926697731018 0.5895568132400513
0.22406789660453796 0.18705573678016663 0.5640367865562439
0.2606537342071533 0.21328066289424896 0.4811100363731384
0.36350855231285095 0.1727716028690338 0.6018131971359253
0.34539994597435 0.1817004233598709 0.48043662309646606
0.2057192325592041 0.2653346061706543 0.5507789254188538
0.1993652731180191 0.20461711287498474 0.4481031596660614
0.26064202189445496 0.14352065324783325 0.5220412611961365
0.26128044724464417 0.15127745270729065 0.41015446186065674
0.26917824149131775 0.26404622197151184 0.49959176778793335
0.16848434507846832 0.20539496839046478 0.4402536451816559
0.1485484093427658 0.11832859367132187 0.4281383156776428
0.40730974078178406 0.2128293663263321 0.5573322772979736
0.1908997893333435 0.19777318835258484 0.43947118520736694
0.25513458251953125 0.1508939266204834 0.4231949746608734
0.2259509265422821 0.24617671966552734 0.4988999664783478
0.3417859971523285 0.22753292322158813 0.5663894414901733
0.3464741110801697 0.24098168313503265 0.510471761226654
0.3060769736766815 0.12135939300060272 0.5431780815124512
0.2911953628063202 0.12369973212480545 0.6106866598129272
0.2668726146221161 0.14503894746303558 0.42959150671958923
0.2489575892686844 0.2191646248102188 0.43276071548461914
0.20202380418777466 0.1974521279335022 0.5180246233940125
0.23589244484901428 0.25062325596809387 0.41706788539886475
0.26366084814071655 0.14416855573654175 0.4650416374206543
0.3445737659931183 0.16856533288955688 0.5963925123214722
0.31630682945251465 0.1242595985531807 0.527974009513855
0.21104365587234497 0.22109036147594452 0.4975621998310089
0.37011346220970154 0.23304162919521332 0.580727219581604
0.14781437814235687 0.1439889371395111 0.4692099094390869
0.22618214786052704 0.1074436604976654 0.4873488247394562
0.32740500569343567 0.2359897643327713 0.4835185110569
0.16564629971981049 0.1481524407863617 0.4828658998012543
0.2676778733730316 0.1921214461326599 0.4675767123699188
0.2904602885246277 0.10014320909976959 0.5241931080818176
0.14012117683887482 0.1438174694776535 0.44786638021469116
0.1476355940103531 0.15577268600463867 0.4233115315437317
0.14327409863471985 0.14452558755874634 0.42069539427757263
0.33381080627441406 0.2207934558391571 0.41258400678634644
0.18220920860767365 0.18375197052955627 0.573064923286438
0.40437108278274536 0.2141985297203064 0.4482576847076416
0.3656473755836487 0.21873259544372559 0.49968579411506653
0.19423632323741913 0.11534568667411804 0.48277953267097473
0.18803000450134277 0.21869248151779175 0.4421561360359192
0.20509366691112518 0.2058476358652115 0.4723447263240814
0.17273840308189392 0.1917736530303955 0.42286548018455505
0.3234960436820984 0.23569940030574799 0.48560261726379395
0.1893458366394043 0.19808055460453033 0.5856726765632629
0.1674811691045761 0.12243220955133438 0.5300048589706421
0.25037407875061035 0.19759748876094818 0.584323525428772
0.265086829662323 0.19560088217258453 0.47860729694366455
0.1621169149875641 0.19890853762626648 0.4679430425167084
0.1757889837026596 0.10779348015785217 0.5031465888023376
0.2999650239944458 0.18366463482379913 0.40038001537323
0.2584116756916046 0.16990265250205994 0.5970439910888672
0.26427796483039856 0.24354232847690582 0.5459647178649902
0.3553159236907959 0.1444314420223236 0.5337778329849243
0.36864781379699707 0.169658824801445 0.5273803472518921
0.23679473996162415 0.12046826630830765 0.4597759544849396
0.23230521380901337 0.22150947153568268 0.4616684019565582
0.2077813446521759 0.15919919312000275 0.41315433382987976
0.26628342270851135 0.25515851378440857 0.4298010766506195
0.26927563548088074 0.11128146201372147 0.5713792443275452
0.33718863129615784 0.2213565856218338 0.5851297378540039
0.20113371312618256 0.20772841572761536 0.4679141640663147
0.2170138657093048 0.23600372672080994 0.49461275339126587
0.3700432777404785 0.1701144576072693 0.49012041091918945
0.2199145406484604 0.23739713430404663 0.4029914438724518
0.2960493862628937 0.209694042801857 0.535685122013092
0.27003875374794006 0.14316591620445251 0.5819727778434753
0.31162029504776 0.23230786621570587 0.48341548442840576
0.32068774104118347 0.23933808505535126 0.4180368483066559
0.21502408385276794 0.2599431276321411 0.4027341902256012
0.2222069650888443 0.21097621321678162 0.5373561978340149
0.22288891673088074 0.2351340800523758 0.4042441248893738
0.1935022622346878 0.24074073135852814 0.49225831031799316
0.18815456330776215 0.16230012476444244 0.4070723354816437
0.2888641059398651 0.230971559882164 0.4369421601295471
0.25504744052886963 0.2647089660167694 0.5091219544410706
0.15776115655899048 0.11117322742938995 0.5186901688575745
0.33506307005882263 0.14635707437992096 0.5588014125823975
0.1500590443611145 0.14182673394680023 0.4532506465911865
0.3251231610774994 0.12234807014465332 0.5076327323913574
0.1701115071773529 0.10978277772665024 0.4014699161052704
0.3010343909263611 0.14914119243621826 0.546428382396698
0.2999650239944458 0.18366463482379913 0.40038001537323
0.2584116756916046 0.16990265250205994 0.5970439910888672
0.26427796483039856 0.24354232847690582 0.5459647178649902
0.3553159236907959 0.1444314420223236 0.5337778329849243
0.36864781379699707 0.169658824801445 0.5273803472518921
0.23679473996162415 0.12046826630830765 0.4597759544849396
0.22270753979682922 0.2392101138830185 0.4271475076675415
0.1456441730260849 0.15251757204532623 0.4287625849246979
0.2077813446521759 0.15919919312000275 0.41315433382987976
0.26628342270851135 0.25515851378440857 0.4298010766506195
0.26927563548088074 0.11128146201372147 0.5713792443275452
0.33718863129615784 0.2213565856218338 0.5851297378540039
0.20113371312618256 0.20772841572761536 0.4679141640663147
0.2170138657093048 0.23600372672080994 0.49461275339126587
0.3700432777404785 0.1701144576072693 0.49012041091918945
0.2199145406484604 0.23739713430404663 0.4029914438724518
0.1937178373336792 0.1200607493519783 0.5338587760925293
0.27140215039253235 0.11540085077285767 0.45635920763015747
0.2482929527759552 0.19537781178951263 0.45822280645370483
0.22267979383468628 0.2348698228597641 0.4177320599555969
0.1935022622346878 0.24074073135852814 0.49225831031799316
0.18815456330776215 0.16230012476444244 0.4070723354816437
0.2888641059398651 0.230971559882164 0.4369421601295471
0.25504744052886963 0.2647089660167694 0.5091219544410706
0.15776115655899048 0.11117322742938995 0.5186901688575745
0.33506307005882263 0.14635707437992096 0.5588014125823975
0.1500590443611145 0.14182673394680023 0.4532506465911865
0.2610839605331421 0.2729109823703766 0.4346370995044708
0.24628183245658875 0.13748358190059662 0.5839672088623047
0.1701115071773529 0.10978277772665024 0.4014699161052704
0.2858075499534607 0.14875826239585876 0.5981787443161011
0.23553313314914703 0.25805965065956116 0.473940908908844
0.24080108106136322 0.24471868574619293 0.5647761821746826
0.15873084962368011 0.12690341472625732 0.4369024336338043
0.2489575892686844 0.2191646248102188 0.43276071548461914
0.20202380418777466 0.1974521279335022 0.5180246233940125
0.23589244484901428 0.25062325596809387 0.41706788539886475
0.26366084814071655 0.14416855573654175 0.4650416374206543
0.3445737659931183 0.16856533288955688 0.5963925123214722
0.31630682945251465 0.1242595985531807 0.527974009513855
0.21104365587234497 0.22109036147594452 0.4975621998310089
0.37011346220970154 0.23304162919521332 0.580727219581604
0.14781437814235687 0.1439889371395111 0.4692099094390869
0.22618214786052704 0.1074436604976654 0.4873488247394562
0.32740500569343567 0.2359897643327713 0.4835185110569
0.16564629971981049 0.1481524407863617 0.4828658998012543
0.2676778733730316 0.1921214461326599 0.4675767123699188
0.2904602885246277 0.10014320909976959 0.5241931080818176
0.14012117683887482 0.1438174694776535 0.44786638021469116
0.31754234433174133 0.21712760627269745 0.5836388468742371
0.2384326457977295 0.10587532818317413 0.581407368183136
0.2880374491214752 0.13183243572711945 0.5176008343696594
0.22206111252307892 0.2150305211544037 0.5905241370201111
0.22075794637203217 0.20448517799377441 0.4548499584197998
0.25145426392555237 0.11322025954723358 0.41852104663848877
0.1597568690776825 0.11531767249107361 0.5205597877502441
0.1877351999282837 0.1763148456811905 0.5002648830413818
0.2428358942270279 0.27756309509277344 0.4012333154678345
0.30946484208106995 0.16412076354026794 0.5591137409210205
0.1520152986049652 0.18495789170265198 0.5930543541908264
0.2352691888809204 0.13304893672466278 0.4771069884300232
0.21945270895957947 0.17773842811584473 0.6003093123435974
0.19671359658241272 0.13202670216560364 0.4778614044189453
0.2928050756454468 0.10487183183431625 0.5420688390731812
0.22550170123577118 0.23454897105693817 0.45665502548217773
0.22162741422653198 0.2686244547367096 0.5008804798126221
0.22374971210956573 0.26862794160842896 0.45583587884902954
0.25404709577560425 0.168082594871521 0.4216083586215973
0.330295205116272 0.17103919386863708 0.5459318161010742
0.16795404255390167 0.145340695977211 0.49209922552108765
0.21495220065116882 0.25138556957244873 0.5117379426956177
0.21505804359912872 0.2419104129076004 0.5560464262962341
0.3263144791126251 0.12595713138580322 0.5023529529571533
0.32809486985206604 0.22297343611717224 0.5311350226402283
0.281009316444397 0.2211446911096573 0.5411301851272583
0.2128981500864029 0.2014935165643692 0.5983669757843018
0.31297487020492554 0.13934187591075897 0.4659132659435272
0.25565817952156067 0.15997470915317535 0.5468417406082153
0.2857765555381775 0.16880203783512115 0.4976118803024292
0.31754234433174133 0.21712760627269745 0.5836388468742371
0.3083385229110718 0.10740672796964645 0.4286918640136719
0.2384326457977295 0.10587532818317413 0.581407368183136
0.2880374491214752 0.13183243572711945 0.5176008343696594
0.22206111252307892 0.2150305211544037 0.5905241370201111
0.22075794637203217 0.20448517799377441 0.4548499584197998
0.25145426392555237 0.11322025954723358 0.41852104663848877
0.1597568690776825 0.11531767249107361 0.5205597877502441
0.1877351999282837 0.1763148456811905 0.5002648830413818
0.2428358942270279 0.27756309509277344 0.4012333154678345
0.30946484208106995 0.16412076354026794 0.5591137409210205
0.1520152986049652 0.18495789170265198 0.5930543541908264
0.2352691888809204 0.13304893672466278 0.4771069884300232
0.30478161573410034 0.24556240439414978 0.5640464425086975
0.17151491343975067 0.13097521662712097 0.5204525589942932
0.1987105756998062 0.16012625396251678 0.5805301070213318
0.22389382123947144 0.11091044545173645 0.6040452718734741
0.185440331697464 0.23660989105701447 0.5564104914665222
0.25075292587280273 0.15310701727867126 0.524127185344696
0.30511730909347534 0.1669362485408783 0.5852999091148376
0.24163523316383362 0.1109294593334198 0.48461082577705383
0.23309504985809326 0.1569092869758606 0.5928250551223755
0.2799624502658844 0.11699824780225754 0.4293123483657837
0.34482821822166443 0.2088397592306137 0.5883665680885315
0.1860928237438202 0.2266826182603836 0.5278855562210083
0.19300663471221924 0.14086845517158508 0.5236531496047974
0.20108403265476227 0.24411186575889587 0.5227831602096558
0.14795072376728058 0.11124426126480103 0.49052587151527405
0.15280087292194366 0.12468425184488297 0.5552997589111328
0.294598251581192 0.1201900988817215 0.5331655740737915
0.1727185845375061 0.21129637956619263 0.5657994151115417
0.23017123341560364 0.11254575848579407 0.6042560338973999
0.30413466691970825 0.15974336862564087 0.4425182342529297
0.2707350254058838 0.16775527596473694 0.4723781645298004
0.21403738856315613 0.24562959372997284 0.5714572072029114
0.3980119228363037 0.21730490028858185 0.42985817790031433
0.32705605030059814 0.18656480312347412 0.5134791731834412
0.28617650270462036 0.16526848077774048 0.4958283007144928
0.22499385476112366 0.150223046541214 0.5437290072441101
0.2834540903568268 0.18893422186374664 0.5490338206291199
0.2699940502643585 0.11024180054664612 0.5060232281684875
0.24504396319389343 0.19131167232990265 0.5569412708282471
0.28593114018440247 0.101191945374012 0.46466493606567383
0.3918783962726593 0.20503821969032288 0.4171468913555145
0.22591498494148254 0.16467803716659546 0.41143062710762024
0.17866918444633484 0.11601603776216507 0.4440577030181885
0.21122561395168304 0.20679950714111328 0.5658119320869446
0.15805520117282867 0.1509554088115692 0.5520154237747192
0.24400386214256287 0.1127171739935875 0.48104751110076904
0.31139829754829407 0.10843724012374878 0.5744051933288574
0.23113150894641876 0.24788232147693634 0.44573459029197693
0.3266259431838989 0.21985159814357758 0.4263351559638977
0.1883992850780487 0.18779371678829193 0.39798954129219055
0.2427707314491272 0.27809521555900574 0.40856078267097473
0.23590552806854248 0.2556106746196747 0.4252083897590637
0.32920849323272705 0.20515209436416626 0.5060727000236511
0.23086896538734436 0.11287732422351837 0.49018552899360657
0.17871646583080292 0.21963533759117126 0.4306662380695343
0.2609412372112274 0.2576712965965271 0.4987232983112335
0.13592852652072906 0.1436200886964798 0.3958941400051117
0.3209336996078491 0.17188569903373718 0.4464728534221649
0.2865804135799408 0.2440596967935562 0.5265300273895264
0.20796766877174377 0.14107781648635864 0.5964458584785461
0.18160751461982727 0.16029207408428192 0.5762556195259094
0.31364917755126953 0.2331417202949524 0.44233810901641846
0.24353016912937164 0.22826220095157623 0.5484181046485901
0.2730163037776947 0.16319531202316284 0.6003509163856506
0.26527050137519836 0.13390898704528809 0.4003382623195648
0.23413245379924774 0.24974487721920013 0.5537404417991638
0.273373544216156 0.14397595822811127 0.5143016576766968
0.2717836797237396 0.11179221421480179 0.40095052123069763
0.19650565087795258 0.23932327330112457 0.4613940119743347
0.21004706621170044 0.20476703345775604 0.5294472575187683
0.30498072504997253 0.10704632103443146 0.5380370020866394
0.26777711510658264 0.2302929162979126 0.4493074119091034
0.2679693102836609 0.26257944107055664 0.4743894338607788
0.29776623845100403 0.18422184884548187 0.5885787010192871
0.31606388092041016 0.176219642162323 0.44638124108314514
0.3482789993286133 0.20687787234783173 0.47583985328674316
0.2753782570362091 0.23611856997013092 0.5472604036331177
0.34699851274490356 0.1380280703306198 0.5569113492965698
0.2999650239944458 0.18366463482379913 0.40038001537323
0.2584116756916046 0.16990265250205994 0.5970439910888672
0.31677356362342834 0.16842231154441833 0.5314754843711853
0.3418653905391693 0.15075664222240448 0.5589170455932617
0.31286072731018066 0.20273615419864655 0.5310412645339966
0.2959105670452118 0.2050832211971283 0.42966222763061523
0.2612939774990082 0.14930766820907593 0.4549277126789093
0.29095569252967834 0.25377604365348816 0.493839293718338
0.3763790428638458 0.21346768736839294 0.4733370840549469
0.3349221348762512 0.18951068818569183 0.5415147542953491
0.17081931233406067 0.1548573076725006 0.44068002700805664
0.2547496259212494 0.10493680834770203 0.4039955735206604
0.23718206584453583 0.2347133308649063 0.41930708289146423
0.2407914102077484 0.11081839352846146 0.5353062748908997
0.28517231345176697 0.17869055271148682 0.5516747236251831
0.3726893663406372 0.21294355392456055 0.599947452545166
0.16366398334503174 0.16652703285217285 0.4310213625431061
0.19932852685451508 0.17782457172870636 0.4620949327945709
0.2983398139476776 0.10628736019134521 0.5077072978019714
0.3293686807155609 0.12064232677221298 0.5118045806884766
0.16260753571987152 0.17436054348945618 0.4393373429775238
0.3630448877811432 0.20695261657238007 0.42244207859039307
0.33808833360671997 0.20662623643875122 0.4703713357448578
0.21602940559387207 0.10774637013673782 0.41230887174606323
0.1954931914806366 0.26866647601127625 0.42335548996925354
0.355098158121109 0.21245276927947998 0.5661927461624146
0.2515980303287506 0.24043533205986023 0.5631620287895203
0.3517933189868927 0.14851069450378418 0.4335706830024719
0.18334461748600006 0.21537752449512482 0.4718033969402313
0.30485275387763977 0.16619886457920074 0.5992312431335449
0.2745746672153473 0.15434864163398743 0.5576969981193542
0.35052090883255005 0.13899095356464386 0.5155012011528015
0.1415824145078659 0.14795158803462982 0.5546683669090271
0.22489921748638153 0.1183847114443779 0.5673493146896362
0.20138788223266602 0.14110776782035828 0.6025167107582092
0.3287205398082733 0.22695991396903992 0.5838119983673096
0.2827833592891693 0.11426221579313278 0.48109132051467896
0.267022967338562 0.10309863835573196 0.43345779180526733
0.232038676738739 0.19992171227931976 0.4751816987991333
0.2292514443397522 0.11359436810016632 0.45295900106430054
0.27916598320007324 0.12669232487678528 0.5747088193893433
0.31139829754829407 0.10843724012374878 0.5744051933288574
0.20003826916217804 0.13864803314208984 0.573279082775116
0.22413402795791626 0.19496506452560425 0.5306044816970825
0.2902821898460388 0.1850038319826126 0.5073317885398865
0.3930426239967346 0.19813676178455353 0.5076624155044556
0.2231365144252777 0.24848607182502747 0.553924560546875
0.2867400646209717 0.12028397619724274 0.4287171959877014
0.1720038652420044 0.1794329434633255 0.599687933921814
0.33259788155555725 0.15405511856079102 0.46706509590148926
0.2646072506904602 0.10424691438674927 0.48962751030921936
0.24678191542625427 0.1113448515534401 0.40076011419296265
0.17132927477359772 0.1166849359869957 0.4829827547073364
0.25820237398147583 0.23552164435386658 0.4471611976623535
0.27177661657333374 0.16540215909481049 0.43946152925491333
0.2196316123008728 0.23328304290771484 0.4155232012271881
0.13531742990016937 0.12271204590797424 0.4646880328655243
0.22450004518032074 0.11320960521697998 0.5294625759124756
0.14727577567100525 0.11965645104646683 0.46098819375038147
0.14495070278644562 0.13007588684558868 0.5563576817512512
0.25318995118141174 0.1705344319343567 0.6003715395927429
0.2781372666358948 0.1722797155380249 0.4617134928703308
0.23742730915546417 0.211128368973732 0.41743606328964233
0.25513458251953125 0.1508939266204834 0.4231949746608734
0.20202380418777466 0.1974521279335022 0.5180246233940125
0.23589244484901428 0.25062325596809387 0.41706788539886475
0.26366084814071655 0.14416855573654175 0.4650416374206543
0.3445737659931183 0.16856533288955688 0.5963925123214722
0.31630682945251465 0.1242595985531807 0.527974009513855
0.21104365587234497 0.22109036147594452 0.4975621998310089
0.37011346220970154 0.23304162919521332 0.580727219581604
0.14781437814235687 0.1439889371395111 0.4692099094390869
0.22618214786052704 0.1074436604976654 0.4873488247394562
0.32740500569343567 0.2359897643327713 0.4835185110569
0.16564629971981049 0.1481524407863617 0.4828658998012543
0.2676778733730316 0.1921214461326599 0.4675767123699188
0.2904602885246277 0.10014320909976959 0.5241931080818176
0.14012117683887482 0.1438174694776535 0.44786638021469116
0.1476355940103531 0.15577268600463867 0.4233115315437317
0.14327409863471985 0.14452558755874634 0.42069539427757263
0.33381080627441406 0.2207934558391571 0.41258400678634644
0.18220920860767365 0.18375197052955627 0.573064923286438
0.40437108278274536 0.2141985297203064 0.4482576847076416
0.3656473755836487 0.21873259544372559 0.49968579411506653
0.19423632323741913 0.11534568667411804 0.48277953267097473
0.18803000450134277 0.21869248151779175 0.4421561360359192
0.20509366691112518 0.2058476358652115 0.4723447263240814
0.17273840308189392 0.1917736530303955 0.42286548018455505
0.3234960436820984 0.23569940030574799 0.48560261726379395
0.2705012857913971 0.2354050576686859 0.523934006690979
0.2331201136112213 0.15041282773017883 0.5862182974815369
0.25414055585861206 0.24743333458900452 0.5467700958251953
0.2307039499282837 0.25121039152145386 0.4102778434753418
0.19489850103855133 0.16103419661521912 0.47649088501930237
0.20161306858062744 0.17262457311153412 0.42690297961235046
0.16688288748264313 0.18568986654281616 0.4276335835456848
0.20138788223266602 0.14110776782035828 0.6025167107582092
0.3287205398082733 0.22695991396903992 0.5838119983673096
0.26489201188087463 0.20181292295455933 0.5141209959983826
0.16202698647975922 0.14194966852664948 0.5516598224639893
0.18508540093898773 0.1718367487192154 0.4510776996612549
0.3382132351398468 0.22578099370002747 0.49186262488365173
0.2563190460205078 0.17258471250534058 0.4016157388687134
0.24080108106136322 0.24471868574619293 0.5647761821746826
0.15873084962368011 0.12690341472625732 0.4369024336338043
0.2489575892686844 0.2191646248102188 0.43276071548461914
0.20202380418777466 0.1974521279335022 0.5180246233940125
0.23589244484901428 0.25062325596809387 0.41706788539886475
0.26366084814071655 0.14416855573654175 0.4650416374206543
0.3445737659931183 0.16856533288955688 0.5963925123214722
0.31630682945251465 0.1242595985531807 0.527974009513855
0.21104365587234497 0.22109036147594452 0.4975621998310089
0.37011346220970154 0.23304162919521332 0.580727219581604
0.14781437814235687 0.1439889371395111 0.4692099094390869
0.22618214786052704 0.1074436604976654 0.4873488247394562
0.2779160141944885 0.1031416580080986 0.4202338457107544
0.2248150259256363 0.15259385108947754 0.603024959564209
0.21786712110042572 0.2398754358291626 0.433795690536499
0.3326495587825775 0.2475215196609497 0.5328596234321594
0.31059062480926514 0.2092781662940979 0.47159501910209656
0.2175980806350708 0.16532856225967407 0.44826704263687134
0.2776150405406952 0.1610991656780243 0.5888692736625671
0.20158928632736206 0.20363976061344147 0.4171787202358246
0.3025657534599304 0.12943284213542938 0.5593234896659851
0.2702033221721649 0.14836731553077698 0.5325717926025391
0.30261674523353577 0.10881346464157104 0.6061279773712158
0.21346549689769745 0.15481092035770416 0.5745108723640442
0.16863466799259186 0.21097560226917267 0.5744585394859314
0.30485275387763977 0.16619886457920074 0.5992312431335449
0.19946801662445068 0.14638274908065796 0.4938785433769226
0.14763972163200378 0.12053389847278595 0.4389632046222687
0.14576014876365662 0.14268358051776886 0.4938773512840271
0.2349763810634613 0.21446634829044342 0.5231000185012817
0.3184732496738434 0.23485016822814941 0.46483922004699707
0.2626442611217499 0.16109034419059753 0.42870163917541504
0.17186294496059418 0.12185640633106232 0.3962816596031189
0.134977325797081 0.14257867634296417 0.5952634215354919
0.35640886425971985 0.22799526154994965 0.4799446761608124
0.19740401208400726 0.18358366191387177 0.5143114328384399
0.37726885080337524 0.18694764375686646 0.426904559135437
0.3137429356575012 0.21801139414310455 0.42340534925460815
0.3089832067489624 0.24616791307926178 0.4437158405780792
0.24809962511062622 0.2474307417869568 0.5172659754753113
0.22965732216835022 0.2505316436290741 0.4941459894180298
0.28203320503234863 0.16795416176319122 0.4773302376270294
0.25248005986213684 0.11359545588493347 0.5589594841003418
0.19194625318050385 0.13154521584510803 0.5983782410621643
0.32423731684684753 0.17587576806545258 0.41513165831565857
0.21798883378505707 0.24386706948280334 0.48011520504951477
0.29619917273521423 0.2338847666978836 0.4708549678325653
0.32007962465286255 0.16293857991695404 0.541022539138794
0.2866455614566803 0.16476163268089294 0.4787576496601105
0.21646784245967865 0.2535440921783447 0.4639975428581238
0.2698374092578888 0.140005961060524 0.40894490480422974
0.31075358390808105 0.1668548434972763 0.507662832736969
0.2906152307987213 0.15845654904842377 0.44051262736320496
0.23069404065608978 0.22116899490356445 0.4303314983844757
0.36960241198539734 0.1698676496744156 0.573043167591095
0.33633488416671753 0.18534302711486816 0.5613086223602295
0.292916864156723 0.19833624362945557 0.5368573069572449
0.24628183245658875 0.13748358190059662 0.5839672088623047
0.19312171638011932 0.2569541931152344 0.4523938298225403
0.24344515800476074 0.16892454028129578 0.4822138845920563
0.2798248827457428 0.2526320219039917 0.41805413365364075
0.2422548234462738 0.17255449295043945 0.4577461779117584
0.32481250166893005 0.13548985123634338 0.4662434756755829
0.27588483691215515 0.2308289259672165 0.5157118439674377
0.24320365488529205 0.1545669138431549 0.4175998270511627
0.2565961182117462 0.26548439264297485 0.5129603743553162
0.2667219042778015 0.20454226434230804 0.49028146266937256
0.21346549689769745 0.15481092035770416 0.5745108723640442
0.2568361461162567 0.2694758474826813 0.5669187903404236
0.1859070211648941 0.19535322487354279 0.44786956906318665
0.28798964619636536 0.14226429164409637 0.39922839403152466
0.31466227769851685 0.11952236294746399 0.5895624160766602
0.32210490107536316 0.14641527831554413 0.4149921238422394
0.3143434524536133 0.14544792473316193 0.49642038345336914
0.29740357398986816 0.11932556331157684 0.5287168025970459
0.13637346029281616 0.133077472448349 0.5353500247001648
0.1638621985912323 0.10835514962673187 0.4963877499103546
0.18669366836547852 0.18919377028942108 0.5141280889511108
0.21495065093040466 0.12425163388252258 0.5118018984794617
0.29311391711235046 0.25147971510887146 0.5608586072921753
0.2596932649612427 0.2446180284023285 0.46072420477867126
0.23129421472549438 0.12227407842874527 0.5397787094116211
0.39689767360687256 0.2202347368001938 0.5046545267105103
0.1447150558233261 0.162932351231575 0.5899327397346497
0.1657167226076126 0.17202138900756836 0.4458405077457428
0.17575009167194366 0.16487577557563782 0.49830812215805054
0.18990705907344818 0.18412049114704132 0.4871445596218109
0.24953527748584747 0.12865105271339417 0.4948510527610779
0.1701115071773529 0.10978277772665024 0.4014699161052704
0.2858075499534607 0.14875826239585876 0.5981787443161011
0.32064083218574524 0.16570815443992615 0.5106463432312012
0.16342978179454803 0.17529389262199402 0.5509827733039856
0.35525476932525635 0.22229331731796265 0.5442386269569397
0.15826204419136047 0.14624473452568054 0.5064134001731873
0.2940922677516937 0.10094338655471802 0.43076398968696594
0.2716800570487976 0.20090074837207794 0.4859383702278137
0.3150534927845001 0.14904795587062836 0.5687335133552551
0.36385589838027954 0.19962365925312042 0.46063143014907837
0.3211113214492798 0.15695777535438538 0.4508940279483795
0.3014849126338959 0.10497398674488068 0.5054509043693542
0.2233988642692566 0.18448269367218018 0.5507156848907471
0.1859070211648941 0.19535322487354279 0.44786956906318665
0.25746047496795654 0.25940823554992676 0.4341813325881958
0.33857983350753784 0.17180703580379486 0.5019170045852661
0.2588830590248108 0.19771820306777954 0.5577118992805481
0.2030225694179535 0.20154261589050293 0.519507884979248
0.33219194412231445 0.2516239583492279 0.5080536603927612
0.29740357398986816 0.11932556331157684 0.5287168025970459
0.29619917273521423 0.2338847666978836 0.4708549678325653
0.32007962465286255 0.16293857991695404 0.541022539138794
0.2866455614566803 0.16476163268089294 0.4787576496601105
0.21646784245967865 0.2535440921783447 0.4639975428581238
0.2698374092578888 0.140005961060524 0.40894490480422974
0.31075358390808105 0.1668548434972763 0.507662832736969
0.2906152307987213 0.15845654904842377 0.44051262736320496
0.23176398873329163 0.16656717658042908 0.4187023937702179
0.36960241198539734 0.1698676496744156 0.573043167591095
0.36216646432876587 0.22253572940826416 0.5597006678581238
0.24953527748584747 0.12865105271339417 0.4948510527610779
0.21123157441616058 0.1649574339389801 0.5457239151000977
0.20469915866851807 0.12877461314201355 0.5989614725112915
0.22837534546852112 0.11121129244565964 0.4583267569541931
0.2361343502998352 0.13221365213394165 0.5054463744163513
0.23309800028800964 0.12267057597637177 0.42357292771339417
0.19977010786533356 0.2339460402727127 0.5580291748046875
0.25844085216522217 0.14320145547389984 0.554811954498291
0.3397400379180908 0.18341146409511566 0.4540332853794098
0.17060306668281555 0.15022580325603485 0.5503809452056885
0.3127285838127136 0.11116433143615723 0.5622332096099854
0.17842207849025726 0.19398380815982819 0.5145872235298157
0.3865787088871002 0.21869945526123047 0.5214292407035828
0.20197802782058716 0.1648644506931305 0.4407729208469391
0.2697767913341522 0.12035443633794785 0.46317943930625916
0.3932178318500519 0.22064463794231415 0.5652652382850647
0.24411790072917938 0.25845977663993835 0.46060478687286377
0.27665600180625916 0.13181596994400024 0.41671842336654663
0.19308078289031982 0.15509729087352753 0.4794166684150696
0.26495668292045593 0.14284208416938782 0.5799137949943542
0.19398948550224304 0.1932874619960785 0.5972476601600647
0.27751395106315613 0.11944995075464249 0.40564966201782227
0.22559328377246857 0.13944149017333984 0.6023381352424622
0.27427971363067627 0.22038385272026062 0.5715794563293457
0.3169477581977844 0.19333429634571075 0.4582598805427551
0.22835195064544678 0.13837222754955292 0.5329092144966125
0.13947631418704987 0.1303633600473404 0.43984872102737427
0.20265822112560272 0.24487027525901794 0.43128466606140137
0.31023550033569336 0.19277304410934448 0.4273631274700165
0.2670702636241913 0.18496499955654144 0.49908533692359924
0.2246486395597458 0.26329129934310913 0.5819820761680603
0.2584933638572693 0.21900957822799683 0.5064072608947754
0.13649104535579681 0.13095036149024963 0.43346408009529114
0.1722182333469391 0.11871498078107834 0.5955397486686707
0.2858075499534607 0.14875826239585876 0.5981787443161011
0.20197802782058716 0.1648644506931305 0.4407729208469391
0.2697767913341522 0.12035443633794785 0.46317943930625916
0.3932178318500519 0.22064463794231415 0.5652652382850647
0.24411790072917938 0.25845977663993835 0.46060478687286377
0.24411790072917938 0.25845977663993835 0.46060478687286377
0.27665600180625916 0.13181596994400024 0.41671842336654663
0.27665600180625916 0.13181596994400024 0.41671842336654663
0.19308078289031982 0.15509729087352753 0.4794166684150696
0.26495668292045593 0.14284208416938782 0.5799137949943542
0.19398948550224304 0.1932874619960785 0.5972476601600647
0.27751395106315613 0.11944995075464249 0.40564966201782227
0.22559328377246857 0.13944149017333984 0.6023381352424622
0.27427971363067627 0.22038385272026062 0.5715794563293457
0.27924346923828125 0.18411535024642944 0.44360828399658203
0.15090924501419067 0.16208359599113464 0.5338724851608276
0.13947631418704987 0.1303633600473404 0.43984872102737427
0.20265822112560272 0.24487027525901794 0.43128466606140137
0.281932532787323 0.20848828554153442 0.40878403186798096
0.209070086479187 0.2176814079284668 0.4556494951248169
0.16574150323867798 0.15676358342170715 0.4753997325897217
0.2246486395597458 0.26329129934310913 0.5819820761680603
0.2584933638572693 0.21900957822799683 0.5064072608947754
0.13649104535579681 0.13095036149024963 0.43346408009529114
0.1722182333469391 0.11871498078107834 0.5955397486686707
0.22636239230632782 0.10488496720790863 0.5031402111053467
0.22672753036022186 0.16561950743198395 0.40134716033935547
0.22672753036022186 0.16561950743198395 0.40134716033935547
0.2985668480396271 0.137070432305336 0.46432462334632874
0.2462717592716217 0.13868016004562378 0.44993001222610474
0.25622180104255676 0.20933370292186737 0.5776137709617615
0.13839790225028992 0.11400820314884186 0.5035719871520996
0.32064083218574524 0.16570815443992615 0.5106463432312012
0.19064128398895264 0.1344747543334961 0.5220707654953003
0.34095528721809387 0.21645893156528473 0.45129942893981934
0.2301071137189865 0.24529938399791718 0.49581366777420044
0.2942047119140625 0.2590811848640442 0.5898081064224243
0.23788243532180786 0.1730426698923111 0.46692079305648804
0.31094053387641907 0.23340223729610443 0.49714499711990356
0.3206466734409332 0.2405787855386734 0.5567998886108398
0.27726346254348755 0.21033929288387299 0.547899603843689
0.1809491366147995 0.11332718282938004 0.5062971711158752
0.2844926416873932 0.1889995038509369 0.5546844005584717
0.33087682723999023 0.19308514893054962 0.5104352235794067
0.2510623633861542 0.1809799075126648 0.5718033909797668
0.3028829097747803 0.1143391877412796 0.4132068455219269
0.2832246720790863 0.21762652695178986 0.4904336631298065
0.259311318397522 0.14911532402038574 0.5775285363197327
0.297590970993042 0.10487015545368195 0.5922147035598755
0.33736923336982727 0.16584379971027374 0.5013599991798401
0.3643212616443634 0.18273940682411194 0.5279309153556824
0.29767629504203796 0.1672126203775406 0.5407728552818298
0.18895140290260315 0.24571199715137482 0.46265095472335815
0.18895140290260315 0.24571199715137482 0.46265095472335815
0.23153947293758392 0.10707113146781921 0.4154367446899414
0.20931223034858704 0.2483428567647934 0.4758274257183075
0.21290923655033112 0.17130215466022491 0.4164271354675293
0.24250437319278717 0.20041686296463013 0.4145558774471283
0.26004475355148315 0.21691131591796875 0.4466297924518585
0.2483387589454651 0.164088636636734 0.49455776810646057
0.38430047035217285 0.18735244870185852 0.4569675922393799
0.1908450573682785 0.2351050227880478 0.4423252046108246
0.3597993552684784 0.1687806099653244 0.5824586749076843
0.3088107109069824 0.21210144460201263 0.44728440046310425
0.2386687844991684 0.12494337558746338 0.5150342583656311
0.23788243532180786 0.1730426698923111 0.46692079305648804
0.31094053387641907 0.23340223729610443 0.49714499711990356
0.3206466734409332 0.2405787855386734 0.5567998886108398
0.27726346254348755 0.21033929288387299 0.547899603843689
0.1809491366147995 0.11332718282938004 0.5062971711158752
0.2844926416873932 0.1889995038509369 0.5546844005584717
0.33087682723999023 0.19308514893054962 0.5104352235794067
0.2510623633861542 0.1809799075126648 0.5718033909797668
0.3028829097747803 0.1143391877412796 0.4132068455219269
0.22094841301441193 0.24971190094947815 0.5010783672332764
0.297590970993042 0.10487015545368195 0.5922147035598755
0.33736923336982727 0.16584379971027374 0.5013599991798401
0.3643212616443634 0.18273940682411194 0.5279309153556824
0.29767629504203796 0.1672126203775406 0.5407728552818298
0.18895140290260315 0.24571199715137482 0.46265095472335815
0.23153947293758392 0.10707113146781921 0.4154367446899414
0.2244265228509903 0.2581385672092438 0.4358398914337158
0.18150898814201355 0.12471255660057068 0.4883892834186554
0.3261888325214386 0.18078204989433289 0.587427020072937
0.28310564160346985 0.18904604017734528 0.601848840713501
0.26692983508110046 0.11225085705518723 0.42112815380096436
0.27619096636772156 0.17385488748550415 0.41260892152786255
0.22692973911762238 0.18937921524047852 0.44407108426094055
0.2882823646068573 0.2163476198911667 0.5314040780067444
0.349626362323761 0.1413731724023819 0.49253708124160767
0.25348010659217834 0.12034547328948975 0.39334768056869507
0.1945532113313675 0.24398021399974823 0.48111242055892944
0.32143425941467285 0.23401205241680145 0.5613559484481812
0.17060306668281555 0.15022580325603485 0.5503809452056885
0.3127285838127136 0.11116433143615723 0.5622332096099854
0.17517998814582825 0.15231283009052277 0.4810124933719635
0.1747264266014099 0.17650683224201202 0.4026488959789276
0.2840628921985626 0.23690201342105865 0.41851696372032166
0.30146080255508423 0.21365652978420258 0.5176419019699097
0.3300684690475464 0.2384735643863678 0.5592392683029175
0.2161795198917389 0.13819409906864166 0.45154812932014465
0.24093620479106903 0.23223023116588593 0.40681925415992737
0.2322617769241333 0.17436453700065613 0.5767908096313477
0.29921260476112366 0.1162220686674118 0.4654861390590668
0.2488028109073639 0.22624118626117706 0.5691949129104614
0.19103042781352997 0.1389949470758438 0.44668564200401306
0.2659861445426941 0.13077697157859802 0.3955725431442261
0.2687232196331024 0.10238591581583023 0.4443643391132355
0.2875182628631592 0.1499074548482895 0.46219027042388916
0.3224491775035858 0.1334543526172638 0.4882330596446991
0.27049851417541504 0.13528753817081451 0.46369144320487976
0.19395102560520172 0.11967650800943375 0.5732113718986511
0.3733840882778168 0.213667631149292 0.5638010501861572
0.23552078008651733 0.2148262858390808 0.42840856313705444
0.21334737539291382 0.2276620864868164 0.39989227056503296
0.26926130056381226 0.14281219244003296 0.5611482858657837
0.32881566882133484 0.1496511697769165 0.4994438588619232
0.2814730107784271 0.10049175471067429 0.4214114844799042
0.21206894516944885 0.231166273355484 0.41755443811416626
0.2664868235588074 0.10941500961780548 0.5702700614929199
0.28876662254333496 0.16686728596687317 0.4225523769855499
0.35411950945854187 0.14165467023849487 0.5080215334892273
0.22580745816230774 0.15876378118991852 0.5391531586647034
0.3166143596172333 0.1503681242465973 0.5266425013542175
0.3081854581832886 0.12569205462932587 0.46140411496162415
0.176264226436615 0.13290946185588837 0.6003211140632629
0.2622535228729248 0.10605760663747787 0.5920568108558655
0.2173592448234558 0.18924225866794586 0.42244479060173035
0.22837534546852112 0.11121129244565964 0.4583267569541931
0.28415894508361816 0.10378976166248322 0.5329737067222595
0.25404101610183716 0.12550848722457886 0.42771196365356445
0.21352101862430573 0.22693182528018951 0.5962614417076111
0.17880214750766754 0.10854850709438324 0.4003627598285675
0.2850091755390167 0.18750928342342377 0.5524612665176392
0.22271370887756348 0.25228753685951233 0.5678881406784058
0.15368232131004333 0.1697627753019333 0.5768176317214966
0.34001877903938293 0.2438211292028427 0.5828873515129089
0.256560355424881 0.1132492870092392 0.4030027389526367
0.16316522657871246 0.1758575588464737 0.5820180177688599
0.2832246720790863 0.21762652695178986 0.4904336631298065
0.2242831438779831 0.20952540636062622 0.4724818170070648
0.2925403416156769 0.1102280244231224 0.5637944340705872
0.26182618737220764 0.27197742462158203 0.5555633306503296
0.2888484597206116 0.21711964905261993 0.40748849511146545
0.30934056639671326 0.16032502055168152 0.5229243636131287
0.2531212270259857 0.1427937000989914 0.5847257971763611
0.3422148823738098 0.20111335813999176 0.5439347624778748
0.24250437319278717 0.20041686296463013 0.4145558774471283
0.2024562656879425 0.15100941061973572 0.4265005588531494
0.26170629262924194 0.2280595451593399 0.5943471789360046
0.241781547665596 0.2545705735683441 0.507607102394104
0.3597993552684784 0.1687806099653244 0.5824586749076843
0.3088107109069824 0.21210144460201263 0.44728440046310425
0.349626362323761 0.1413731724023819 0.49253708124160767
0.25348010659217834 0.12034547328948975 0.39334768056869507
0.1945532113313675 0.24398021399974823 0.48111242055892944
0.32143425941467285 0.23401205241680145 0.5613559484481812
0.17060306668281555 0.15022580325603485 0.5503809452056885
