ply
format ascii 1.0
element vertex 819
property float x
property float y
property float z
end_header
0.17517003417015076 0.12558719515800476 0.4707944989204407
0.2820293605327606 0.165740966796875 0.43355995416641235
0.28301969170570374 0.2159559726715088 0.5859894156455994
0.20612478256225586 0.2227713167667389 0.40139585733413696
0.2316388338804245 0.21670101583003998 0.4342634677886963
0.32843682169914246 0.2139386385679245 0.43878602981567383
0.2899037301540375 0.15260076522827148 0.46967267990112305
0.16115206480026245 0.1636250615119934 0.5098201632499695
0.21055836975574493 0.11945335566997528 0.5037553310394287
0.1443394124507904 0.15243327617645264 0.5414823293685913
0.25950634479522705 0.1808205097913742 0.420708566904068
0.19572116434574127 0.19356003403663635 0.5262724161148071
0.18840692937374115 0.1943020224571228 0.5599040389060974
0.19593772292137146 0.13325880467891693 0.5871190428733826
0.27523964643478394 0.11694727092981339 0.49714794754981995
0.2247074544429779 0.18082502484321594 0.4842165410518646
0.23303259909152985 0.10527712851762772 0.46752840280532837
0.14903295040130615 0.12500295042991638 0.415764719247818
0.36914369463920593 0.20692776143550873 0.4414874017238617
0.2952197194099426 0.11006347090005875 0.4389786720275879
0.28779053688049316 0.19421035051345825 0.5344445109367371
0.27859416604042053 0.1829768866300583 0.4025276005268097
0.24384598433971405 0.16205967962741852 0.43009844422340393
0.12980879843235016 0.14573237299919128 0.5353966951370239
0.3242793083190918 0.12763774394989014 0.5228148698806763
0.12324632704257965 0.10802587121725082 0.41733023524284363
0.30859997868537903 0.15898600220680237 0.4125227928161621
0.18691012263298035 0.2340116798877716 0.4766475558280945
0.16759516298770905 0.21828414499759674 0.4400723874568939
0.24911513924598694 0.119521364569664 0.4321494698524475
0.289890319108963 0.13320264220237732 0.4025445878505707
0.2920109033584595 0.19905123114585876 0.49333053827285767
0.30663222074508667 0.18886685371398926 0.5887565016746521
0.1917964369058609 0.19091656804084778 0.4272876977920532
0.30412882566452026 0.15796130895614624 0.4805595278739929
0.1925366371870041 0.18609042465686798 0.5407025814056396
0.2694166898727417 0.10442371666431427 0.6049733757972717
0.1294940561056137 0.1368013620376587 0.4682387411594391
0.29117923974990845 0.18131817877292633 0.4770178496837616
0.13699527084827423 0.10426301509141922 0.5013493299484253
0.19958911836147308 0.1098514199256897 0.5143380761146545
0.23685793578624725 0.12451964616775513 0.5842321515083313
0.30374255776405334 0.17472688853740692 0.5963042378425598
0.3241250514984131 0.2090511918067932 0.5424262285232544
0.30038219690322876 0.14385055005550385 0.5227629542350769
0.19712655246257782 0.21469026803970337 0.5137289762496948
0.3254673480987549 0.19073404371738434 0.5920075178146362
0.21429336071014404 0.13643324375152588 0.5468440055847168
0.3514479696750641 0.21298742294311523 0.5791769623756409
0.29841291904449463 0.2032335251569748 0.4354136884212494
0.1649080514907837 0.18985997140407562 0.5797315835952759
0.18402057886123657 0.2345731258392334 0.5712694525718689
0.27924656867980957 0.1857081800699234 0.5693363547325134
0.2584902346134186 0.10219638049602509 0.45469778776168823
0.17386485636234283 0.17066951096057892 0.46025389432907104
0.2094985395669937 0.155147522687912 0.5442920327186584
0.31541720032691956 0.1771032065153122 0.57969069480896
0.3421150743961334 0.2286672443151474 0.484973669052124
0.27396440505981445 0.14897421002388 0.4314891993999481
0.16555477678775787 0.2024080753326416 0.39848393201828003
0.23445524275302887 0.19503125548362732 0.47956496477127075
0.23322810232639313 0.1867983639240265 0.4670363962650299
0.31217923760414124 0.10938399285078049 0.5076150298118591
0.17487408220767975 0.13167817890644073 0.5995981693267822
0.20536714792251587 0.14861789345741272 0.5776790976524353
0.27094170451164246 0.22121590375900269 0.4187251627445221
0.27859416604042053 0.1829768866300583 0.4025276005268097
0.24384598433971405 0.16205967962741852 0.43009844422340393
0.12980879843235016 0.14573237299919128 0.5353966951370239
0.3242793083190918 0.12763774394989014 0.5228148698806763
0.12324632704257965 0.10802587121725082 0.41733023524284363
0.3355562090873718 0.18277502059936523 0.42951858043670654
0.18691012263298035 0.2340116798877716 0.4766475558280945
0.16759516298770905 0.21828414499759674 0.4400723874568939
0.24911513924598694 0.119521364569664 0.4321494698524475
0.289890319108963 0.13320264220237732 0.4025445878505707
0.2920109033584595 0.19905123114585876 0.49333053827285767
0.30663222074508667 0.18886685371398926 0.5887565016746521
0.1917964369058609 0.19091656804084778 0.4272876977920532
0.30412882566452026 0.15796130895614624 0.4805595278739929
0.1925366371870041 0.18609042465686798 0.5407025814056396
0.2694166898727417 0.10442371666431427 0.6049733757972717
0.1294940561056137 0.1368013620376587 0.4682387411594391
0.29117923974990845 0.18131817877292633 0.4770178496837616
0.2543005049228668 0.18628942966461182 0.5899129509925842
0.30868247151374817 0.21371017396450043 0.5261605978012085
0.21294498443603516 0.19471807777881622 0.4681747853755951
0.20856866240501404 0.22398757934570312 0.5918483138084412
0.22562868893146515 0.10996685922145844 0.4108857810497284
0.21821650862693787 0.12591731548309326 0.40544217824935913
0.22268366813659668 0.11898291856050491 0.5885308384895325
0.24992486834526062 0.15159106254577637 0.5065749883651733
0.16211749613285065 0.20991452038288116 0.45910707116127014
0.24093815684318542 0.15173298120498657 0.5831682085990906
0.19869063794612885 0.19931335747241974 0.5273334980010986
0.20943611860275269 0.13563567399978638 0.4703846573829651
0.1923777312040329 0.2094041407108307 0.4742140769958496
0.18901604413986206 0.21974314749240875 0.5498827695846558
0.1678561568260193 0.1908569186925888 0.5635822415351868
0.30111196637153625 0.2220819741487503 0.5849236845970154
0.16417594254016876 0.11221611499786377 0.5220451951026917
0.3289995789527893 0.2280234545469284 0.5177055597305298
0.19368557631969452 0.21793141961097717 0.5502983331680298
0.1305115520954132 0.13814085721969604 0.41692325472831726
0.29551905393600464 0.15068623423576355 0.45698341727256775
0.2883276641368866 0.14494334161281586 0.5454718470573425
0.2888493835926056 0.2059062123298645 0.5745329856872559
0.3614335060119629 0.21190883219242096 0.49887245893478394
0.1879100352525711 0.10174675285816193 0.5646752119064331
0.19572116434574127 0.19356003403663635 0.5262724161148071
0.18840692937374115 0.1943020224571228 0.5599040389060974
0.19593772292137146 0.13325880467891693 0.5871190428733826
0.27523964643478394 0.11694727092981339 0.49714794754981995
0.2247074544429779 0.18082502484321594 0.4842165410518646
0.23303259909152985 0.10527712851762772 0.46752840280532837
0.14903295040130615 0.12500295042991638 0.415764719247818
0.2238830029964447 0.10398443788290024 0.5728205442428589
0.2838651239871979 0.2062675654888153 0.5887174010276794
0.2625565826892853 0.145278200507164 0.5319422483444214
0.2324056774377823 0.21114738285541534 0.5547251105308533
0.24266695976257324 0.14185692369937897 0.4261247515678406
0.16677488386631012 0.1981821358203888 0.5535299777984619
0.13644014298915863 0.12295825779438019 0.4096309542655945
0.27351775765419006 0.2383984923362732 0.5124746561050415
0.20356380939483643 0.1475680023431778 0.538782000541687
0.128182053565979 0.14532062411308289 0.42789292335510254
0.22054898738861084 0.20659813284873962 0.5231994986534119
0.26969027519226074 0.11076533049345016 0.413463294506073
0.20501255989074707 0.1822923719882965 0.43981146812438965
0.19925276935100555 0.12524229288101196 0.4789080321788788
0.16434894502162933 0.17546997964382172 0.5306220650672913
0.3172851502895355 0.16960139572620392 0.5146409869194031
0.23441869020462036 0.1418614536523819 0.3939403295516968
0.2173595130443573 0.19581277668476105 0.584834098815918
0.15459465980529785 0.1828341782093048 0.4741465449333191
0.2141205221414566 0.11407129466533661 0.43853285908699036
0.19127130508422852 0.19678911566734314 0.5072075724601746
0.13993529975414276 0.1063762754201889 0.5373022556304932
0.2847781777381897 0.10660704970359802 0.5512557029724121
0.17331978678703308 0.18128031492233276 0.5391942858695984
0.26375773549079895 0.21730372309684753 0.42813894152641296
0.19451670348644257 0.11070848256349564 0.4358510375022888
0.305140882730484 0.17134137451648712 0.6001609563827515
0.27541109919548035 0.21199171245098114 0.4550153613090515
0.20635193586349487 0.12992419302463531 0.4082522988319397
0.15526188910007477 0.12427088618278503 0.41069111227989197
0.31027358770370483 0.12102460861206055 0.5114126801490784
0.20681650936603546 0.2002449631690979 0.5970008969306946
0.23784300684928894 0.1651754230260849 0.5394836664199829
0.2068459689617157 0.22140420973300934 0.5010656714439392
0.18437474966049194 0.16162967681884766 0.4147292971611023
0.1964821070432663 0.17407487332820892 0.5103580355644226
0.3086838722229004 0.20096871256828308 0.5000859498977661
0.17163287103176117 0.1336628943681717 0.556621253490448
0.1535605639219284 0.23544389009475708 0.479618638753891
0.27362924814224243 0.24397318065166473 0.47717249393463135
0.18307705223560333 0.12585270404815674 0.5290415287017822
0.13966074585914612 0.16299831867218018 0.5325832366943359
0.3579425811767578 0.2265574336051941 0.41784849762916565
0.2572009563446045 0.19280877709388733 0.43784794211387634
0.24392861127853394 0.18334266543388367 0.4342079162597656
0.15927602350711823 0.18473295867443085 0.4772346615791321
0.2851807177066803 0.10219767689704895 0.44194555282592773
0.1923876702785492 0.10133524239063263 0.47225481271743774
0.21846072375774384 0.2029133439064026 0.47652342915534973
0.23570814728736877 0.24810945987701416 0.45113295316696167
0.18046489357948303 0.21669726073741913 0.5230904221534729
0.28166815638542175 0.2160874307155609 0.4831072986125946
0.16445352137088776 0.12558355927467346 0.3974686861038208
0.12427591532468796 0.1400783360004425 0.5669217705726624
0.3688142001628876 0.21338053047657013 0.5129712820053101
0.23356273770332336 0.20583881437778473 0.4984028935432434
0.30777862668037415 0.17585739493370056 0.4075602889060974
0.32385262846946716 0.1509641408920288 0.4515315592288971
0.33486753702163696 0.19123278558254242 0.5557276606559753
0.17030638456344604 0.20314624905586243 0.41193681955337524
0.20555588603019714 0.21594446897506714 0.5867590308189392
0.26560285687446594 0.10116423666477203 0.41061678528785706
0.3021252751350403 0.10649645328521729 0.4274994730949402
0.2254907190799713 0.2333834022283554 0.579884946346283
0.12779195606708527 0.15403114259243011 0.599564254283905
0.12980879843235016 0.14573237299919128 0.5353966951370239
0.3242793083190918 0.12763774394989014 0.5228148698806763
0.12324632704257965 0.10802587121725082 0.41733023524284363
0.30859997868537903 0.15898600220680237 0.4125227928161621
0.18691012263298035 0.2340116798877716 0.4766475558280945
0.16759516298770905 0.21828414499759674 0.4400723874568939
0.24911513924598694 0.119521364569664 0.4321494698524475
0.289890319108963 0.13320264220237732 0.4025445878505707
0.2920109033584595 0.19905123114585876 0.49333053827285767
0.30663222074508667 0.18886685371398926 0.5887565016746521
0.1917964369058609 0.19091656804084778 0.4272876977920532
0.1917964369058609 0.19091656804084778 0.4272876977920532
0.30412882566452026 0.15796130895614624 0.4805595278739929
0.1925366371870041 0.18609042465686798 0.5407025814056396
0.2694166898727417 0.10442371666431427 0.6049733757972717
0.1294940561056137 0.1368013620376587 0.4682387411594391
0.29117923974990845 0.18131817877292633 0.4770178496837616
0.13699527084827423 0.10426301509141922 0.5013493299484253
0.19958911836147308 0.1098514199256897 0.5143380761146545
0.23685793578624725 0.12451964616775513 0.5842321515083313
0.28627917170524597 0.23866595327854156 0.5700807571411133
0.29036664962768555 0.19428060948848724 0.5783940553665161
0.30374255776405334 0.17472688853740692 0.5963042378425598
0.3241250514984131 0.2090511918067932 0.5424262285232544
0.30038219690322876 0.14385055005550385 0.5227629542350769
0.19712655246257782 0.21469026803970337 0.5137289762496948
0.3254673480987549 0.19073404371738434 0.5920075178146362
0.21429336071014404 0.13643324375152588 0.5468440055847168
0.3514479696750641 0.21298742294311523 0.5791769623756409
0.13300231099128723 0.11371925473213196 0.39281150698661804
0.16192743182182312 0.12493722885847092 0.5381377339363098
0.16846108436584473 0.16162589192390442 0.47056299448013306
0.21429336071014404 0.13643324375152588 0.5468440055847168
0.3514479696750641 0.21298742294311523 0.5791769623756409
0.13300231099128723 0.11371925473213196 0.39281150698661804
0.16192743182182312 0.12493722885847092 0.5381377339363098
0.1643574833869934 0.11076931655406952 0.47239142656326294
0.2838651239871979 0.2062675654888153 0.5887174010276794
0.2625565826892853 0.145278200507164 0.5319422483444214
0.2324056774377823 0.21114738285541534 0.5547251105308533
0.24266695976257324 0.14185692369937897 0.4261247515678406
0.16677488386631012 0.1981821358203888 0.5535299777984619
0.13644014298915863 0.12295825779438019 0.4096309542655945
0.1910931020975113 0.121785469353199 0.5746081471443176
0.1522848755121231 0.15458238124847412 0.5408053398132324
0.36722642183303833 0.2278561294078827 0.409393310546875
0.30868247151374817 0.21371017396450043 0.5261605978012085
0.21294498443603516 0.19471807777881622 0.4681747853755951
0.22062046825885773 0.10729342699050903 0.39686521887779236
0.21177254617214203 0.127184197306633 0.4881557524204254
0.24658337235450745 0.11890418082475662 0.6087937355041504
0.2997518479824066 0.16989219188690186 0.4114948809146881
0.3007740378379822 0.24235191941261292 0.43548980355262756
0.22360286116600037 0.19647254049777985 0.48075518012046814
0.1466493159532547 0.11483733355998993 0.41302335262298584
0.22414448857307434 0.2163960486650467 0.40962329506874084
0.3388362228870392 0.21308672428131104 0.4998324513435364
0.1498083770275116 0.15446829795837402 0.5275164246559143
0.21830123662948608 0.2103579193353653 0.4142046272754669
0.2914828658103943 0.19317616522312164 0.4742108881473541
0.2672670781612396 0.16865640878677368 0.5315637588500977
0.24270948767662048 0.12167585641145706 0.4131469130516052
0.2816941440105438 0.20904065668582916 0.4991306960582733
0.16192743182182312 0.12493722885847092 0.5381377339363098
0.2625565826892853 0.145278200507164 0.5319422483444214
0.2324056774377823 0.21114738285541534 0.5547251105308533
0.24266695976257324 0.14185692369937897 0.4261247515678406
0.16677488386631012 0.1981821358203888 0.5535299777984619
0.13644014298915863 0.12295825779438019 0.4096309542655945
0.1910931020975113 0.121785469353199 0.5746081471443176
0.28808918595314026 0.1798277199268341 0.47502031922340393
0.14730608463287354 0.1310001164674759 0.43504056334495544
0.2867462933063507 0.102588951587677 0.5452180504798889
0.144611656665802 0.10965592414140701 0.4209757149219513
0.14050346612930298 0.15595342218875885 0.5310957431793213
0.2809716463088989 0.10713063925504684 0.5058175325393677
0.16794492304325104 0.15332737565040588 0.5741357207298279
0.2976515293121338 0.10684797912836075 0.5179110765457153
0.26033738255500793 0.12985846400260925 0.47939032316207886
0.14535345137119293 0.11246524751186371 0.41405078768730164
0.1411752700805664 0.1431063413619995 0.4833851158618927
0.18807852268218994 0.23048198223114014 0.5216410756111145
0.29768744111061096 0.1938100904226303 0.40892335772514343
0.3167215883731842 0.1811058670282364 0.5088905692100525
0.2549284100532532 0.2137070894241333 0.5209662318229675
0.2780429720878601 0.12374947220087051 0.45469439029693604
0.22661450505256653 0.1825997680425644 0.5441657304763794
0.29127612709999084 0.13489875197410583 0.5082310438156128
0.1724201738834381 0.13296593725681305 0.4359479546546936
0.17423754930496216 0.20415806770324707 0.5895818471908569
0.1977899819612503 0.19137711822986603 0.44599446654319763
0.1381707340478897 0.10841014981269836 0.43965795636177063
0.30174946784973145 0.13197007775306702 0.5360379815101624
0.29306501150131226 0.1159696951508522 0.5626834034919739
0.18571844696998596 0.11466187983751297 0.39401277899742126
0.1643574833869934 0.11076931655406952 0.47239142656326294
0.2838651239871979 0.2062675654888153 0.5887174010276794
0.2625565826892853 0.145278200507164 0.5319422483444214
0.2324056774377823 0.21114738285541534 0.5547251105308533
0.24266695976257324 0.14185692369937897 0.4261247515678406
0.16677488386631012 0.1981821358203888 0.5535299777984619
0.2068459689617157 0.22140420973300934 0.5010656714439392
0.26196447014808655 0.10304661095142365 0.3880903124809265
0.20749400556087494 0.18106570839881897 0.5154386162757874
0.19237355887889862 0.10876727849245071 0.4960080683231354
0.2080131620168686 0.20689693093299866 0.5356937050819397
0.18344619870185852 0.19803540408611298 0.5561874508857727
0.30003052949905396 0.21412420272827148 0.5019791126251221
0.15651239454746246 0.12136540561914444 0.6056532859802246
0.2747756838798523 0.169415682554245 0.46992257237434387
0.2407042235136032 0.19238552451133728 0.43401262164115906
0.25308555364608765 0.13975661993026733 0.5053871273994446
0.20772883296012878 0.16818448901176453 0.4015069901943207
0.17701438069343567 0.10352330654859543 0.452759325504303
0.16622141003608704 0.22035729885101318 0.40449315309524536
0.23610669374465942 0.19762176275253296 0.48407885432243347
0.26169103384017944 0.11834312975406647 0.4754490852355957
0.3011380136013031 0.10916541516780853 0.47557133436203003
0.2539682984352112 0.14352427423000336 0.49127131700515747
0.25565415620803833 0.12873567640781403 0.5156598687171936
0.21324963867664337 0.11577241122722626 0.4536307156085968
0.14624850451946259 0.13468866050243378 0.5830821394920349
0.16475175321102142 0.17279528081417084 0.5152600407600403
0.17030638456344604 0.20314624905586243 0.41193681955337524
0.26224544644355774 0.11804564297199249 0.5833278298377991
0.2913292646408081 0.10905060172080994 0.4413796365261078
0.21256427466869354 0.24295209348201752 0.528244137763977
0.23657678067684174 0.15849271416664124 0.5785976648330688
0.2820293605327606 0.165740966796875 0.43355995416641235
0.28301969170570374 0.2159559726715088 0.5859894156455994
0.20612478256225586 0.2227713167667389 0.40139585733413696
0.2316388338804245 0.21670101583003998 0.4342634677886963
0.32843682169914246 0.2139386385679245 0.43878602981567383
0.2899037301540375 0.15260076522827148 0.46967267990112305
0.16115206480026245 0.1636250615119934 0.5098201632499695
0.21055836975574493 0.11945335566997528 0.5037553310394287
0.341598242521286 0.20673291385173798 0.4131414294242859
0.26917946338653564 0.12947013974189758 0.5061016082763672
0.32497546076774597 0.1851331740617752 0.5792869925498962
0.19975890219211578 0.20633691549301147 0.4425790309906006
0.15872323513031006 0.13853497803211212 0.44088655710220337
0.2874803841114044 0.10159190744161606 0.4473077654838562
0.2624305486679077 0.18267302215099335 0.4970099627971649
0.2549682855606079 0.14789026975631714 0.5623348951339722
0.17030638456344604 0.20314624905586243 0.41193681955337524
0.20555588603019714 0.21594446897506714 0.5867590308189392
0.26560285687446594 0.10116423666477203 0.41061678528785706
0.19171395897865295 0.22840850055217743 0.40420371294021606
0.17377521097660065 0.22944025695323944 0.5745419859886169
0.29232192039489746 0.13708123564720154 0.46862173080444336
0.18283405900001526 0.1461212933063507 0.6019800901412964
0.2397947758436203 0.19810648262500763 0.5124847292900085
0.1640479564666748 0.16286024451255798 0.4836868345737457
0.28591781854629517 0.18680724501609802 0.40460166335105896
0.1767554134130478 0.11299586296081543 0.43609681725502014
0.26452234387397766 0.10230913013219833 0.46450796723365784
0.27736589312553406 0.18803073465824127 0.4113076329231262
0.17126411199569702 0.16454701125621796 0.4718068242073059
0.22873206436634064 0.11374276876449585 0.5356377959251404
0.1719762235879898 0.21616411209106445 0.40528711676597595
0.2695775628089905 0.12671732902526855 0.4598560333251953
0.2469087690114975 0.17636123299598694 0.4530799388885498
0.2723384201526642 0.11806260049343109 0.43808794021606445
0.26794174313545227 0.13974082469940186 0.42795661091804504
0.2429846227169037 0.1256359964609146 0.43255236744880676
0.18086940050125122 0.2429741770029068 0.4376487731933594
0.15601438283920288 0.16332663595676422 0.4786149859428406
0.1710239201784134 0.22327609360218048 0.4785798490047455
0.11765749752521515 0.1145385354757309 0.5147039294242859
0.21339456737041473 0.18516805768013 0.5313733816146851
0.16663454473018646 0.21464063227176666 0.4224299490451813
0.29983288049697876 0.21137121319770813 0.5451672673225403
0.340518593788147 0.15404997766017914 0.4256827235221863
0.2957375645637512 0.11094065755605698 0.5608179569244385
0.27009764313697815 0.1755780130624771 0.4907839000225067
0.1630038470029831 0.10182340443134308 0.43054497241973877
0.16768962144851685 0.16692140698432922 0.46319612860679626
0.22873206436634064 0.11374276876449585 0.5356377959251404
0.3282848000526428 0.16075843572616577 0.5701205134391785
0.15859562158584595 0.1933857500553131 0.44019514322280884
0.24976590275764465 0.13860449194908142 0.4815165102481842
0.2894233465194702 0.161420539021492 0.5395925641059875
0.23994724452495575 0.16332338750362396 0.4803898334503174
0.30192652344703674 0.1247968003153801 0.4410650432109833
0.1532241404056549 0.14359615743160248 0.43009182810783386
0.156602680683136 0.20014888048171997 0.552973210811615
0.274173378944397 0.24801205098628998 0.5895825028419495
0.2259128838777542 0.17695297300815582 0.5389648675918579
0.3497770428657532 0.1821039468050003 0.5507044792175293
0.2772603929042816 0.2385987937450409 0.5769881010055542
0.19249019026756287 0.13451877236366272 0.49116015434265137
0.2705768048763275 0.1976977437734604 0.47682005167007446
0.26096421480178833 0.1326984465122223 0.45371270179748535
0.29835328459739685 0.10247112810611725 0.6146997213363647
0.36914369463920593 0.20692776143550873 0.4414874017238617
0.2952197194099426 0.11006347090005875 0.4389786720275879
0.28221461176872253 0.10223840922117233 0.4380991756916046
0.2417287826538086 0.14711903035640717 0.5253806710243225
0.3113987147808075 0.21777988970279694 0.45628178119659424
0.33411553502082825 0.22405602037906647 0.42783302068710327
0.18755479156970978 0.15200696885585785 0.5967274904251099
0.33058857917785645 0.17323991656303406 0.4398145377635956
0.13269291818141937 0.13422298431396484 0.592201828956604
0.1953769326210022 0.18304294347763062 0.4343612790107727
0.16087554395198822 0.20598973333835602 0.5625737905502319
0.2909719944000244 0.10484910756349564 0.4778949022293091
0.17237631976604462 0.2451973706483841 0.4474409222602844
0.22476406395435333 0.17830464243888855 0.521870493888855
0.2682299017906189 0.1728067398071289 0.5061793327331543
0.22184385359287262 0.10333148390054703 0.43047311902046204
0.3270379602909088 0.20281670987606049 0.43645551800727844
0.34044718742370605 0.17085739970207214 0.527765154838562
0.2632761299610138 0.12791307270526886 0.4545312523841858
0.2440648078918457 0.12761346995830536 0.49315014481544495
0.23548360168933868 0.18179959058761597 0.40578535199165344
0.19843342900276184 0.21620258688926697 0.5069442391395569
0.22929352521896362 0.16592194139957428 0.5736178755760193
0.22580936551094055 0.14754892885684967 0.5181680917739868
0.21448740363121033 0.2501499652862549 0.5401201248168945
0.3246711790561676 0.23621313273906708 0.44209080934524536
0.24915142357349396 0.17712374031543732 0.5914767384529114
0.2335343360900879 0.22885480523109436 0.4728793501853943
0.326958566904068 0.2239493876695633 0.5393819808959961
0.2952197194099426 0.11006347090005875 0.4389786720275879
0.22373652458190918 0.19723258912563324 0.511955976486206
0.19757258892059326 0.21035553514957428 0.4470489025115967
0.26273518800735474 0.1262791007757187 0.4410236179828644
0.14846107363700867 0.18848563730716705 0.47478756308555603
0.17961834371089935 0.15974777936935425 0.5143887400627136
0.21917204558849335 0.11511676013469696 0.5787505507469177
0.3115237355232239 0.14258864521980286 0.5657376050949097
0.24115638434886932 0.15123017132282257 0.4722909927368164
0.28193438053131104 0.19143949449062347 0.41781291365623474
0.3020782470703125 0.11291943490505219 0.5909671187400818
0.16820381581783295 0.10175272822380066 0.48554354906082153
0.14781226217746735 0.14831064641475677 0.4238429367542267
0.16691917181015015 0.23376305401325226 0.41758638620376587
0.24665617942810059 0.11346358060836792 0.47381600737571716
0.2498793601989746 0.1057879701256752 0.5228850841522217
0.3264671862125397 0.15037663280963898 0.43881523609161377
0.1380191296339035 0.11256791651248932 0.42624759674072266
0.15859562158584595 0.1933857500553131 0.44019514322280884
0.326958566904068 0.2239493876695633 0.5393819808959961
0.23994724452495575 0.16332338750362396 0.4803898334503174
0.30192652344703674 0.1247968003153801 0.4410650432109833
0.1532241404056549 0.14359615743160248 0.43009182810783386
0.156602680683136 0.20014888048171997 0.552973210811615
0.18722181022167206 0.17545485496520996 0.5524298548698425
0.2912536561489105 0.17479972541332245 0.40518471598625183
0.18757139146327972 0.14507901668548584 0.5432610511779785
0.14232705533504486 0.1471618115901947 0.52346271276474
0.27708831429481506 0.22679030895233154 0.5132040977478027
0.28318825364112854 0.10131452232599258 0.39714565873146057
0.236501082777977 0.13025468587875366 0.39902162551879883
0.18185946345329285 0.20652376115322113 0.41886019706726074
0.13629469275474548 0.12116683274507523 0.5600817799568176
0.16087554395198822 0.20598973333835602 0.5625737905502319
0.2909719944000244 0.10484910756349564 0.4778949022293091
0.17237631976604462 0.2451973706483841 0.4474409222602844
0.22476406395435333 0.17830464243888855 0.521870493888855
0.2682299017906189 0.1728067398071289 0.5061793327331543
0.22184385359287262 0.10333148390054703 0.43047311902046204
0.3270379602909088 0.20281670987606049 0.43645551800727844
0.34044718742370605 0.17085739970207214 0.527765154838562
0.2632761299610138 0.12791307270526886 0.4545312523841858
0.27048760652542114 0.10978008061647415 0.41826528310775757
0.14171163737773895 0.10444927960634232 0.523304283618927
0.20856298506259918 0.15972745418548584 0.503533124923706
0.13719825446605682 0.10766398906707764 0.578785240650177
0.22559452056884766 0.2229202389717102 0.4968740940093994
0.2175297886133194 0.18163806200027466 0.5069503784179688
0.2698773145675659 0.24336741864681244 0.4975023567676544
0.21957269310951233 0.11671745777130127 0.4333295226097107
0.2793053686618805 0.22518859803676605 0.5787506699562073
0.2045878916978836 0.1330055296421051 0.4129098057746887
0.26812201738357544 0.16947723925113678 0.4400723874568939
0.15691709518432617 0.18106874823570251 0.5176815986633301
0.26230448484420776 0.10758012533187866 0.4614957273006439
0.2789058983325958 0.14633934199810028 0.44767484068870544
0.30746135115623474 0.1352328658103943 0.5025919675827026
0.35256507992744446 0.20194919407367706 0.5016142129898071
0.2511027753353119 0.12282893061637878 0.5033169984817505
0.25990888476371765 0.24460050463676453 0.49638596177101135
0.14458875358104706 0.13086514174938202 0.400655597448349
0.16524603962898254 0.12355772405862808 0.5744576454162598
0.20721666514873505 0.2477571815252304 0.47128206491470337
0.3454599380493164 0.1640653908252716 0.5862289071083069
0.2952197194099426 0.11006347090005875 0.4389786720275879
0.16087554395198822 0.20598973333835602 0.5625737905502319
0.2909719944000244 0.10484910756349564 0.4778949022293091
0.17237631976604462 0.2451973706483841 0.4474409222602844
0.22476406395435333 0.17830464243888855 0.521870493888855
0.2682299017906189 0.1728067398071289 0.5061793327331543
0.22184385359287262 0.10333148390054703 0.43047311902046204
0.3270379602909088 0.20281670987606049 0.43645551800727844
0.34044718742370605 0.17085739970207214 0.527765154838562
0.2632761299610138 0.12791307270526886 0.4545312523841858
0.2440648078918457 0.12761346995830536 0.49315014481544495
0.23548360168933868 0.18179959058761597 0.40578535199165344
0.19843342900276184 0.21620258688926697 0.5069442391395569
0.22929352521896362 0.16592194139957428 0.5736178755760193
0.22580936551094055 0.14754892885684967 0.5181680917739868
0.21448740363121033 0.2501499652862549 0.5401201248168945
0.3246711790561676 0.23621313273906708 0.44209080934524536
0.24915142357349396 0.17712374031543732 0.5914767384529114
0.2335343360900879 0.22885480523109436 0.4728793501853943
0.326958566904068 0.2239493876695633 0.5393819808959961
0.23994724452495575 0.16332338750362396 0.4803898334503174
0.30192652344703674 0.1247968003153801 0.4410650432109833
0.1532241404056549 0.14359615743160248 0.43009182810783386
0.156602680683136 0.20014888048171997 0.552973210811615
0.18722181022167206 0.17545485496520996 0.5524298548698425
0.2912536561489105 0.17479972541332245 0.40518471598625183
0.18757139146327972 0.14507901668548584 0.5432610511779785
0.19373121857643127 0.1083466112613678 0.5938220024108887
0.3340761363506317 0.18296200037002563 0.560778021812439
0.2920733094215393 0.1444319486618042 0.5309223532676697
0.1445183902978897 0.1595669984817505 0.4395192265510559
0.3344801068305969 0.22915320098400116 0.4942682385444641
0.1886882781982422 0.1284545511007309 0.6001089811325073
0.16087554395198822 0.20598973333835602 0.5625737905502319
0.21605850756168365 0.18462978303432465 0.49926304817199707
0.1542961597442627 0.22836890816688538 0.4174969792366028
0.17853380739688873 0.24860019981861115 0.4094535708427429
0.18999110162258148 0.2020893543958664 0.5390121936798096
0.3265897035598755 0.22963954508304596 0.548695981502533
0.13835103809833527 0.10324613749980927 0.5658864974975586
0.13847994804382324 0.10283736884593964 0.5626538395881653
0.26343679428100586 0.10764618217945099 0.4235215187072754
0.27780359983444214 0.16670610010623932 0.6001787781715393
0.36415159702301025 0.22762441635131836 0.43262603878974915
0.1782073974609375 0.2260739654302597 0.43897494673728943
0.22500187158584595 0.12304843962192535 0.415073961019516
0.19007304310798645 0.11098560690879822 0.4834747612476349
0.2787112593650818 0.19618532061576843 0.4774024784564972
0.1409389078617096 0.141795352101326 0.5178133845329285
0.22670666873455048 0.10697679966688156 0.48575639724731445
0.15838290750980377 0.12635216116905212 0.5058510899543762
0.274173378944397 0.24801205098628998 0.5895825028419495
0.14526277780532837 0.194697305560112 0.5019410252571106
0.3200961649417877 0.13221783936023712 0.4108961522579193
0.30027154088020325 0.19010673463344574 0.41096726059913635
0.13165535032749176 0.1517803966999054 0.4229457378387451
0.24501781165599823 0.23817351460456848 0.45439377427101135
0.19589367508888245 0.19571347534656525 0.40985167026519775
0.26512855291366577 0.18172049522399902 0.4933037757873535
0.1599964052438736 0.12984433770179749 0.4130646884441376
0.28959956765174866 0.16750071942806244 0.4699156880378723
0.2020474523305893 0.12024690210819244 0.5390009880065918
0.2995150089263916 0.20779427886009216 0.5068476796150208
0.19766242802143097 0.11124398559331894 0.5041865706443787
0.3113987147808075 0.21777988970279694 0.45628178119659424
0.3158996105194092 0.2394070029258728 0.43978214263916016
0.23225745558738708 0.1630067676305771 0.4039362370967865
0.22620467841625214 0.18079853057861328 0.49605226516723633
0.17155721783638 0.17569246888160706 0.44119083881378174
0.21988080441951752 0.14169321954250336 0.4705686867237091
0.1854107528924942 0.24412624537944794 0.42237016558647156
0.13029924035072327 0.10581798851490021 0.4559970498085022
0.24074020981788635 0.15708370506763458 0.5698084235191345
0.21227607131004333 0.16332979500293732 0.531574547290802
0.22477079927921295 0.16698449850082397 0.5458409190177917
0.28183263540267944 0.15801703929901123 0.4522799253463745
0.17806008458137512 0.11110745370388031 0.45904120802879333
0.22210219502449036 0.117453433573246 0.5609050989151001
0.2762198746204376 0.16038084030151367 0.5944452285766602
0.1820809245109558 0.23386137187480927 0.5191457271575928
0.1945885717868805 0.1199251115322113 0.5250024795532227
0.26484185457229614 0.1057150736451149 0.4891418516635895
0.18366672098636627 0.10135795176029205 0.5284898281097412
0.26392894983291626 0.2061137557029724 0.5841001272201538
0.34141239523887634 0.20671318471431732 0.5356798768043518
0.17136475443840027 0.11900978535413742 0.44117471575737
0.18870976567268372 0.1960909217596054 0.4075689911842346
0.22044426202774048 0.2128695398569107 0.4064328372478485
0.27563974261283875 0.19699642062187195 0.50221186876297
0.28822359442710876 0.11796340346336365 0.4226977527141571
0.24566411972045898 0.10998035222291946 0.5957500338554382
0.14968396723270416 0.1494988650083542 0.5886343121528625
0.18489305675029755 0.11008870601654053 0.4971906840801239
0.25313594937324524 0.13543426990509033 0.4786362946033478
0.33426353335380554 0.21343646943569183 0.5337682962417603
0.1707460880279541 0.2439764142036438 0.4624549448490143
0.16475175321102142 0.17279528081417084 0.5152600407600403
0.33744969964027405 0.168959841132164 0.5118842720985413
0.14810307323932648 0.19711153209209442 0.5999687314033508
0.2987283766269684 0.1813374012708664 0.44585874676704407
0.2231818586587906 0.14689645171165466 0.5015847086906433
0.23947018384933472 0.22879880666732788 0.5652928948402405
0.21334460377693176 0.1060570552945137 0.5366179943084717
0.2831205129623413 0.11088282614946365 0.4254235625267029
0.17006631195545197 0.13542738556861877 0.5241357088088989
0.27914854884147644 0.19961127638816833 0.558613121509552
0.2792171835899353 0.236135333776474 0.5610262155532837
0.3387868106365204 0.16335736215114594 0.554764449596405
0.2812272906303406 0.14062714576721191 0.4447345435619354
0.3432832360267639 0.1876058429479599 0.45154979825019836
0.16318051517009735 0.24044689536094666 0.4490496814250946
0.20929011702537537 0.10700724273920059 0.4455515444278717
0.3288809061050415 0.16304396092891693 0.4476149380207062
0.33429592847824097 0.16281121969223022 0.5611189603805542
0.14020732045173645 0.10352735966444016 0.3936392664909363
0.20780660212039948 0.12023014575242996 0.551848292350769
0.2990991473197937 0.23053260147571564 0.5632652044296265
0.14499172568321228 0.14617417752742767 0.5694431066513062
0.2972519099712372 0.24457722902297974 0.44329333305358887
0.21475574374198914 0.1836508810520172 0.4903441071510315
0.3041696548461914 0.10488492250442505 0.5530827641487122
0.31318438053131104 0.1806047111749649 0.5279713273048401
0.22793954610824585 0.10448667407035828 0.5813518166542053
0.13874700665473938 0.1600479632616043 0.5485823154449463
0.16838957369327545 0.22243016958236694 0.40648654103279114
0.1925780177116394 0.1914297491312027 0.5338058471679688
0.18339700996875763 0.18990223109722137 0.4843699038028717
0.1645292341709137 0.1558469831943512 0.5083436369895935
0.17030638456344604 0.20314624905586243 0.41193681955337524
0.3317776918411255 0.17023533582687378 0.5856683254241943
0.1484345644712448 0.15859586000442505 0.39719146490097046
0.3443661034107208 0.14658308029174805 0.44436654448509216
0.2779625654220581 0.15972892940044403 0.5544243454933167
0.30048760771751404 0.2312687486410141 0.4755154550075531
0.23390589654445648 0.10396077483892441 0.39338332414627075
0.2705726623535156 0.1788063794374466 0.506280243396759
0.26697826385498047 0.11992704123258591 0.5927438735961914
0.28710758686065674 0.10197708010673523 0.44309356808662415
0.145329087972641 0.14628788828849792 0.5454582571983337
0.2656994163990021 0.10528296232223511 0.5261824727058411
0.23864836990833282 0.17322605848312378 0.5449191927909851
0.3466687798500061 0.2179744839668274 0.578446090221405
0.16144920885562897 0.10701904445886612 0.5444464087486267
0.15192177891731262 0.10737315565347672 0.5713951587677002
0.2997739911079407 0.19193576276302338 0.5610853433609009
0.25618889927864075 0.21603550016880035 0.5808106660842896
0.2715150713920593 0.11482784897089005 0.5477166175842285
0.23277989029884338 0.1427644044160843 0.5290246605873108
0.23384806513786316 0.1315043717622757 0.5477316379547119
0.2730051577091217 0.12699390947818756 0.5925366878509521
0.22217577695846558 0.24825793504714966 0.5943698287010193
0.21644829213619232 0.10800996422767639 0.5005398392677307
0.19988784193992615 0.18382467329502106 0.5052564740180969
0.2973635196685791 0.1541125327348709 0.4237905740737915
0.26702794432640076 0.18607693910598755 0.5402892231941223
0.2269284576177597 0.24943223595619202 0.403446227312088
0.3106119632720947 0.17971140146255493 0.40846675634384155
0.2604009807109833 0.2057337909936905 0.5009363889694214
0.20302437245845795 0.22876976430416107 0.41291818022727966
0.31002479791641235 0.1305530071258545 0.4761866629123688
0.2682299017906189 0.1728067398071289 0.5061793327331543
0.23994724452495575 0.16332338750362396 0.4803898334503174
0.30192652344703674 0.1247968003153801 0.4410650432109833
0.1532241404056549 0.14359615743160248 0.43009182810783386
0.156602680683136 0.20014888048171997 0.552973210811615
0.18722181022167206 0.17545485496520996 0.5524298548698425
0.2912536561489105 0.17479972541332245 0.40518471598625183
0.2721637487411499 0.10931513458490372 0.5832797884941101
0.2724802494049072 0.10582979023456573 0.3891254663467407
0.23085136711597443 0.17483100295066833 0.5169548392295837
0.17629332840442657 0.14501601457595825 0.5554574131965637
0.2573842704296112 0.14406581223011017 0.48373398184776306
0.283550500869751 0.18901008367538452 0.5424563884735107
0.2229337990283966 0.19776372611522675 0.5627211928367615
0.1748763918876648 0.14213918149471283 0.4589899778366089
0.2735435366630554 0.10188354551792145 0.5278403759002686
0.2824825644493103 0.20167802274227142 0.43298500776290894
0.15736424922943115 0.23415304720401764 0.5878392457962036
0.24128401279449463 0.2130061388015747 0.40416303277015686
0.2868017256259918 0.17847861349582672 0.49208131432533264
0.17290861904621124 0.10517413169145584 0.4351770579814911
0.16061651706695557 0.12716418504714966 0.5439875721931458
0.22387637197971344 0.144544780254364 0.4709602892398834
0.27509433031082153 0.13066884875297546 0.4605903625488281
0.1713859736919403 0.19146162271499634 0.5197707414627075
0.31901687383651733 0.16661204397678375 0.5974717140197754
0.203465536236763 0.10249704867601395 0.4820443391799927
0.3455166518688202 0.20982299745082855 0.5069260001182556
0.177586168050766 0.12088203430175781 0.47360292077064514
0.18835075199604034 0.16003578901290894 0.4054061472415924
0.277335524559021 0.24221889674663544 0.4238852262496948
0.3714987635612488 0.2271866351366043 0.4530763626098633
0.27962303161621094 0.1099289283156395 0.427163302898407
0.2238030582666397 0.1319349855184555 0.503581702709198
0.2721637487411499 0.10931513458490372 0.5832797884941101
0.2724802494049072 0.10582979023456573 0.3891254663467407
0.23085136711597443 0.17483100295066833 0.5169548392295837
0.19475947320461273 0.16121351718902588 0.5055059790611267
0.31723666191101074 0.2244081199169159 0.43881934881210327
0.202301487326622 0.1198236271739006 0.43937626481056213
0.3319753110408783 0.16234663128852844 0.6023733019828796
0.17490701377391815 0.16099536418914795 0.47021976113319397
0.22881416976451874 0.22080188989639282 0.5178940892219543
0.24018384516239166 0.16958293318748474 0.5711830854415894
0.2903997004032135 0.1878100037574768 0.44257697463035583
0.2120080143213272 0.2115437239408493 0.4565276801586151
0.21126246452331543 0.16177427768707275 0.5860428214073181
0.16327597200870514 0.11104147136211395 0.43155166506767273
0.23092983663082123 0.12132729589939117 0.6057212352752686
0.2656150758266449 0.18113313615322113 0.49132832884788513
0.17024338245391846 0.10518994182348251 0.5605886578559875
0.2749965786933899 0.12517429888248444 0.5497152209281921
0.20975610613822937 0.1475418657064438 0.459445595741272
0.22072868049144745 0.13905669748783112 0.5000259876251221
0.2973352372646332 0.12475354969501495 0.6021011471748352
0.3186907172203064 0.1935473084449768 0.43971678614616394
0.282651424407959 0.2235533744096756 0.5614520907402039
0.2988344132900238 0.13181810081005096 0.4281405508518219
0.2589658200740814 0.23156408965587616 0.5528996586799622
0.14949092268943787 0.17584998905658722 0.5102724432945251
0.3415795862674713 0.225465789437294 0.45469263195991516
0.2730860412120819 0.1899982988834381 0.5480488538742065
0.15710259974002838 0.24118345975875854 0.5067312121391296
0.16085544228553772 0.1447327435016632 0.4051976799964905
0.15859562158584595 0.1933857500553131 0.44019514322280884
0.3497770428657532 0.1821039468050003 0.5507044792175293
0.2772603929042816 0.2385987937450409 0.5769881010055542
0.2784043252468109 0.11624984443187714 0.5074334144592285
0.1436934471130371 0.11377345770597458 0.39334723353385925
0.13541972637176514 0.10717296600341797 0.4507905840873718
0.16524368524551392 0.2412721961736679 0.5951266288757324
0.29344749450683594 0.1991260051727295 0.5108876824378967
0.29678767919540405 0.14257898926734924 0.5175071954727173
0.3240472674369812 0.18542049825191498 0.48318663239479065
0.1673043817281723 0.2132778763771057 0.40682241320610046
0.17941242456436157 0.17552129924297333 0.48636797070503235
0.22882284224033356 0.10174065083265305 0.5446363091468811
0.19566796720027924 0.15253867208957672 0.49962708353996277
0.21600908041000366 0.1515999734401703 0.3987116813659668
0.32130321860313416 0.14449957013130188 0.5023084282875061
0.19598861038684845 0.10299446433782578 0.46953803300857544
0.13668587803840637 0.1335924118757248 0.4212658703327179
0.28074097633361816 0.21955573558807373 0.5136728882789612
0.17260882258415222 0.23660114407539368 0.47567203640937805
0.18815726041793823 0.10842064768075943 0.5251790285110474
0.32288140058517456 0.1857484132051468 0.574783205986023
0.24736860394477844 0.15896651148796082 0.5682900547981262
0.27616414427757263 0.10364514589309692 0.5560538172721863
0.344489723443985 0.17251130938529968 0.5863856077194214
0.24468879401683807 0.11737855523824692 0.46521085500717163
0.29379376769065857 0.17421084642410278 0.5313554406166077
0.32022756338119507 0.17485788464546204 0.5725611448287964
0.33236461877822876 0.16848666965961456 0.5223081111907959
0.242365762591362 0.14615978300571442 0.44848868250846863
0.2306542843580246 0.22124290466308594 0.4298837184906006
0.26253652572631836 0.14995568990707397 0.4686067998409271
0.30192652344703674 0.1247968003153801 0.4410650432109833
0.3406946659088135 0.1496071070432663 0.5074098706245422
0.35797449946403503 0.21207354962825775 0.47164779901504517
0.22041913866996765 0.1099681705236435 0.49727118015289307
0.18426595628261566 0.22901125252246857 0.552199125289917
0.27201375365257263 0.22832447290420532 0.5318114757537842
0.20621134340763092 0.14910656213760376 0.5871460437774658
0.19989760220050812 0.12772297859191895 0.5419145822525024
0.22841382026672363 0.1940540224313736 0.5224637389183044
0.13196435570716858 0.11982453614473343 0.4889632761478424
0.22283075749874115 0.12761346995830536 0.3958247900009155
0.2328590452671051 0.11149831861257553 0.5746267437934875
0.2962118685245514 0.1706119328737259 0.5524525046348572
0.16124585270881653 0.1395183652639389 0.5392882227897644
0.26389825344085693 0.1317727118730545 0.4221740961074829
0.28678277134895325 0.22532044351100922 0.5435377359390259
0.2572956681251526 0.2432209700345993 0.5285927057266235
0.21409828960895538 0.15880334377288818 0.5097501873970032
0.2616727650165558 0.11218441277742386 0.5903533697128296
0.17743335664272308 0.11237189918756485 0.5810286402702332
0.3283817172050476 0.2198900282382965 0.5753353834152222
0.31955090165138245 0.11444467306137085 0.5414373874664307
0.25693386793136597 0.17006561160087585 0.44975247979164124
0.14522424340248108 0.1594376415014267 0.4376037120819092
0.2120550274848938 0.19032178819179535 0.480729877948761
0.19185613095760345 0.11906754225492477 0.5147001147270203
0.22868891060352325 0.13955606520175934 0.4141782522201538
0.18741944432258606 0.23021359741687775 0.4230046272277832
0.12823417782783508 0.11755761504173279 0.5683780312538147
0.25625431537628174 0.23255513608455658 0.4246145486831665
0.2515450716018677 0.16332128643989563 0.5639902949333191
0.23537211120128632 0.14047309756278992 0.5887751579284668
0.13541972637176514 0.10717296600341797 0.4507905840873718
0.22882284224033356 0.10174065083265305 0.5446363091468811
0.19566796720027924 0.15253867208957672 0.49962708353996277
0.3537974953651428 0.2167508602142334 0.49061107635498047
0.2693258821964264 0.20149342715740204 0.5530049204826355
0.310320109128952 0.22161361575126648 0.435010701417923
0.14376023411750793 0.10458599030971527 0.410439133644104
0.2122587412595749 0.10339256376028061 0.5172064900398254
0.17921331524848938 0.2410622537136078 0.5962850451469421
0.19285337626934052 0.11026202142238617 0.533338189125061
0.29918912053108215 0.2110527902841568 0.5458059906959534
0.2923286259174347 0.15767262876033783 0.43351852893829346
0.24140146374702454 0.18349047005176544 0.42358869314193726
0.1214824914932251 0.10685428231954575 0.45194634795188904
0.15340058505535126 0.22001740336418152 0.5706408023834229
0.3415220081806183 0.20130564272403717 0.4100833535194397
0.23901008069515228 0.22061270475387573 0.456737220287323
0.28371188044548035 0.2401813119649887 0.5721089839935303
0.1274612843990326 0.10983294248580933 0.47282674908638
0.17225511372089386 0.17127768695354462 0.5061655640602112
0.16241689026355743 0.2274714857339859 0.5994105935096741
0.19528698921203613 0.209546759724617 0.5167452692985535
0.2439747452735901 0.14713183045387268 0.40513885021209717
0.2156219333410263 0.24657858908176422 0.46118563413619995
0.21904654800891876 0.14986032247543335 0.6047311425209045
0.15563535690307617 0.1915414035320282 0.5821285247802734
0.3537987768650055 0.22987595200538635 0.41803666949272156
0.3419332206249237 0.1407942920923233 0.47845056653022766
0.3057136535644531 0.12931154668331146 0.5831189751625061
0.1318534016609192 0.1453235149383545 0.5634083151817322
0.23948493599891663 0.1328316628932953 0.5010891556739807
0.1502714306116104 0.10617177933454514 0.6087521314620972
0.22841382026672363 0.1940540224313736 0.5224637389183044
0.16435584425926208 0.13413576781749725 0.5863440632820129
0.24166136980056763 0.1831982433795929 0.5931122899055481
0.15900902450084686 0.1772225797176361 0.5550435185432434
0.34121131896972656 0.1856224536895752 0.4753597378730774
0.29138556122779846 0.18871183693408966 0.530176043510437
0.3167783319950104 0.2002914994955063 0.4259754717350006
0.31638211011886597 0.16486944258213043 0.539313018321991
0.19830307364463806 0.16935434937477112 0.5235646367073059
0.36443719267845154 0.19816455245018005 0.5139067769050598
0.20219559967517853 0.11072719842195511 0.43936687707901
0.20824125409126282 0.19362619519233704 0.41316893696784973
0.23865662515163422 0.20167014002799988 0.4660804569721222
0.17376773059368134 0.20832474529743195 0.43950197100639343
0.25124087929725647 0.1046530157327652 0.4634503424167633
0.29526033997535706 0.11254650354385376 0.4303862154483795
0.16884030401706696 0.21091364324092865 0.5879427194595337
0.19185613095760345 0.11906754225492477 0.5147001147270203
0.22868891060352325 0.13955606520175934 0.4141782522201538
0.18741944432258606 0.23021359741687775 0.4230046272277832
0.12823417782783508 0.11755761504173279 0.5683780312538147
0.25625431537628174 0.23255513608455658 0.4246145486831665
0.2515450716018677 0.16332128643989563 0.5639902949333191
0.23537211120128632 0.14047309756278992 0.5887751579284668
0.2593255341053009 0.1018274798989296 0.4433823823928833
0.17554517090320587 0.10402879118919373 0.40967193245887756
0.21180176734924316 0.17022955417633057 0.44577112793922424
0.23387418687343597 0.13836026191711426 0.555465042591095
0.3244984745979309 0.16096578538417816 0.40954887866973877
0.31406188011169434 0.14745834469795227 0.47044023871421814
0.20589767396450043 0.21388012170791626 0.41548505425453186
