ply
format ascii 1.0
element vertex 830
property float x
property float y
property float z
end_header
0.7186709642410278 0.18883641064167023 0.5250405669212341
0.5675543546676636 0.2981342077255249 0.5051501393318176
0.5326724648475647 0.22984203696250916 0.5959617495536804
0.6232090592384338 0.18370892107486725 0.45473819971084595
0.5620121955871582 0.14485904574394226 0.5145052671432495
0.5451068878173828 0.24649830162525177 0.4546733796596527
0.5228227972984314 0.18834614753723145 0.5598416924476624
0.60594642162323 0.10509584099054337 0.47742459177970886
0.6039330363273621 0.21427033841609955 0.5295659899711609
0.6178529858589172 0.213553324341774 0.4205560088157654
0.5638323426246643 0.1718534380197525 0.5173717737197876
0.6755692362785339 0.1550149917602539 0.4110981822013855
0.5596758723258972 0.12191255390644073 0.5216001272201538
0.6256950497627258 0.12692967057228088 0.5168370008468628
0.5825845003128052 0.24570232629776 0.5305581092834473
0.47679370641708374 0.18093082308769226 0.5136974453926086
0.6529049873352051 0.23109498620033264 0.4132629930973053
0.5666319727897644 0.19730058312416077 0.5852697491645813
0.5830126404762268 0.10907585918903351 0.5153332948684692
0.484040766954422 0.17636922001838684 0.509922206401825
0.5577748417854309 0.2740166187286377 0.4501675069332123
0.5125812888145447 0.18141408264636993 0.4604519307613373
0.593201220035553 0.10494080930948257 0.5580870509147644
0.6266308426856995 0.1941387951374054 0.47194719314575195
0.559698224067688 0.2331196665763855 0.5697060227394104
0.6429880261421204 0.1301891803741455 0.4276584982872009
0.5617477893829346 0.14733365178108215 0.5757747292518616
0.6951826214790344 0.22291995584964752 0.4784214496612549
0.6050384640693665 0.2769278287887573 0.4590604603290558
0.6250631213188171 0.11205942928791046 0.5208110213279724
0.5208930969238281 0.2571115493774414 0.5829960703849792
0.6045644879341125 0.13350296020507812 0.5421897172927856
0.5397813320159912 0.14490750432014465 0.399511456489563
0.5440762042999268 0.2003272920846939 0.42815104126930237
0.603701114654541 0.13077686727046967 0.3791487514972687
0.6478254795074463 0.1407802700996399 0.4828599691390991
0.509751558303833 0.13206729292869568 0.45772585272789
0.6535983681678772 0.1400548368692398 0.4814130961894989
0.5393871665000916 0.26393648982048035 0.5192884802818298
0.5725898146629333 0.25077956914901733 0.4584151804447174
0.6039330363273621 0.21427033841609955 0.5295659899711609
0.6178529858589172 0.213553324341774 0.4205560088157654
0.5638323426246643 0.1718534380197525 0.5173717737197876
0.6755692362785339 0.1550149917602539 0.4110981822013855
0.5596758723258972 0.12191255390644073 0.5216001272201538
0.6256950497627258 0.12692967057228088 0.5168370008468628
0.5825845003128052 0.24570232629776 0.5305581092834473
0.47679370641708374 0.18093082308769226 0.5136974453926086
0.6529049873352051 0.23109498620033264 0.4132629930973053
0.5666319727897644 0.19730058312416077 0.5852697491645813
0.5830126404762268 0.10907585918903351 0.5153332948684692
0.484040766954422 0.17636922001838684 0.509922206401825
0.5577748417854309 0.2740166187286377 0.4501675069332123
0.5125812888145447 0.18141408264636993 0.4604519307613373
0.593201220035553 0.10494080930948257 0.5580870509147644
0.6266308426856995 0.1941387951374054 0.47194719314575195
0.559698224067688 0.2331196665763855 0.5697060227394104
0.6429880261421204 0.1301891803741455 0.4276584982872009
0.5617477893829346 0.14733365178108215 0.5757747292518616
0.6951826214790344 0.22291995584964752 0.4784214496612549
0.6050384640693665 0.2769278287887573 0.4590604603290558
0.5826301574707031 0.1625584363937378 0.4517750144004822
0.6543248891830444 0.12677575647830963 0.4032905697822571
0.5047465562820435 0.13604329526424408 0.43993136286735535
0.5939637422561646 0.2620191276073456 0.5546970367431641
0.7102043628692627 0.19519250094890594 0.4892219305038452
0.5865545272827148 0.23549719154834747 0.4900745451450348
0.5199571847915649 0.21150726079940796 0.5445274710655212
0.5856831073760986 0.13533057272434235 0.40379127860069275
0.6000855565071106 0.16668517887592316 0.5483200550079346
0.5316130518913269 0.15313772857189178 0.5159799456596375
0.6515284180641174 0.18630145490169525 0.4930681884288788
0.6171839833259583 0.18478067219257355 0.5046238899230957
0.6039836406707764 0.12933304905891418 0.4281949996948242
0.6039330363273621 0.21427033841609955 0.5295659899711609
0.6178529858589172 0.213553324341774 0.4205560088157654
0.5638323426246643 0.1718534380197525 0.5173717737197876
0.6755692362785339 0.1550149917602539 0.4110981822013855
0.5596758723258972 0.12191255390644073 0.5216001272201538
0.6256950497627258 0.12692967057228088 0.5168370008468628
0.5825845003128052 0.24570232629776 0.5305581092834473
0.47679370641708374 0.18093082308769226 0.5136974453926086
0.6529049873352051 0.23109498620033264 0.4132629930973053
0.5666319727897644 0.19730058312416077 0.5852697491645813
0.5830126404762268 0.10907585918903351 0.5153332948684692
0.484040766954422 0.17636922001838684 0.509922206401825
0.5577748417854309 0.2740166187286377 0.4501675069332123
0.5125812888145447 0.18141408264636993 0.4604519307613373
0.593201220035553 0.10494080930948257 0.5580870509147644
0.6266308426856995 0.1941387951374054 0.47194719314575195
0.559698224067688 0.2331196665763855 0.5697060227394104
0.6429880261421204 0.1301891803741455 0.4276584982872009
0.5617477893829346 0.14733365178108215 0.5757747292518616
0.6951826214790344 0.22291995584964752 0.4784214496612549
0.6050384640693665 0.2769278287887573 0.4590604603290558
0.5826301574707031 0.1625584363937378 0.4517750144004822
0.5874696373939514 0.10302241891622543 0.566019594669342
0.6050344705581665 0.22051385045051575 0.5690819025039673
0.6396653652191162 0.2494470775127411 0.47497907280921936
0.6571922302246094 0.12143274396657944 0.5226032137870789
0.6233986616134644 0.1161530464887619 0.5059435367584229
0.5385802388191223 0.2156505286693573 0.5353512167930603
0.5348740816116333 0.23637451231479645 0.5737571716308594
0.6266308426856995 0.1941387951374054 0.47194719314575195
0.5583192706108093 0.11503518372774124 0.5002127885818481
0.541084885597229 0.16769032180309296 0.46915295720100403
0.6506677269935608 0.25001171231269836 0.5902348160743713
0.6227986812591553 0.18312683701515198 0.4985279142856598
0.5918700098991394 0.10304408520460129 0.5654994249343872
0.630372166633606 0.21048925817012787 0.4457924962043762
0.6003553867340088 0.11305954307317734 0.37639135122299194
0.5974375605583191 0.10529566556215286 0.5280154347419739
0.5296915769577026 0.23740489780902863 0.574455976486206
0.5528592467308044 0.29555416107177734 0.47926998138427734
0.628799557685852 0.18073488771915436 0.48229289054870605
0.5551537871360779 0.1617199033498764 0.5722702145576477
0.5982550978660583 0.21189306676387787 0.4812256693840027
0.5744504332542419 0.16950897872447968 0.4244081974029541
0.5486901998519897 0.2142808586359024 0.5889081954956055
0.60369873046875 0.23862113058567047 0.5344803929328918
0.511669933795929 0.2574038505554199 0.5303104519844055
0.5120543241500854 0.21415361762046814 0.4966012239456177
0.6064381003379822 0.20017306506633759 0.4375935196876526
0.479634165763855 0.1982172429561615 0.46954846382141113
0.5634682178497314 0.2259344607591629 0.47985130548477173
0.6340228319168091 0.1256060153245926 0.43923404812812805
0.52815181016922 0.1263563483953476 0.5851839184761047
0.5987667441368103 0.14958226680755615 0.5371602177619934
0.6465335488319397 0.12143253535032272 0.450059711933136
0.5929582118988037 0.11944530159235 0.5356096625328064
0.5895116329193115 0.12626512348651886 0.518187403678894
0.6180372834205627 0.28580138087272644 0.4591078460216522
0.5080307126045227 0.14453819394111633 0.43488433957099915
0.5996940732002258 0.15495386719703674 0.5110476016998291
0.6615376472473145 0.19494366645812988 0.5506325960159302
0.5617477893829346 0.14733365178108215 0.5757747292518616
0.6180372834205627 0.28580138087272644 0.4591078460216522
0.5080307126045227 0.14453819394111633 0.43488433957099915
0.6950615644454956 0.20509178936481476 0.5250970721244812
0.6567100882530212 0.21702639758586884 0.45762529969215393
0.5950743556022644 0.10785233974456787 0.43932217359542847
0.5262818336486816 0.1581699401140213 0.4733203947544098
0.608585000038147 0.2843436002731323 0.6001752614974976
0.502510666847229 0.18610779941082 0.550098717212677
0.651444137096405 0.1245126947760582 0.45415303111076355
0.5558117032051086 0.14170441031455994 0.5132643580436707
0.6887997388839722 0.18644511699676514 0.48786336183547974
0.5846962928771973 0.15924151241779327 0.4499998986721039
0.6643751263618469 0.19292299449443817 0.5038769245147705
0.573177695274353 0.11587407439947128 0.5608285665512085
0.6413110494613647 0.1576056033372879 0.40111079812049866
0.6221070885658264 0.25531747937202454 0.563342809677124
0.6210914254188538 0.11340730637311935 0.5330420732498169
0.5629442930221558 0.14966726303100586 0.5769582390785217
0.6240023374557495 0.17535780370235443 0.5336623191833496
0.5823420286178589 0.28564825654029846 0.571677565574646
0.6101011037826538 0.10873763263225555 0.530322790145874
0.6209949254989624 0.16348835825920105 0.5589134693145752
0.5732731819152832 0.26853567361831665 0.5758706331253052
0.4759707748889923 0.15939313173294067 0.5753198862075806
0.5538333654403687 0.20308537781238556 0.4550153315067291
0.5786095857620239 0.14208264648914337 0.5930578112602234
0.6022669076919556 0.19354510307312012 0.41775161027908325
0.6174421310424805 0.1176140084862709 0.5405921936035156
0.5522592663764954 0.1890670657157898 0.47499001026153564
0.6597139835357666 0.12484423816204071 0.5237008929252625
0.6233897805213928 0.152959406375885 0.42211368680000305
0.6697589755058289 0.1995440274477005 0.5253777503967285
0.541084885597229 0.16769032180309296 0.46915295720100403
0.6506677269935608 0.25001171231269836 0.5902348160743713
0.6227986812591553 0.18312683701515198 0.4985279142856598
0.5918700098991394 0.10304408520460129 0.5654994249343872
0.630372166633606 0.21048925817012787 0.4457924962043762
0.6003553867340088 0.11305954307317734 0.37639135122299194
0.5974375605583191 0.10529566556215286 0.5280154347419739
0.5296915769577026 0.23740489780902863 0.574455976486206
0.5235942602157593 0.12623968720436096 0.5788170695304871
0.5704268217086792 0.1553061455488205 0.5432332158088684
0.6171879172325134 0.2345791459083557 0.5254727005958557
0.6788023710250854 0.21521884202957153 0.48221656680107117
0.5341944694519043 0.27119016647338867 0.47422918677330017
0.6036787629127502 0.29300564527511597 0.5233803987503052
0.5691132545471191 0.13277041912078857 0.5378148555755615
0.5527588725090027 0.2669174373149872 0.42448514699935913
0.6003897190093994 0.198218435049057 0.4635973572731018
0.5957775115966797 0.16163477301597595 0.5270745754241943
0.5846526622772217 0.1897168904542923 0.5827452540397644
0.5129716396331787 0.140802800655365 0.4751524031162262
0.6200162172317505 0.11642242968082428 0.47645509243011475
0.5861122012138367 0.11331845074892044 0.5677345395088196
0.5571840405464172 0.3125494122505188 0.5243515968322754
0.5218594074249268 0.18344615399837494 0.5144742727279663
0.6565229296684265 0.2152530997991562 0.41697824001312256
0.5365481376647949 0.23055006563663483 0.45204228162765503
0.7008292078971863 0.19549492001533508 0.5690233707427979
0.5098242163658142 0.1899336278438568 0.493694931268692
0.595730185508728 0.11800195276737213 0.5386833548545837
0.6241679191589355 0.2386564314365387 0.581206738948822
0.6260543465614319 0.21809637546539307 0.49283409118652344
0.7102043628692627 0.19519250094890594 0.4892219305038452
0.605609655380249 0.2652488946914673 0.4383072257041931
0.5208215713500977 0.25900664925575256 0.47306692600250244
0.5194048285484314 0.21595557034015656 0.6009940505027771
0.5154281854629517 0.23236623406410217 0.5387774109840393
0.6398700475692749 0.1370445340871811 0.557929515838623
0.5853766798973083 0.22391870617866516 0.4785926938056946
0.6977760791778564 0.2145925760269165 0.5718216896057129
0.5710527300834656 0.13257554173469543 0.4188004732131958
0.6438437700271606 0.20982718467712402 0.4394855797290802
0.6991921067237854 0.17878854274749756 0.5138320326805115
0.5250535011291504 0.27121487259864807 0.4703187048435211
0.7067548632621765 0.2080506682395935 0.4800410270690918
0.6682819724082947 0.16947612166404724 0.5009790658950806
0.5988930463790894 0.115455262362957 0.5720844268798828
0.550230085849762 0.1513914316892624 0.43567484617233276
0.5994663834571838 0.10145309567451477 0.4883733093738556
0.627675473690033 0.12126918137073517 0.384359210729599
0.5806403160095215 0.13464589416980743 0.4828910529613495
0.4751151204109192 0.16254553198814392 0.43587353825569153
0.6170159578323364 0.13232721388339996 0.4833783507347107
0.5350968241691589 0.18416771292686462 0.5965031385421753
0.5213719606399536 0.19814535975456238 0.5257532000541687
0.5174281001091003 0.2302488386631012 0.5072160363197327
0.5409409403800964 0.17985722422599792 0.4630797803401947
0.6492472290992737 0.10763969272375107 0.5432822108268738
0.6890963315963745 0.22368763387203217 0.46920478343963623
0.5426724553108215 0.16164924204349518 0.5319767594337463
0.6440896987915039 0.21819497644901276 0.5447096824645996
0.5903757214546204 0.19088366627693176 0.4180566072463989
0.49805888533592224 0.14039066433906555 0.5936492085456848
0.515683650970459 0.14839942753314972 0.48277708888053894
0.5565430521965027 0.233793705701828 0.4626895487308502
0.563402533531189 0.22964073717594147 0.4363335371017456
0.5945957899093628 0.2522428035736084 0.567922055721283
0.6951225996017456 0.2154420167207718 0.5660479068756104
0.6134710907936096 0.23047137260437012 0.4484410583972931
0.6178208589553833 0.10309677571058273 0.4980568289756775
0.5102919936180115 0.26458558440208435 0.4363347589969635
0.4935404360294342 0.13449633121490479 0.553081750869751
0.5700145959854126 0.12381616234779358 0.575309693813324
0.688910186290741 0.19184473156929016 0.4692816734313965
0.5151062607765198 0.1434190720319748 0.5193580389022827
0.6286744475364685 0.11647548526525497 0.4695507287979126
0.5971758961677551 0.10631785541772842 0.4531576335430145
0.6741909980773926 0.20347705483436584 0.5400603413581848
0.4797096848487854 0.1375572234392166 0.43444016575813293
0.5517439842224121 0.22222866117954254 0.45030099153518677
0.5199899673461914 0.1997358202934265 0.48192235827445984
0.5830495357513428 0.11992378532886505 0.43991222977638245
0.5992273688316345 0.1278267353773117 0.43448877334594727
0.6329881548881531 0.20489755272865295 0.5002962946891785
0.5318633317947388 0.23540744185447693 0.5548393130302429
0.5218883156776428 0.2438516914844513 0.4802432656288147
0.5906670093536377 0.12384812533855438 0.3788710832595825
0.6053406596183777 0.2557217478752136 0.571927011013031
0.6142364740371704 0.20530778169631958 0.5780200958251953
0.6053406596183777 0.2557217478752136 0.571927011013031
0.6142364740371704 0.20530778169631958 0.5780200958251953
0.5289766788482666 0.20817939937114716 0.48932555317878723
0.684902548789978 0.19522157311439514 0.5330749154090881
0.532922625541687 0.28196802735328674 0.48531219363212585
0.503121554851532 0.155471533536911 0.4165588617324829
0.5759661793708801 0.22090373933315277 0.4804552495479584
0.7102043628692627 0.19519250094890594 0.4892219305038452
0.5080307126045227 0.14453819394111633 0.43488433957099915
0.5996940732002258 0.15495386719703674 0.5110476016998291
0.6615376472473145 0.19494366645812988 0.5506325960159302
0.6084226369857788 0.22941294312477112 0.5095272064208984
0.6567100882530212 0.21702639758586884 0.45762529969215393
0.5950743556022644 0.10785233974456787 0.43932217359542847
0.6597679853439331 0.1763639599084854 0.5508682131767273
0.5265005826950073 0.12571439146995544 0.48416653275489807
0.5302550792694092 0.24429945647716522 0.5151447653770447
0.5530144572257996 0.11983548849821091 0.43199774622917175
0.6777440309524536 0.17750950157642365 0.4100307524204254
0.66988605260849 0.20009548962116241 0.40292900800704956
0.6374166011810303 0.20801930129528046 0.46464791893959045
0.5273764729499817 0.2608967423439026 0.519258439540863
0.5846962928771973 0.15924151241779327 0.4499998986721039
0.6643751263618469 0.19292299449443817 0.5038769245147705
0.573177695274353 0.11587407439947128 0.5608285665512085
0.6413110494613647 0.1576056033372879 0.40111079812049866
0.6221070885658264 0.25531747937202454 0.563342809677124
0.6210914254188538 0.11340730637311935 0.5330420732498169
0.5629442930221558 0.14966726303100586 0.5769582390785217
0.6240023374557495 0.17535780370235443 0.5336623191833496
0.5823420286178589 0.28564825654029846 0.571677565574646
0.6101011037826538 0.10873763263225555 0.530322790145874
0.6209949254989624 0.16348835825920105 0.5589134693145752
0.586992621421814 0.211727112531662 0.5148156881332397
0.5437449812889099 0.31886181235313416 0.47162187099456787
0.5379830598831177 0.1785609871149063 0.5059555172920227
0.690860390663147 0.2186988741159439 0.4083600342273712
0.5538333654403687 0.20308537781238556 0.4550153315067291
0.6394004821777344 0.12315856665372849 0.5075525045394897
0.5853338241577148 0.1051318496465683 0.5290345549583435
0.4797096848487854 0.1375572234392166 0.43444016575813293
0.5517439842224121 0.22222866117954254 0.45030099153518677
0.5199899673461914 0.1997358202934265 0.48192235827445984
0.5992273688316345 0.1278267353773117 0.43448877334594727
0.6329881548881531 0.20489755272865295 0.5002962946891785
0.5318633317947388 0.23540744185447693 0.5548393130302429
0.5218883156776428 0.2438516914844513 0.4802432656288147
0.5218883156776428 0.2438516914844513 0.4802432656288147
0.5906670093536377 0.12384812533855438 0.3788710832595825
0.6053406596183777 0.2557217478752136 0.571927011013031
0.6142364740371704 0.20530778169631958 0.5780200958251953
0.5289766788482666 0.20817939937114716 0.48932555317878723
0.5289766788482666 0.20817939937114716 0.48932555317878723
0.684902548789978 0.19522157311439514 0.5330749154090881
0.532922625541687 0.28196802735328674 0.48531219363212585
0.5825238227844238 0.24314185976982117 0.4378397464752197
0.503121554851532 0.155471533536911 0.4165588617324829
0.5759661793708801 0.22090373933315277 0.4804552495479584
0.6172879338264465 0.28006693720817566 0.5879170298576355
0.5516581535339355 0.32596251368522644 0.4824320673942566
0.6287495493888855 0.14195744693279266 0.4556780755519867
0.5405991077423096 0.18222489953041077 0.5280303359031677
0.5573948621749878 0.12911373376846313 0.5178271532058716
0.5038350820541382 0.26081642508506775 0.43217507004737854
0.5975753664970398 0.11360365897417068 0.4854634404182434
0.5916582345962524 0.15825791656970978 0.4932696521282196
0.5864145755767822 0.10410159826278687 0.5015640258789062
0.5864145755767822 0.10410159826278687 0.5015640258789062
0.570702850818634 0.2263510674238205 0.500091016292572
0.6367661952972412 0.20213426649570465 0.5350766777992249
0.5575960278511047 0.2984999418258667 0.49764516949653625
0.5728963017463684 0.23644496500492096 0.4295516610145569
0.6521308422088623 0.23360013961791992 0.48046213388442993
0.5412467122077942 0.20800843834877014 0.5196505188941956
0.6334035992622375 0.2486027330160141 0.4468975365161896
0.5496101379394531 0.1501348912715912 0.5843299627304077
0.6064344644546509 0.12450700253248215 0.43340903520584106
0.5731386542320251 0.30562135577201843 0.483122855424881
0.5803983211517334 0.12958814203739166 0.5791323184967041
0.583322286605835 0.10903338342905045 0.4370045065879822
0.4772107005119324 0.1704116016626358 0.5850969552993774
0.6053886413574219 0.27875834703445435 0.600649893283844
0.5159986019134521 0.17972809076309204 0.5791589021682739
0.5104268789291382 0.21655210852622986 0.5457797646522522
0.4995754063129425 0.1990870237350464 0.4313672184944153
0.6170653104782104 0.10203058272600174 0.5010672807693481
0.6701149940490723 0.13896405696868896 0.46815967559814453
0.4985809922218323 0.2037789672613144 0.5053830742835999
0.5768014788627625 0.2050265520811081 0.567020058631897
0.5066016316413879 0.22075365483760834 0.5321660041809082
0.6203837394714355 0.11186111718416214 0.4541288912296295
0.5482485294342041 0.3026767671108246 0.5787454843521118
0.5482485294342041 0.3026767671108246 0.5787454843521118
0.6238493323326111 0.13538667559623718 0.39265522360801697
0.6570681929588318 0.22728560864925385 0.41698163747787476
0.5698676109313965 0.1901283860206604 0.4723057746887207
0.5556894540786743 0.22159799933433533 0.45155444741249084
0.677638828754425 0.2203805148601532 0.4127572476863861
0.6817925572395325 0.14646533131599426 0.5597895383834839
0.6212098002433777 0.22080904245376587 0.5218559503555298
0.6125475168228149 0.18830721080303192 0.49838975071907043
0.5972949266433716 0.18027938902378082 0.41844311356544495
0.6053634285926819 0.21930241584777832 0.5212737321853638
0.5734791159629822 0.25625890493392944 0.4654887318611145
0.6630437970161438 0.15426407754421234 0.4864387810230255
0.659986138343811 0.12942110002040863 0.4507257640361786
0.6287767887115479 0.16540764272212982 0.4004608690738678
0.5066016316413879 0.22075365483760834 0.5321660041809082
0.6203837394714355 0.11186111718416214 0.4541288912296295
0.5482485294342041 0.3026767671108246 0.5787454843521118
0.6238493323326111 0.13538667559623718 0.39265522360801697
0.6570681929588318 0.22728560864925385 0.41698163747787476
0.5698676109313965 0.1901283860206604 0.4723057746887207
0.5556894540786743 0.22159799933433533 0.45155444741249084
0.677638828754425 0.2203805148601532 0.4127572476863861
0.6817925572395325 0.14646533131599426 0.5597895383834839
0.6212098002433777 0.22080904245376587 0.5218559503555298
0.6125475168228149 0.18830721080303192 0.49838975071907043
0.6192634701728821 0.17978575825691223 0.4028875529766083
0.5972949266433716 0.18027938902378082 0.41844311356544495
0.501074492931366 0.20175695419311523 0.5620682239532471
0.6053634285926819 0.21930241584777832 0.5212737321853638
0.5583192706108093 0.11503518372774124 0.5002127885818481
0.541084885597229 0.16769032180309296 0.46915295720100403
0.6506677269935608 0.25001171231269836 0.5902348160743713
0.6227986812591553 0.18312683701515198 0.4985279142856598
0.5918700098991394 0.10304408520460129 0.5654994249343872
0.630372166633606 0.21048925817012787 0.4457924962043762
0.6003553867340088 0.11305954307317734 0.37639135122299194
0.5974375605583191 0.10529566556215286 0.5280154347419739
0.5296915769577026 0.23740489780902863 0.574455976486206
0.5235942602157593 0.12623968720436096 0.5788170695304871
0.5704268217086792 0.1553061455488205 0.5432332158088684
0.605609655380249 0.2652488946914673 0.4383072257041931
0.4976418614387512 0.2018701583147049 0.5544959902763367
0.6045644879341125 0.13350296020507812 0.5421897172927856
0.6617624163627625 0.22094480693340302 0.481689989566803
0.6541711091995239 0.18137188255786896 0.48160311579704285
0.5885035991668701 0.10573580861091614 0.517674446105957
0.5161437392234802 0.1608547866344452 0.44117408990859985
0.5760990381240845 0.1697697639465332 0.43304306268692017
0.495907723903656 0.17663313448429108 0.5898716449737549
0.6190041303634644 0.11222200840711594 0.5679466128349304
0.5647925734519958 0.1543986052274704 0.5807735323905945
0.5591073036193848 0.13660873472690582 0.5276585221290588
0.5918049812316895 0.2177882045507431 0.5245000123977661
0.6123368740081787 0.12889350950717926 0.44345617294311523
0.4903290867805481 0.14532645046710968 0.45090746879577637
0.6064967513084412 0.10382767766714096 0.5237798094749451
0.5798583626747131 0.169495090842247 0.5364876985549927
0.6741797924041748 0.19296619296073914 0.45367011427879333
0.5505886673927307 0.13807593286037445 0.48946213722229004
0.632707953453064 0.1643621325492859 0.4958714544773102
0.6683701276779175 0.22842587530612946 0.5401663780212402
0.599026083946228 0.1298265904188156 0.5729233622550964
0.4993612766265869 0.17486685514450073 0.5357164740562439
0.566300094127655 0.15234331786632538 0.5856714844703674
0.5498021841049194 0.3049129545688629 0.5128705501556396
0.5824581384658813 0.1483890265226364 0.5169744491577148
0.49734076857566833 0.1313989907503128 0.45114266872406006
0.653236448764801 0.16581563651561737 0.39724424481391907
0.7168430685997009 0.1933918297290802 0.5060989856719971
0.6630952954292297 0.18053482472896576 0.4476804733276367
0.627011775970459 0.1799551397562027 0.541790246963501
0.6156636476516724 0.13784396648406982 0.5859619975090027
0.6713340878486633 0.14924006164073944 0.5271468162536621
0.563402533531189 0.22964073717594147 0.4363335371017456
0.7201873660087585 0.19108830392360687 0.5376734137535095
0.5759661793708801 0.22090373933315277 0.4804552495479584
0.6172879338264465 0.28006693720817566 0.5879170298576355
0.5516581535339355 0.32596251368522644 0.4824320673942566
0.6287495493888855 0.14195744693279266 0.4556780755519867
0.5405991077423096 0.18222489953041077 0.5280303359031677
0.5573948621749878 0.12911373376846313 0.5178271532058716
0.5038350820541382 0.26081642508506775 0.43217507004737854
0.5975753664970398 0.11360365897417068 0.4854634404182434
0.5916582345962524 0.15825791656970978 0.4932696521282196
0.5864145755767822 0.10410159826278687 0.5015640258789062
0.570702850818634 0.2263510674238205 0.500091016292572
0.6367661952972412 0.20213426649570465 0.5350766777992249
0.5947049260139465 0.1722572296857834 0.39789023995399475
0.5900631546974182 0.17123685777187347 0.5285050868988037
0.5206641554832458 0.13982371985912323 0.4101639986038208
0.571819007396698 0.2746239900588989 0.45018792152404785
0.5879084467887878 0.1680212914943695 0.5650632977485657
0.6924319863319397 0.2176307886838913 0.5800467133522034
0.5900289416313171 0.12897516787052155 0.5062806606292725
0.7058442831039429 0.17639419436454773 0.5583656430244446
0.6588284969329834 0.19148917496204376 0.5196012258529663
0.5311557054519653 0.12361172586679459 0.4499851167201996
0.6305618286132812 0.14032019674777985 0.4575258791446686
0.6138042211532593 0.22066336870193481 0.5609006285667419
0.49679136276245117 0.13929568231105804 0.44771209359169006
0.580573558807373 0.15502376854419708 0.5156418681144714
0.608585000038147 0.2843436002731323 0.6001752614974976
0.502510666847229 0.18610779941082 0.550098717212677
0.651444137096405 0.1245126947760582 0.45415303111076355
0.5558117032051086 0.14170441031455994 0.5132643580436707
0.4969194531440735 0.16957999765872955 0.45663535594940186
0.6951225996017456 0.2154420167207718 0.5660479068756104
0.6734485030174255 0.18154944479465485 0.40381497144699097
0.6501765847206116 0.1510057896375656 0.4844379127025604
0.538398265838623 0.25879397988319397 0.4770253598690033
0.5529071688652039 0.27521660923957825 0.48275867104530334
0.5670634508132935 0.10722022503614426 0.5845389366149902
0.5959863662719727 0.12047107517719269 0.4393690824508667
0.5419332385063171 0.137827068567276 0.5346912741661072
0.6515556573867798 0.2398993968963623 0.5818657875061035
0.48757827281951904 0.15429633855819702 0.5323647260665894
0.5385993719100952 0.19672155380249023 0.5918827056884766
0.5013543963432312 0.2520846724510193 0.4440964162349701
0.5745230317115784 0.12973923981189728 0.4281214475631714
0.6080297231674194 0.24803993105888367 0.5084632039070129
0.5859658718109131 0.23923350870609283 0.5517244935035706
0.5336647033691406 0.18024037778377533 0.45729130506515503
0.6028042435646057 0.22913183271884918 0.5525667071342468
0.5062988996505737 0.1926261931657791 0.5504047274589539
0.6205825209617615 0.22217419743537903 0.4954683184623718
0.4739236533641815 0.19427666068077087 0.4527605473995209
0.6339720487594604 0.15709511935710907 0.5525068640708923
0.5408387184143066 0.21517319977283478 0.5375643968582153
0.5385659337043762 0.28361839056015015 0.4266272783279419
0.6471824049949646 0.18782491981983185 0.5160723328590393
0.634265124797821 0.10714161396026611 0.579608142375946
0.576850414276123 0.17754924297332764 0.4959983229637146
0.6225742697715759 0.24481479823589325 0.4496704339981079
0.6725708842277527 0.11645769327878952 0.5767839550971985
0.6130116581916809 0.10538986325263977 0.562921941280365
0.6084226369857788 0.22941294312477112 0.5095272064208984
0.6567100882530212 0.21702639758586884 0.45762529969215393
0.5950743556022644 0.10785233974456787 0.43932217359542847
0.6118289828300476 0.136050283908844 0.44644394516944885
0.6694239974021912 0.20183880627155304 0.4425640404224396
0.5529671311378479 0.17086730897426605 0.5458689332008362
0.5929234027862549 0.11165685206651688 0.5587424635887146
0.6176993250846863 0.28001657128334045 0.4670703113079071
0.5627314448356628 0.21798613667488098 0.4248046576976776
0.5665621161460876 0.28795063495635986 0.580053985118866
0.5930029153823853 0.29707881808280945 0.45540493726730347
0.6312354207038879 0.22050699591636658 0.5417108535766602
0.5212209224700928 0.1882752925157547 0.5599191784858704
0.5849292874336243 0.15509645640850067 0.41457438468933105
0.49237459897994995 0.1333787590265274 0.46629205346107483
0.5900631546974182 0.17123685777187347 0.5285050868988037
0.5206641554832458 0.13982371985912323 0.4101639986038208
0.5918871164321899 0.24186386168003082 0.5761733651161194
0.5888400077819824 0.2495758980512619 0.5055494904518127
0.5679535865783691 0.11107585579156876 0.551694929599762
0.5859649777412415 0.10577604919672012 0.4634547531604767
0.6478828191757202 0.1802624762058258 0.4710167646408081
0.5536777973175049 0.21635127067565918 0.5786280632019043
0.605658769607544 0.10140402615070343 0.4266034662723541
0.6299835443496704 0.1438678503036499 0.420353502035141
0.6765697002410889 0.23807655274868011 0.4664858281612396
0.5194869637489319 0.15379710495471954 0.5345772504806519
0.6684573888778687 0.20000888407230377 0.4158990681171417
0.5435093641281128 0.1349642276763916 0.418016642332077
0.5436698198318481 0.12097674608230591 0.47569137811660767
0.6449071168899536 0.15563370287418365 0.40924665331840515
0.608585000038147 0.2843436002731323 0.6001752614974976
0.502510666847229 0.18610779941082 0.550098717212677
0.651444137096405 0.1245126947760582 0.45415303111076355
0.5558117032051086 0.14170441031455994 0.5132643580436707
0.5874696373939514 0.10302241891622543 0.566019594669342
0.6003553867340088 0.11305954307317734 0.37639135122299194
0.5974375605583191 0.10529566556215286 0.5280154347419739
0.5296915769577026 0.23740489780902863 0.574455976486206
0.5235942602157593 0.12623968720436096 0.5788170695304871
0.5704268217086792 0.1553061455488205 0.5432332158088684
0.605609655380249 0.2652488946914673 0.4383072257041931
0.5208215713500977 0.25900664925575256 0.47306692600250244
0.5194048285484314 0.21595557034015656 0.6009940505027771
0.5154281854629517 0.23236623406410217 0.5387774109840393
0.6398700475692749 0.1370445340871811 0.557929515838623
0.5853766798973083 0.22391870617866516 0.4785926938056946
0.4863247871398926 0.1557052731513977 0.4193691313266754
0.6717439293861389 0.23794735968112946 0.5577297806739807
0.6811659336090088 0.19080665707588196 0.567514181137085
0.5113127827644348 0.12874118983745575 0.5486369132995605
0.6086411476135254 0.12028305977582932 0.4931453764438629
0.6324223875999451 0.19686442613601685 0.40848326683044434
0.5527053475379944 0.2615189850330353 0.43124958872795105
0.5410757660865784 0.139957457780838 0.5861140489578247
0.568077802658081 0.16122892498970032 0.5935070514678955
0.5554863214492798 0.29670774936676025 0.4548247754573822
0.6673508286476135 0.13087397813796997 0.4465036690235138
0.6889442205429077 0.19350363314151764 0.522132933139801
0.5588708519935608 0.19000114500522614 0.5653178691864014
0.6021283268928528 0.10492289811372757 0.5715591311454773
0.5256853103637695 0.19530726969242096 0.5153273344039917
0.6724845767021179 0.16578218340873718 0.4195496737957001
0.5089434385299683 0.2229926735162735 0.5408459901809692
0.6740162372589111 0.2179010510444641 0.44077056646347046
0.59890216588974 0.26594796776771545 0.5784210562705994
0.5374120473861694 0.19858773052692413 0.5254786014556885
0.5193397998809814 0.2025834321975708 0.4461861550807953
0.6326230764389038 0.11123345047235489 0.436069130897522
0.5431420803070068 0.2527718245983124 0.5193579196929932
0.5578927397727966 0.29835766553878784 0.4623315632343292
0.6333696246147156 0.1485302746295929 0.5699699521064758
0.611996054649353 0.1466323733329773 0.4760775566101074
0.5423008799552917 0.25931215286254883 0.4261895716190338
0.6374518871307373 0.1214122399687767 0.48801738023757935
0.6702351570129395 0.11304602026939392 0.5785658955574036
0.5126525163650513 0.2550738751888275 0.46225032210350037
0.48003318905830383 0.1816050261259079 0.5825425386428833
0.5974738597869873 0.16347968578338623 0.45344406366348267
0.6011351943016052 0.12968777120113373 0.40721577405929565
0.6345696449279785 0.19222988188266754 0.570465624332428
0.6546305418014526 0.23276212811470032 0.42760172486305237
0.6413110494613647 0.1576056033372879 0.40111079812049866
0.6221070885658264 0.25531747937202454 0.563342809677124
0.6210914254188538 0.11340730637311935 0.5330420732498169
0.5629442930221558 0.14966726303100586 0.5769582390785217
0.6240023374557495 0.17535780370235443 0.5336623191833496
0.5823420286178589 0.28564825654029846 0.571677565574646
0.6101011037826538 0.10873763263225555 0.530322790145874
0.6209949254989624 0.16348835825920105 0.5589134693145752
0.586992621421814 0.211727112531662 0.5148156881332397
0.5437449812889099 0.31886181235313416 0.47162187099456787
0.6101977825164795 0.13020405173301697 0.48408451676368713
0.6597139835357666 0.12484423816204071 0.5237008929252625
0.6233897805213928 0.152959406375885 0.42211368680000305
0.5680583715438843 0.29935821890830994 0.5140182375907898
0.5394458770751953 0.19695013761520386 0.49520057439804077
0.5790497064590454 0.2693994343280792 0.549222469329834
0.6221758127212524 0.11665944755077362 0.43677499890327454
0.5583192706108093 0.11503518372774124 0.5002127885818481
0.5839588046073914 0.3033652603626251 0.5712324976921082
0.6464942097663879 0.11286408454179764 0.5645303726196289
0.5119481682777405 0.2229720801115036 0.48784831166267395
0.5794745087623596 0.1866413801908493 0.49793457984924316
0.5814066529273987 0.15976761281490326 0.46634089946746826
0.49481824040412903 0.13004569709300995 0.42076700925827026
0.6963419914245605 0.2035314291715622 0.4193306565284729
0.5052363872528076 0.15227171778678894 0.6023238301277161
0.5035597681999207 0.23928335309028625 0.509551465511322
0.5591496229171753 0.3135811984539032 0.43100324273109436
0.6066606640815735 0.20116204023361206 0.4332362413406372
0.6108450889587402 0.12143772095441818 0.4866584241390228
0.6135609745979309 0.1397092193365097 0.4785093367099762
0.6034358739852905 0.2519650161266327 0.5854833722114563
0.6341581344604492 0.1348028928041458 0.3920266628265381
0.5338078141212463 0.2138865888118744 0.4819197952747345
0.5703086256980896 0.19260580837726593 0.5422150492668152
0.6557452082633972 0.12420424818992615 0.5666142702102661
0.4954293668270111 0.20426370203495026 0.48051080107688904
0.6476874947547913 0.187574565410614 0.5208883881568909
0.5124350190162659 0.12758351862430573 0.5094045996665955
0.6990510821342468 0.1791064590215683 0.4664760231971741
0.5605185031890869 0.1255788505077362 0.47292560338974
0.5966166853904724 0.1919928789138794 0.49388352036476135
0.5006768107414246 0.17564302682876587 0.4327678680419922
0.6310107707977295 0.15870805084705353 0.4898585081100464
0.6088651418685913 0.24827292561531067 0.430180162191391
0.5504705309867859 0.2371044158935547 0.49486467242240906
0.5398634076118469 0.11906100064516068 0.5535445213317871
0.5366023182868958 0.18193171918392181 0.4249316155910492
0.5951147079467773 0.15085569024085999 0.5051084756851196
0.5853766798973083 0.22391870617866516 0.4785926938056946
0.6464942097663879 0.11286408454179764 0.5645303726196289
0.5119481682777405 0.2229720801115036 0.48784831166267395
0.5794745087623596 0.1866413801908493 0.49793457984924316
0.5814066529273987 0.15976761281490326 0.46634089946746826
0.49481824040412903 0.13004569709300995 0.42076700925827026
0.6963419914245605 0.2035314291715622 0.4193306565284729
0.5052363872528076 0.15227171778678894 0.6023238301277161
0.5558879375457764 0.2942902743816376 0.5385819673538208
0.5839323401451111 0.11072239279747009 0.5224960446357727
0.5511385798454285 0.15509754419326782 0.5534573793411255
0.592532753944397 0.26948001980781555 0.4514279365539551
0.4912415146827698 0.199344664812088 0.46682196855545044
0.6092814803123474 0.26631298661231995 0.5112714171409607
0.696415901184082 0.22260449826717377 0.4834321439266205
0.6955789923667908 0.20130027830600739 0.545833170413971
0.5027856230735779 0.1848706603050232 0.48527204990386963
0.5410401225090027 0.20824883878231049 0.5576991438865662
0.5574217438697815 0.1499190330505371 0.4026714861392975
0.5896301865577698 0.23106202483177185 0.5431177616119385
0.5853145718574524 0.16047005355358124 0.5350338816642761
0.5816682577133179 0.2917959988117218 0.5875065326690674
0.6126956343650818 0.11452759057283401 0.5658181309700012
0.5866020917892456 0.1979304850101471 0.49848389625549316
0.565301775932312 0.13740964233875275 0.5294286012649536
0.5363929867744446 0.16884426772594452 0.43598735332489014
0.6310107707977295 0.15870805084705353 0.4898585081100464
0.6088651418685913 0.24827292561531067 0.430180162191391
0.5504705309867859 0.2371044158935547 0.49486467242240906
0.5398634076118469 0.11906100064516068 0.5535445213317871
0.5366023182868958 0.18193171918392181 0.4249316155910492
0.5951147079467773 0.15085569024085999 0.5051084756851196
0.5213719606399536 0.19814535975456238 0.5257532000541687
0.5617566108703613 0.3091517686843872 0.46650534868240356
0.5460930466651917 0.2033010572195053 0.5451034903526306
0.6851043105125427 0.21215133368968964 0.41947659850120544
0.5019057393074036 0.24053078889846802 0.4804403483867645
0.6267902255058289 0.2547839283943176 0.4551362991333008
0.6521868109703064 0.17231380939483643 0.5874319076538086
0.6515870094299316 0.13806988298892975 0.5113096237182617
0.48073726892471313 0.14923323690891266 0.4804353713989258
0.5473293662071228 0.2935484051704407 0.5195996761322021
0.5978738069534302 0.10504146665334702 0.5000287294387817
0.519626796245575 0.1904788613319397 0.4790036082267761
0.5996771454811096 0.24449869990348816 0.4232300817966461
0.5285858511924744 0.27692580223083496 0.50705885887146
0.6489028930664062 0.14121073484420776 0.5413841605186462
0.5192918181419373 0.2125573456287384 0.5916635394096375
0.5368404388427734 0.1678435355424881 0.5881264805793762
0.636401355266571 0.24530228972434998 0.4724242389202118
0.586992621421814 0.211727112531662 0.5148156881332397
0.5437449812889099 0.31886181235313416 0.47162187099456787
0.6101977825164795 0.13020405173301697 0.48408451676368713
0.6597139835357666 0.12484423816204071 0.5237008929252625
0.6233897805213928 0.152959406375885 0.42211368680000305
0.5680583715438843 0.29935821890830994 0.5140182375907898
0.5394458770751953 0.19695013761520386 0.49520057439804077
0.5790497064590454 0.2693994343280792 0.549222469329834
0.6221758127212524 0.11665944755077362 0.43677499890327454
0.6370777487754822 0.2003103345632553 0.5545328259468079
0.5904703140258789 0.19766849279403687 0.41091805696487427
0.5488478541374207 0.2956109642982483 0.47474008798599243
0.6250635385513306 0.1119077280163765 0.4204096496105194
0.5887763500213623 0.2861303687095642 0.522289514541626
0.6084226369857788 0.22941294312477112 0.5095272064208984
0.5052363872528076 0.15227171778678894 0.6023238301277161
0.5558879375457764 0.2942902743816376 0.5385819673538208
0.5839323401451111 0.11072239279747009 0.5224960446357727
0.5511385798454285 0.15509754419326782 0.5534573793411255
0.592532753944397 0.26948001980781555 0.4514279365539551
0.4912415146827698 0.199344664812088 0.46682196855545044
0.6092814803123474 0.26631298661231995 0.5112714171409607
0.48550286889076233 0.16778388619422913 0.578951895236969
0.5317270159721375 0.12677901983261108 0.42197126150131226
0.619205892086029 0.24772736430168152 0.412351131439209
0.5515730977058411 0.2393880933523178 0.4445706605911255
0.4784407317638397 0.16129335761070251 0.5958282351493835
0.6961410045623779 0.17941752076148987 0.46906763315200806
0.6749412417411804 0.20465892553329468 0.5048185586929321
0.5734823346138 0.17552423477172852 0.4997040033340454
0.5375544428825378 0.22646360099315643 0.5786037445068359
0.636110246181488 0.1601686030626297 0.4903039336204529
0.651655375957489 0.17623454332351685 0.4007071256637573
0.5284535884857178 0.15827932953834534 0.559749186038971
0.6068530082702637 0.10568995773792267 0.38428086042404175
0.5394746661186218 0.2351846545934677 0.5536133050918579
0.5876380801200867 0.1361408829689026 0.5758938789367676
0.5473618507385254 0.2838766872882843 0.6034034490585327
0.6473583579063416 0.11211906373500824 0.5294476747512817
0.510459303855896 0.19461695849895477 0.4433647692203522
0.557965099811554 0.13470037281513214 0.4376164972782135
0.6311823725700378 0.1263681799173355 0.3930476903915405
0.5462576746940613 0.1547282338142395 0.5256965756416321
0.6319538354873657 0.26914218068122864 0.5328633785247803
0.6363858580589294 0.2368493676185608 0.5528793334960938
0.6379263401031494 0.17076623439788818 0.4470440745353699
0.6567100882530212 0.21702639758586884 0.45762529969215393
0.6425125598907471 0.20292441546916962 0.48877325654029846
0.4738898277282715 0.1428656429052353 0.48205649852752686
0.5926774144172668 0.11681976914405823 0.41994205117225647
0.6117382645606995 0.11665388941764832 0.5377759337425232
0.5483448505401611 0.23144859075546265 0.4455483555793762
0.5127013921737671 0.2105521261692047 0.5692313313484192
0.6139180064201355 0.24212604761123657 0.48674437403678894
0.5632522106170654 0.28863006830215454 0.44512322545051575
0.6275641918182373 0.22728587687015533 0.5884237289428711
0.4828125834465027 0.1683087944984436 0.5117132663726807
0.5071986317634583 0.18192975223064423 0.5446056127548218
0.6569231152534485 0.17386028170585632 0.5655058026313782
0.6748260855674744 0.22398273646831512 0.5924520492553711
0.5646728277206421 0.1554274559020996 0.4523724615573883
0.5866889357566833 0.20719397068023682 0.5311839580535889
0.6302025318145752 0.10376273095607758 0.5467398166656494
0.5219436287879944 0.20732320845127106 0.47729745507240295
0.5861693620681763 0.28691479563713074 0.533143162727356
0.5683487057685852 0.2838973104953766 0.4381760060787201
0.5133204460144043 0.13589932024478912 0.5149608850479126
0.4906628131866455 0.17473939061164856 0.5974255800247192
0.6535882949829102 0.2132773995399475 0.5467672944068909
0.5813233852386475 0.2778507471084595 0.529000997543335
0.49026283621788025 0.23049616813659668 0.5011047124862671
0.5798668265342712 0.27517667412757874 0.5616692900657654
0.5854312777519226 0.13544835150241852 0.5404525995254517
0.6804141402244568 0.18313805758953094 0.4570007622241974
0.6323492527008057 0.2668103575706482 0.5140519142150879
0.5585840940475464 0.1702391803264618 0.4094718396663666
0.5355764627456665 0.2937065064907074 0.49081453680992126
0.5762832164764404 0.1800234466791153 0.5024378895759583
0.6197758316993713 0.10900239646434784 0.42776814103126526
0.5224260091781616 0.14772051572799683 0.5454837083816528
0.5814522504806519 0.23248006403446198 0.4921548068523407
0.5174722075462341 0.1748661994934082 0.45954570174217224
0.6070132255554199 0.11519850790500641 0.47465670108795166
0.49183663725852966 0.17825248837471008 0.4837699830532074
0.5440979599952698 0.1270124316215515 0.4208294451236725
0.6966636180877686 0.19142188131809235 0.49806591868400574
0.7112630605697632 0.20069701969623566 0.5216122269630432
0.6670019626617432 0.16233043372631073 0.4099319279193878
0.6970010995864868 0.2239328771829605 0.44732049107551575
0.6118513345718384 0.251980185508728 0.49690696597099304
0.6023288369178772 0.10525716096162796 0.433511883020401
0.6165813207626343 0.13560448586940765 0.42177507281303406
0.5594266653060913 0.25826215744018555 0.49738609790802
0.7057794332504272 0.2170887440443039 0.45145753026008606
0.5410731434822083 0.17206870019435883 0.5330515503883362
0.5573607087135315 0.14034777879714966 0.5795403122901917
0.4921615421772003 0.16154468059539795 0.4427947402000427
0.5665243268013 0.2635287940502167 0.47973018884658813
0.6105630397796631 0.22119566798210144 0.5795304775238037
0.6487351059913635 0.22169746458530426 0.40609392523765564
0.4765607416629791 0.14442524313926697 0.5609365105628967
0.6046815514564514 0.16432514786720276 0.5322945713996887
0.5037317276000977 0.14866434037685394 0.4522870182991028
0.5173004269599915 0.14443162083625793 0.4812234342098236
0.6855083703994751 0.23430629074573517 0.4708467125892639
0.6304929852485657 0.17391154170036316 0.4754379093647003
0.6071820259094238 0.13914251327514648 0.5633203387260437
0.5435896515846252 0.29334214329719543 0.5503840446472168
0.632981538772583 0.14893710613250732 0.488473504781723
0.6863020658493042 0.18564027547836304 0.48777687549591064
0.608585000038147 0.2843436002731323 0.6001752614974976
0.6455743312835693 0.20718398690223694 0.489524245262146
0.5642872452735901 0.2682545781135559 0.5342496633529663
0.5982537865638733 0.15741054713726044 0.46771666407585144
0.6961180567741394 0.1444578319787979 0.5553101897239685
0.6088651418685913 0.24827292561531067 0.430180162191391
0.5504705309867859 0.2371044158935547 0.49486467242240906
0.5398634076118469 0.11906100064516068 0.5535445213317871
0.5366023182868958 0.18193171918392181 0.4249316155910492
0.5951147079467773 0.15085569024085999 0.5051084756851196
0.6299977898597717 0.13828541338443756 0.5523646473884583
0.6056274175643921 0.12930820882320404 0.5842700004577637
0.6454528570175171 0.22848795354366302 0.4675486087799072
0.5617607831954956 0.26568201184272766 0.5800173282623291
0.573924720287323 0.17178349196910858 0.48261988162994385
0.5533101558685303 0.1444142460823059 0.5905112028121948
0.5279808640480042 0.1376488208770752 0.4431101381778717
0.6428201794624329 0.1520119458436966 0.5240623950958252
0.6528105735778809 0.2581556439399719 0.41222748160362244
0.6119039058685303 0.11804638803005219 0.48573577404022217
0.6108274459838867 0.23462586104869843 0.42295825481414795
0.5316135287284851 0.15210813283920288 0.466002494096756
0.6459823250770569 0.20268747210502625 0.43627864122390747
0.5703474879264832 0.14332646131515503 0.5294979810714722
0.5879889726638794 0.21615289151668549 0.5478015542030334
0.5420339107513428 0.13852594792842865 0.5642946362495422
0.6880125999450684 0.21878375113010406 0.49042272567749023
0.6341266632080078 0.2438744753599167 0.4705601930618286
0.563171923160553 0.1194901168346405 0.4875117838382721
0.7052981853485107 0.19265471398830414 0.4655853807926178
0.6340909600257874 0.14452791213989258 0.5651035904884338
0.5684142112731934 0.25291508436203003 0.5160202383995056
0.48003318905830383 0.1816050261259079 0.5825425386428833
0.6118513345718384 0.251980185508728 0.49690696597099304
0.5816682577133179 0.2917959988117218 0.5875065326690674
0.6269489526748657 0.20761853456497192 0.4302402436733246
0.6033667922019958 0.1296984702348709 0.46160265803337097
0.5781236886978149 0.23089803755283356 0.47921499609947205
0.5692346692085266 0.1566336303949356 0.5957631468772888
0.5176008939743042 0.21983036398887634 0.582283616065979
0.6132017374038696 0.19276310503482819 0.468046635389328
0.6775893568992615 0.22853903472423553 0.4474410116672516
0.5669581890106201 0.25173789262771606 0.5790207982063293
0.552442729473114 0.19985197484493256 0.4268862307071686
0.5389878153800964 0.18917302787303925 0.5569161772727966
0.5533101558685303 0.1444142460823059 0.5905112028121948
0.5279808640480042 0.1376488208770752 0.4431101381778717
0.5222316384315491 0.20031791925430298 0.5779423713684082
0.6432029008865356 0.15895557403564453 0.48006588220596313
0.5989284515380859 0.11469125747680664 0.5734937787055969
0.6727373003959656 0.21918821334838867 0.42770907282829285
0.5384657382965088 0.292726069688797 0.47870784997940063
0.6691473126411438 0.18935881555080414 0.45122185349464417
0.5042836666107178 0.23329654335975647 0.5229107141494751
0.6100999116897583 0.2677629292011261 0.5066218376159668
