ply
format ascii 1.0
element vertex 830
property float x
property float y
property float z
end_header
0.5075064897537231 0.22940607368946075 0.4676409661769867
0.5814192295074463 0.33525270223617554 0.5089181661605835
0.6955109238624573 0.22704216837882996 0.5066671967506409
0.663216233253479 0.12138637900352478 0.523859441280365
0.5854607224464417 0.31732845306396484 0.5282080769538879
0.6200595498085022 0.11715361475944519 0.38501137495040894
0.6540059447288513 0.12218790501356125 0.3849881887435913
0.6227374076843262 0.1935964673757553 0.4664939045906067
0.5276462435722351 0.19607438147068024 0.5320857167243958
0.601995587348938 0.1538204550743103 0.5723057985305786
0.5656545758247375 0.2083861082792282 0.5064876079559326
0.6322712302207947 0.13034366071224213 0.4071888327598572
0.5374311804771423 0.20099884271621704 0.512969434261322
0.5230847001075745 0.1735834777355194 0.5282933115959167
0.5340169072151184 0.2329752892255783 0.48042845726013184
0.646367073059082 0.30841994285583496 0.5190614461898804
0.5554525852203369 0.3258005976676941 0.4481220841407776
0.5988742113113403 0.20302250981330872 0.3973504602909088
0.6263726949691772 0.31000053882598877 0.5295932292938232
0.6203402876853943 0.29685214161872864 0.6016842126846313
0.5920400023460388 0.3209855556488037 0.5880034565925598
0.6263726949691772 0.31000053882598877 0.5295932292938232
0.6203402876853943 0.29685214161872864 0.6016842126846313
0.6520974636077881 0.1262540966272354 0.49732744693756104
0.6690577268600464 0.1791580617427826 0.45924729108810425
0.6510959267616272 0.165718674659729 0.4644136428833008
0.6510959267616272 0.165718674659729 0.4644136428833008
0.694088339805603 0.2681381404399872 0.465846985578537
0.5665968060493469 0.336319237947464 0.5453909635543823
0.6589594483375549 0.24191270768642426 0.4726172983646393
0.6012744307518005 0.3192328214645386 0.5616514682769775
0.5889577865600586 0.21007294952869415 0.5948790311813354
0.5366582870483398 0.31659379601478577 0.4515182077884674
0.612678587436676 0.24369417130947113 0.4140971601009369
0.5366255640983582 0.16818860173225403 0.5766034126281738
0.7068026661872864 0.24747739732265472 0.4711071252822876
0.5677953958511353 0.32585516571998596 0.44601789116859436
0.6886908411979675 0.26276785135269165 0.46149858832359314
0.6117337346076965 0.2806858718395233 0.5043367743492126
0.545876145362854 0.28710460662841797 0.5771297812461853
0.5600517392158508 0.21518993377685547 0.5416378974914551
0.6720993518829346 0.23131965100765228 0.47708001732826233
0.700654923915863 0.20981143414974213 0.5336178541183472
0.5416629314422607 0.24581944942474365 0.5824403166770935
0.5516309142112732 0.3179994821548462 0.45965251326560974
0.5651000142097473 0.30814918875694275 0.575768768787384
0.5340169072151184 0.2329752892255783 0.48042845726013184
0.6203402876853943 0.29685214161872864 0.6016842126846313
0.6520974636077881 0.1262540966272354 0.49732744693756104
0.6690577268600464 0.1791580617427826 0.45924729108810425
0.6510959267616272 0.165718674659729 0.4644136428833008
0.694088339805603 0.2681381404399872 0.465846985578537
0.5665968060493469 0.336319237947464 0.5453909635543823
0.5433369278907776 0.1730014830827713 0.5673758387565613
0.6012744307518005 0.3192328214645386 0.5616514682769775
0.5889577865600586 0.21007294952869415 0.5948790311813354
0.5366582870483398 0.31659379601478577 0.4515182077884674
0.6518188714981079 0.25005125999450684 0.43710803985595703
0.5366255640983582 0.16818860173225403 0.5766034126281738
0.7068026661872864 0.24747739732265472 0.4711071252822876
0.5677953958511353 0.32585516571998596 0.44601789116859436
0.6886908411979675 0.26276785135269165 0.46149858832359314
0.6117337346076965 0.2806858718395233 0.5043367743492126
0.545876145362854 0.28710460662841797 0.5771297812461853
0.545876145362854 0.28710460662841797 0.5771297812461853
0.5600517392158508 0.21518993377685547 0.5416378974914551
0.6720993518829346 0.23131965100765228 0.47708001732826233
0.700654923915863 0.20981143414974213 0.5336178541183472
0.6395418643951416 0.19639882445335388 0.4558422863483429
0.5902913808822632 0.3121243119239807 0.5954325795173645
0.5696487426757812 0.30537480115890503 0.5937061309814453
0.5464676022529602 0.13676883280277252 0.492106169462204
0.5906210541725159 0.3102683126926422 0.6070008277893066
0.6516992449760437 0.12320773303508759 0.41842976212501526
0.6516178846359253 0.29123684763908386 0.5865635871887207
0.6605713367462158 0.23140427470207214 0.41635528206825256
0.6701089143753052 0.22740007936954498 0.4413045644760132
0.6034424304962158 0.1264186054468155 0.391264408826828
0.5340169072151184 0.2329752892255783 0.48042845726013184
0.5955812931060791 0.21770082414150238 0.5246501564979553
0.5079806447029114 0.20166015625 0.4232628345489502
0.5356869697570801 0.2576889395713806 0.5365827083587646
0.7075645923614502 0.21801017224788666 0.5385416150093079
0.6968418955802917 0.17947711050510406 0.4795473515987396
0.5235377550125122 0.1916303038597107 0.5209609866142273
0.6234514117240906 0.21289141476154327 0.5519220232963562
0.541092038154602 0.23107968270778656 0.4304371178150177
0.6981967687606812 0.19604964554309845 0.49720829725265503
0.5272969007492065 0.2714436650276184 0.4644528925418854
0.5251665115356445 0.24167761206626892 0.5553634166717529
0.6732062101364136 0.18155214190483093 0.516096830368042
0.6642418503761292 0.1869516372680664 0.5181821584701538
0.5420994758605957 0.2740480899810791 0.5143471956253052
0.5526527166366577 0.23813775181770325 0.4972938299179077
0.6057143807411194 0.26608914136886597 0.5459061861038208
0.6226028203964233 0.13197462260723114 0.46687033772468567
0.5552579760551453 0.16219796240329742 0.4971405863761902
0.6295896768569946 0.1599549651145935 0.5310125350952148
0.5858683586120605 0.3020840287208557 0.5241273641586304
0.5426015853881836 0.312737375497818 0.4983813166618347
0.5324320793151855 0.22215300798416138 0.598625659942627
0.5370022058486938 0.21978718042373657 0.5025975704193115
0.629593551158905 0.25877395272254944 0.5907261371612549
0.6965081095695496 0.21690505743026733 0.5682471990585327
0.589519739151001 0.14460399746894836 0.4626387059688568
0.6085169911384583 0.14335821568965912 0.5566819310188293
0.6906344294548035 0.2511056959629059 0.4053587317466736
0.5710937976837158 0.27424174547195435 0.47714394330978394
0.661348283290863 0.171543687582016 0.4009262025356293
0.5583384037017822 0.1531989872455597 0.4382452964782715
0.7219445705413818 0.21800154447555542 0.5404191613197327
0.5585944056510925 0.28998875617980957 0.5387250781059265
0.5712348818778992 0.13350920379161835 0.5866591334342957
0.7068026661872864 0.24747739732265472 0.4711071252822876
0.5677953958511353 0.32585516571998596 0.44601789116859436
0.6886908411979675 0.26276785135269165 0.46149858832359314
0.6117337346076965 0.2806858718395233 0.5043367743492126
0.545876145362854 0.28710460662841797 0.5771297812461853
0.5600517392158508 0.21518993377685547 0.5416378974914551
0.6720993518829346 0.23131965100765228 0.47708001732826233
0.700654923915863 0.20981143414974213 0.5336178541183472
0.6395418643951416 0.19639882445335388 0.4558422863483429
0.5902913808822632 0.3121243119239807 0.5954325795173645
0.5696487426757812 0.30537480115890503 0.5937061309814453
0.5464676022529602 0.13676883280277252 0.492106169462204
0.5906210541725159 0.3102683126926422 0.6070008277893066
0.6216223835945129 0.1616026908159256 0.4131254553794861
0.5204046368598938 0.1996130794286728 0.5948103666305542
0.5753524303436279 0.18052688241004944 0.3939567506313324
0.6701089143753052 0.22740007936954498 0.4413045644760132
0.6861830353736877 0.18819160759449005 0.44090282917022705
0.6559016704559326 0.26873934268951416 0.5021371841430664
0.5652147531509399 0.16429995000362396 0.4091346859931946
0.6431406736373901 0.2599230706691742 0.4435301721096039
0.6704536080360413 0.23313403129577637 0.4901414215564728
0.6249966025352478 0.2133702039718628 0.502045750617981
0.5104597210884094 0.1647472083568573 0.437804251909256
0.4932135343551636 0.19934701919555664 0.49620914459228516
0.5873951315879822 0.23518773913383484 0.42540299892425537
0.5683680772781372 0.22615082561969757 0.5442786812782288
0.5211853384971619 0.2864583432674408 0.4367481470108032
0.6911357641220093 0.21011319756507874 0.5843372941017151
0.5851882696151733 0.14362064003944397 0.5760703086853027
0.5417004227638245 0.18411847949028015 0.4236132800579071
0.6784957051277161 0.2018471211194992 0.538877546787262
0.6442716717720032 0.23906071484088898 0.48498791456222534
0.6690943241119385 0.1880270093679428 0.5878937244415283
0.5486379861831665 0.14960278570652008 0.41631147265434265
0.6668018698692322 0.2567259669303894 0.4678095877170563
0.6245200634002686 0.11073505133390427 0.5207796692848206
0.5367121696472168 0.22595562040805817 0.4615115523338318
0.5944850444793701 0.16382087767124176 0.5645550489425659
0.6588953137397766 0.24007707834243774 0.590897798538208
0.6276366114616394 0.21317045390605927 0.5649423003196716
0.7067680358886719 0.251351535320282 0.5903302431106567
0.6238411664962769 0.12717601656913757 0.4830034077167511
0.6807166934013367 0.23423409461975098 0.4422058165073395
0.6195898056030273 0.20767417550086975 0.4242507517337799
0.6734015941619873 0.18218739330768585 0.5137836337089539
0.5859676599502563 0.2923046052455902 0.5153834819793701
0.7272440791130066 0.2504078149795532 0.507078230381012
0.5776798129081726 0.3100963234901428 0.43456366658210754
0.6742807626724243 0.2367248833179474 0.5544002652168274
0.6865761280059814 0.26463213562965393 0.5161526203155518
0.645370364189148 0.21246881783008575 0.5452778339385986
0.541226327419281 0.2595826983451843 0.43965989351272583
0.6100743412971497 0.2588571310043335 0.5028777718544006
0.5456979274749756 0.31850504875183105 0.48822012543678284
0.6039190292358398 0.21195721626281738 0.47227615118026733
0.6946577429771423 0.17460831999778748 0.518068790435791
0.6540910601615906 0.22143146395683289 0.5419539213180542
0.6726399064064026 0.21243441104888916 0.39861592650413513
0.557013988494873 0.24383999407291412 0.5164686441421509
0.6185076236724854 0.18441134691238403 0.447160005569458
0.646367073059082 0.30841994285583496 0.5190614461898804
0.6421329975128174 0.19337300956249237 0.4076196551322937
0.5268958210945129 0.1562427133321762 0.48246386647224426
0.5075084567070007 0.20569370687007904 0.41945719718933105
0.6656729578971863 0.11919233202934265 0.5680054426193237
0.6175461411476135 0.134343683719635 0.5313410758972168
0.5548604726791382 0.29343539476394653 0.5038055181503296
0.6004573702812195 0.30668768286705017 0.5998653769493103
0.6379584670066833 0.15874531865119934 0.49948740005493164
0.6078104972839355 0.2960786819458008 0.47599807381629944
0.621026337146759 0.3074894845485687 0.5700933933258057
0.5726265907287598 0.24950815737247467 0.44793999195098877
0.5657473802566528 0.22003036737442017 0.47128093242645264
0.612029492855072 0.23379215598106384 0.4363195598125458
0.6749423146247864 0.26801905035972595 0.4204913079738617
0.5768082141876221 0.12923851609230042 0.4875076711177826
0.6288869976997375 0.1859976053237915 0.4363832175731659
0.582876980304718 0.13494664430618286 0.4624808728694916
0.6062541604042053 0.26446470618247986 0.4815376102924347
0.6503475904464722 0.2888983488082886 0.5578403472900391
0.6019144058227539 0.32155823707580566 0.5936282277107239
0.586824357509613 0.15240685641765594 0.5791621804237366
0.6443519592285156 0.10417166352272034 0.5654697418212891
0.6988990902900696 0.18587155640125275 0.4920087158679962
0.5635340213775635 0.29140591621398926 0.5643334984779358
0.6505768895149231 0.13491219282150269 0.4755615293979645
0.6147823929786682 0.2236323058605194 0.48174822330474854
0.5860496163368225 0.155741885304451 0.5446937084197998
0.6524232029914856 0.20629848539829254 0.532954752445221
0.6442268490791321 0.10943093150854111 0.5688976645469666
0.5600866079330444 0.17066346108913422 0.5818883180618286
0.6760468482971191 0.1975279152393341 0.566274106502533
0.5988742113113403 0.20302250981330872 0.3973504602909088
0.5732728242874146 0.19490660727024078 0.5107042789459229
0.6383717656135559 0.21515978872776031 0.551916778087616
0.6147662997245789 0.19793809950351715 0.5642293095588684
0.6889590620994568 0.23913943767547607 0.4740549921989441
0.702694833278656 0.21568261086940765 0.45904192328453064
0.5691626071929932 0.20060668885707855 0.5635517239570618
0.5443851947784424 0.2201867550611496 0.5393800735473633
0.5696591138839722 0.15277910232543945 0.4586498737335205
0.6512983441352844 0.23404870927333832 0.5231288075447083
0.5884327292442322 0.29355496168136597 0.5309995412826538
0.6426417827606201 0.13432465493679047 0.40809011459350586
0.6943888068199158 0.26552262902259827 0.44718247652053833
0.5946760177612305 0.17832845449447632 0.582242488861084
0.6349765658378601 0.30464696884155273 0.48140236735343933
0.6543086767196655 0.1330762654542923 0.4643048048019409
0.660200834274292 0.17258460819721222 0.44857317209243774
0.6017389893531799 0.11726877838373184 0.5084528923034668
0.5478070974349976 0.15068170428276062 0.5515615344047546
0.5978180766105652 0.21290837228298187 0.43710455298423767
0.6853786110877991 0.21953901648521423 0.5789034366607666
0.5664539337158203 0.1978055238723755 0.5395163893699646
0.5878907442092896 0.20954978466033936 0.48655062913894653
0.5568909645080566 0.17241352796554565 0.5926375389099121
0.5443149209022522 0.20731626451015472 0.42048338055610657
0.6539041996002197 0.1526513248682022 0.40043553709983826
0.514471709728241 0.1909264624118805 0.4495898485183716
0.6358335614204407 0.20697170495986938 0.5913159847259521
0.6411435604095459 0.2500956058502197 0.4730777144432068
0.6941009759902954 0.2450075000524521 0.4780219495296478
0.6372085213661194 0.10394548624753952 0.4745313227176666
0.5706104636192322 0.2562793493270874 0.5261366367340088
0.6200595498085022 0.11715361475944519 0.38501137495040894
0.5600517392158508 0.21518993377685547 0.5416378974914551
0.6720993518829346 0.23131965100765228 0.47708001732826233
0.700654923915863 0.20981143414974213 0.5336178541183472
0.6395418643951416 0.19639882445335388 0.4558422863483429
0.5902913808822632 0.3121243119239807 0.5954325795173645
0.5696487426757812 0.30537480115890503 0.5937061309814453
0.5319526195526123 0.2994609773159027 0.48045942187309265
0.5621177554130554 0.31939682364463806 0.4930609166622162
0.5696694254875183 0.2709519565105438 0.5672052502632141
0.5532786250114441 0.24786722660064697 0.551849365234375
0.6680470705032349 0.2017969787120819 0.4203536808490753
0.5181211829185486 0.22128306329250336 0.526340126991272
0.6101619601249695 0.11263194680213928 0.4523312747478485
0.589479386806488 0.17385320365428925 0.527385413646698
0.6343495845794678 0.1072465032339096 0.4950116276741028
0.5521246194839478 0.23394782841205597 0.49994170665740967
0.5712666511535645 0.16494353115558624 0.3917945921421051
0.6566989421844482 0.12199629843235016 0.4919211268424988
0.5541948676109314 0.3194938004016876 0.5153006911277771
0.6018884778022766 0.14228802919387817 0.5674604177474976
0.6796603202819824 0.2678750455379486 0.4159890115261078
0.6648877859115601 0.18203593790531158 0.49993404746055603
0.7274318933486938 0.23703913390636444 0.5896139740943909
0.5802884101867676 0.3258563280105591 0.41959428787231445
0.6586712598800659 0.23132459819316864 0.46656590700149536
0.6173775792121887 0.3177492618560791 0.5576604604721069
0.6319572329521179 0.11720678955316544 0.38648954033851624
0.6429578065872192 0.16417893767356873 0.41522184014320374
0.6075661182403564 0.2198907732963562 0.5594556927680969
0.6892236471176147 0.1876297891139984 0.5164830684661865
0.5775205492973328 0.19324590265750885 0.5429980158805847
0.5585944056510925 0.28998875617980957 0.5387250781059265
0.6796358227729797 0.12893275916576385 0.5201846957206726
0.6901859045028687 0.181260883808136 0.5411764979362488
0.5528995990753174 0.262994647026062 0.5145434737205505
0.6443575024604797 0.17302162945270538 0.48077642917633057
0.711871325969696 0.19130927324295044 0.5797995328903198
0.6221276521682739 0.31046003103256226 0.562574028968811
0.6450445055961609 0.22411665320396423 0.5390132665634155
0.5238983035087585 0.1428317278623581 0.5965654253959656
0.6373586058616638 0.27415332198143005 0.5559127926826477
0.6116986870765686 0.1753426492214203 0.41519033908843994
0.5601548552513123 0.25644370913505554 0.5734465718269348
0.5614302158355713 0.18937890231609344 0.5707052946090698
0.6179197430610657 0.30435892939567566 0.5224143862724304
0.6394392848014832 0.12722738087177277 0.3977287709712982
0.5326308608055115 0.16062809526920319 0.43400391936302185
0.6192010045051575 0.18990400433540344 0.49935832619667053
0.5983437895774841 0.22491255402565002 0.5976381301879883
0.5513953566551208 0.17931628227233887 0.5992074608802795
0.6773556470870972 0.18965455889701843 0.4699094891548157
0.6017516851425171 0.2688761353492737 0.4707593321800232
0.5630496740341187 0.3338313698768616 0.4248497188091278
0.5097123384475708 0.22234289348125458 0.43706971406936646
0.5892224907875061 0.29596036672592163 0.46660155057907104
0.553394079208374 0.2375730723142624 0.5364478826522827
0.7060832977294922 0.2788067162036896 0.40956810116767883
0.5101712942123413 0.17505618929862976 0.5422657132148743
0.5929145216941833 0.23070235550403595 0.5684937834739685
0.5853039026260376 0.26342087984085083 0.41198474168777466
0.6418921947479248 0.21276940405368805 0.5023568272590637
0.5354546308517456 0.1613181084394455 0.5606364607810974
0.6330700516700745 0.3004087209701538 0.446306973695755
0.7025960087776184 0.2524716854095459 0.5576543211936951
0.5477023124694824 0.18863676488399506 0.5574858784675598
0.7097265124320984 0.23646163940429688 0.5768469572067261
0.6391631960868835 0.273930162191391 0.5809990167617798
0.5068384408950806 0.19210979342460632 0.5366673469543457
0.6954595446586609 0.17054609954357147 0.5064403414726257
0.5623900890350342 0.3188549280166626 0.5858915448188782
0.6074877977371216 0.25616633892059326 0.44388461112976074
0.6326945424079895 0.24352425336837769 0.5283135771751404
0.5515648126602173 0.22119423747062683 0.5344594120979309
0.5850188136100769 0.31829723715782166 0.5532013773918152
0.5545457601547241 0.17770038545131683 0.5186837315559387
0.6493654847145081 0.23955345153808594 0.5529206991195679
0.5915545225143433 0.3384370803833008 0.5897812843322754
0.5860496163368225 0.155741885304451 0.5446937084197998
0.6524232029914856 0.20629848539829254 0.532954752445221
0.6442268490791321 0.10943093150854111 0.5688976645469666
0.5600866079330444 0.17066346108913422 0.5818883180618286
0.5663051605224609 0.14253032207489014 0.5639474987983704
0.6664353013038635 0.22762306034564972 0.45535147190093994
0.7000453472137451 0.1920684427022934 0.4794006943702698
0.5097998976707458 0.16663840413093567 0.561822772026062
0.6167017221450806 0.18950369954109192 0.5128117203712463
0.5833249688148499 0.32094064354896545 0.47972631454467773
0.5795885324478149 0.19913041591644287 0.5472713708877563
0.7161404490470886 0.21856530010700226 0.5415023565292358
0.6269965767860413 0.2659318745136261 0.5044234395027161
0.6755062937736511 0.24304717779159546 0.4310131072998047
0.6876804232597351 0.2190721184015274 0.45446324348449707
0.595525860786438 0.1647801548242569 0.45377615094184875
0.6965591907501221 0.21079832315444946 0.5068577527999878
0.5873778462409973 0.32985106110572815 0.5490977168083191
0.6954595446586609 0.17054609954357147 0.5064403414726257
0.5623900890350342 0.3188549280166626 0.5858915448188782
0.6074877977371216 0.25616633892059326 0.44388461112976074
0.6326945424079895 0.24352425336837769 0.5283135771751404
0.5515648126602173 0.22119423747062683 0.5344594120979309
0.5850188136100769 0.31829723715782166 0.5532013773918152
0.5545457601547241 0.17770038545131683 0.5186837315559387
0.6887867450714111 0.2473638653755188 0.5206668972969055
0.5860496163368225 0.155741885304451 0.5446937084197998
0.6524232029914856 0.20629848539829254 0.532954752445221
0.6442268490791321 0.10943093150854111 0.5688976645469666
0.5600866079330444 0.17066346108913422 0.5818883180618286
0.6760468482971191 0.1975279152393341 0.566274106502533
0.6575179696083069 0.19011466205120087 0.4816809296607971
0.6396054029464722 0.2233479619026184 0.5058943629264832
0.5826757550239563 0.15796157717704773 0.4803869426250458
0.6210024952888489 0.17629672586917877 0.5204876065254211
0.5833249688148499 0.32094064354896545 0.47972631454467773
0.5795885324478149 0.19913041591644287 0.5472713708877563
0.7161404490470886 0.21856530010700226 0.5415023565292358
0.6269965767860413 0.2659318745136261 0.5044234395027161
0.6755062937736511 0.24304717779159546 0.4310131072998047
0.6876804232597351 0.2190721184015274 0.45446324348449707
0.6573042869567871 0.14369900524616241 0.40982091426849365
0.5760253071784973 0.28792792558670044 0.5230059623718262
0.6943742632865906 0.21939511597156525 0.4436258375644684
0.5964488387107849 0.1619044691324234 0.45443835854530334
0.6703407764434814 0.15443874895572662 0.5300442576408386
0.5282727479934692 0.2183847725391388 0.5305697917938232
0.703568160533905 0.1890995353460312 0.49544522166252136
0.5240482091903687 0.2268282026052475 0.5799897313117981
0.6331623196601868 0.10648205131292343 0.4208717346191406
0.5346964597702026 0.2487829327583313 0.6088213920593262
0.6946577429771423 0.17460831999778748 0.518068790435791
0.6540910601615906 0.22143146395683289 0.5419539213180542
0.6726399064064026 0.21243441104888916 0.39861592650413513
0.557013988494873 0.24383999407291412 0.5164686441421509
0.6185076236724854 0.18441134691238403 0.447160005569458
0.5392933487892151 0.24538648128509521 0.5720465183258057
0.5288949608802795 0.1410655677318573 0.5795260071754456
0.600752592086792 0.1529819816350937 0.5469955205917358
0.7125748991966248 0.20381546020507812 0.5399461388587952
0.5846589207649231 0.25175347924232483 0.4223014712333679
0.6472554206848145 0.21015621721744537 0.5422149896621704
0.5785810351371765 0.1615023910999298 0.42791256308555603
0.5669822096824646 0.2735534906387329 0.46668973565101624
0.5684589743614197 0.3541100323200226 0.5160941481590271
0.6704227924346924 0.20520110428333282 0.43746596574783325
0.5694720149040222 0.15358571708202362 0.48198363184928894
0.6567943692207336 0.27856406569480896 0.5665347576141357
0.5809529423713684 0.256395161151886 0.4811830520629883
0.5940231680870056 0.22452546656131744 0.5193479657173157
0.6370820999145508 0.1774950623512268 0.589502215385437
0.5663319826126099 0.20033353567123413 0.5185852646827698
0.6946914196014404 0.17240972816944122 0.4950312376022339
0.6583458781242371 0.25749868154525757 0.5228389501571655
0.6661862730979919 0.1894872933626175 0.45202335715293884
0.5567415356636047 0.2300868034362793 0.42723262310028076
0.6682626605033875 0.1931847631931305 0.48223254084587097
0.6265637874603271 0.2671462893486023 0.5848677754402161
0.6307122707366943 0.31477877497673035 0.42297327518463135
0.5533775091171265 0.18314088881015778 0.5148065686225891
0.599152147769928 0.3321766257286072 0.4690494239330292
0.6184272766113281 0.1688188910484314 0.4655124247074127
0.6017389893531799 0.11726877838373184 0.5084528923034668
0.6941009759902954 0.2450075000524521 0.4780219495296478
0.6372085213661194 0.10394548624753952 0.4745313227176666
0.5706104636192322 0.2562793493270874 0.5261366367340088
0.5921142101287842 0.25375497341156006 0.41510799527168274
0.65959233045578 0.12600691616535187 0.5171496868133545
0.6491566896438599 0.1707407683134079 0.4785324037075043
0.6470227241516113 0.24761497974395752 0.5255333185195923
0.5859103202819824 0.12721794843673706 0.4793910086154938
0.6909650564193726 0.2363128364086151 0.5087906122207642
0.5667194128036499 0.16257083415985107 0.57325279712677
0.6199551820755005 0.2557441294193268 0.41741517186164856
0.5409995913505554 0.3267185091972351 0.4389486014842987
0.6257432699203491 0.16989973187446594 0.5603948831558228
0.7121269702911377 0.2175218164920807 0.5659291744232178
0.5384570360183716 0.17542174458503723 0.5398494005203247
0.6041618585586548 0.19486424326896667 0.5072716474533081
0.6200291514396667 0.1253364384174347 0.43919727206230164
0.6252310276031494 0.20659832656383514 0.5574753880500793
0.5088178515434265 0.15152794122695923 0.4603438675403595
0.5204431414604187 0.22802090644836426 0.5130515694618225
0.6331623196601868 0.10648205131292343 0.4208717346191406
0.5159260630607605 0.252408891916275 0.49805954098701477
0.5610526204109192 0.21495069563388824 0.4889184832572937
0.6148622035980225 0.2693508267402649 0.5351132154464722
0.5946292877197266 0.122064970433712 0.48451581597328186
0.696829617023468 0.1954314112663269 0.4861365556716919
0.6190873384475708 0.10663057863712311 0.5313800573348999
0.5916571617126465 0.2909458577632904 0.4943483769893646
0.6479470133781433 0.12269850075244904 0.4901118874549866
0.6533458828926086 0.29529818892478943 0.5504339337348938
0.6150503754615784 0.27950596809387207 0.46408650279045105
0.6742807626724243 0.2367248833179474 0.5544002652168274
0.6946577429771423 0.17460831999778748 0.518068790435791
0.6540910601615906 0.22143146395683289 0.5419539213180542
0.6726399064064026 0.21243441104888916 0.39861592650413513
0.557013988494873 0.24383999407291412 0.5164686441421509
0.6185076236724854 0.18441134691238403 0.447160005569458
0.5392933487892151 0.24538648128509521 0.5720465183258057
0.5288949608802795 0.1410655677318573 0.5795260071754456
0.5307213664054871 0.1545691192150116 0.5932528376579285
0.6643393635749817 0.1851556897163391 0.5812711119651794
0.6024081707000732 0.3213663399219513 0.5429521203041077
0.6624765992164612 0.1225334107875824 0.45939892530441284
0.6043329238891602 0.12849409878253937 0.5352817177772522
0.630407989025116 0.27536606788635254 0.473174512386322
0.5960445404052734 0.18862199783325195 0.4439143240451813
0.6118894815444946 0.15495440363883972 0.4811243414878845
0.6531054973602295 0.18546836078166962 0.42429906129837036
0.5884246230125427 0.15756040811538696 0.41145357489585876
0.6018661260604858 0.11886217445135117 0.5734255313873291
0.5355269312858582 0.2549492418766022 0.5363180637359619
0.6279833912849426 0.23241503536701202 0.47011396288871765
0.4889911711215973 0.16683486104011536 0.4386430084705353
0.6499530076980591 0.1866840273141861 0.5152984857559204
0.6008912920951843 0.15705743432044983 0.5362875461578369
0.534783124923706 0.2101571261882782 0.5018593668937683
0.6702895164489746 0.29510626196861267 0.42362111806869507
0.5442733764648438 0.16140636801719666 0.5507340431213379
0.509499728679657 0.26229122281074524 0.44972172379493713
0.5270302295684814 0.21501822769641876 0.5721848607063293
0.5450767874717712 0.3198428750038147 0.4201328158378601
0.5695596933364868 0.34047260880470276 0.4314534366130829
0.6307269334793091 0.13980862498283386 0.3967626392841339
0.6100743412971497 0.2588571310043335 0.5028777718544006
0.5456979274749756 0.31850504875183105 0.48822012543678284
0.6039190292358398 0.21195721626281738 0.47227615118026733
0.6946577429771423 0.17460831999778748 0.518068790435791
0.6540910601615906 0.22143146395683289 0.5419539213180542
0.6726399064064026 0.21243441104888916 0.39861592650413513
0.557013988494873 0.24383999407291412 0.5164686441421509
0.6185076236724854 0.18441134691238403 0.447160005569458
0.5392933487892151 0.24538648128509521 0.5720465183258057
0.5402121543884277 0.3103712797164917 0.5017778277397156
0.6018256545066833 0.20602014660835266 0.4209114909172058
0.6601457595825195 0.2910117208957672 0.5402682423591614
0.697223961353302 0.23789948225021362 0.5609031319618225
0.5920055508613586 0.30389508605003357 0.593222439289093
0.6176319718360901 0.265665739774704 0.5505996346473694
0.5063283443450928 0.161598339676857 0.5939468741416931
0.6833670735359192 0.2704366147518158 0.42481866478919983
0.5548615455627441 0.18444964289665222 0.4846321642398834
0.5567939281463623 0.30414316058158875 0.4410121738910675
0.6093493103981018 0.12461844086647034 0.5335710048675537
0.5085622072219849 0.16099247336387634 0.6030474305152893
0.652214527130127 0.1854064017534256 0.5624539852142334
0.5823624730110168 0.12614566087722778 0.5579527616500854
0.5685709118843079 0.34792861342430115 0.4805774688720703
0.5232889652252197 0.20343729853630066 0.5392709374427795
0.6209085583686829 0.23551134765148163 0.43309086561203003
0.5125514268875122 0.24367359280586243 0.42673519253730774
0.5800665020942688 0.2574532628059387 0.5544887781143188
0.5256324410438538 0.24619434773921967 0.4814307987689972
0.6399726271629333 0.23772668838500977 0.43645793199539185
0.6567201018333435 0.19510361552238464 0.5711294412612915
0.5479829907417297 0.13331227004528046 0.5232841968536377
0.5860496163368225 0.155741885304451 0.5446937084197998
0.595525860786438 0.1647801548242569 0.45377615094184875
0.657950758934021 0.24315041303634644 0.5797662138938904
0.5541589856147766 0.21559934318065643 0.4074495732784271
0.697093665599823 0.22303548455238342 0.4670833647251129
0.6921255588531494 0.17650006711483002 0.560956597328186
0.5282727479934692 0.2183847725391388 0.5305697917938232
0.5935136079788208 0.2194276601076126 0.4327610433101654
0.6571139693260193 0.25526103377342224 0.5025427937507629
0.6605328917503357 0.18094126880168915 0.4252079129219055
0.5949077606201172 0.20530574023723602 0.5671830177307129
0.6363587975502014 0.30621644854545593 0.4441272020339966
0.5976181030273438 0.2324611395597458 0.45428767800331116
0.585491955280304 0.2645101547241211 0.42248645424842834
0.593963623046875 0.17158393561840057 0.5814327597618103
0.5290797352790833 0.20919698476791382 0.5509049892425537
0.542689323425293 0.2487921267747879 0.4589170217514038
0.6762935519218445 0.2109932005405426 0.45334818959236145
0.510667085647583 0.26489076018333435 0.44406604766845703
0.6161469221115112 0.1079142838716507 0.5307068824768066
0.6320174932479858 0.15295560657978058 0.4020853638648987
0.6362650990486145 0.2605007588863373 0.48495110869407654
0.5445544719696045 0.20876571536064148 0.5352447032928467
0.5983312129974365 0.2818584442138672 0.5394938588142395
0.618296205997467 0.31445473432540894 0.5406147241592407
0.6001260280609131 0.1384730339050293 0.5468408465385437
0.5581857562065125 0.34193262457847595 0.452382892370224
0.5404896140098572 0.1552777886390686 0.4579935073852539
0.6607617139816284 0.23356527090072632 0.4653415381908417
0.6664762496948242 0.27510857582092285 0.4839744567871094
0.6482619047164917 0.2733745574951172 0.4713954031467438
0.6137678027153015 0.20957635343074799 0.5271428823471069
0.7060832977294922 0.2788067162036896 0.40956810116767883
0.6653546094894409 0.19867372512817383 0.46253299713134766
0.5765023827552795 0.21577560901641846 0.4608129858970642
0.6905159950256348 0.27943527698516846 0.4679846167564392
0.5713173151016235 0.2704489827156067 0.5922678112983704
0.5533962249755859 0.2178754061460495 0.44233864545822144
0.531425416469574 0.21697740256786346 0.5192845463752747
0.6349645256996155 0.18547898530960083 0.5409982204437256
0.4930104911327362 0.17750184237957 0.46483540534973145
0.4994182586669922 0.22321775555610657 0.4453815519809723
0.6173673868179321 0.1576337367296219 0.5338777899742126
0.6403620839118958 0.24247615039348602 0.5097755789756775
0.5801985263824463 0.16439390182495117 0.4517270028591156
0.6037787795066833 0.24781394004821777 0.45230865478515625
0.7036113739013672 0.22405751049518585 0.5796666145324707
0.7114747762680054 0.2485969364643097 0.4818321466445923
0.6320174932479858 0.15295560657978058 0.4020853638648987
0.6362650990486145 0.2605007588863373 0.48495110869407654
0.5445544719696045 0.20876571536064148 0.5352447032928467
0.5983312129974365 0.2818584442138672 0.5394938588142395
0.6001260280609131 0.1384730339050293 0.5468408465385437
0.5581857562065125 0.34193262457847595 0.452382892370224
0.5404896140098572 0.1552777886390686 0.4579935073852539
0.6607617139816284 0.23356527090072632 0.4653415381908417
0.6664762496948242 0.27510857582092285 0.4839744567871094
0.645560622215271 0.2065226286649704 0.46724575757980347
0.6711922883987427 0.1659691035747528 0.5273565053939819
0.5515741109848022 0.2112637460231781 0.4937097430229187
0.5829898715019226 0.12583734095096588 0.5080844759941101
0.6557886600494385 0.24242466688156128 0.47823742032051086
0.629867672920227 0.24435478448867798 0.4900686740875244
0.6939257979393005 0.20906813442707062 0.5471919178962708
0.7111955881118774 0.2365458607673645 0.4387102425098419
0.6156405806541443 0.2342887818813324 0.40505552291870117
0.6139084696769714 0.30813780426979065 0.448482871055603
0.6121432185173035 0.18763114511966705 0.45765793323516846
0.5556036829948425 0.2507343590259552 0.4731040596961975
0.4922390580177307 0.17558149993419647 0.4545489549636841
0.5253275632858276 0.2991746664047241 0.43380647897720337
0.6779049634933472 0.12685325741767883 0.5784556865692139
0.5664346218109131 0.21456687152385712 0.5648911595344543
0.6941301226615906 0.25330084562301636 0.5853291749954224
0.5775207877159119 0.284776508808136 0.4146871566772461
0.6085373163223267 0.1829560548067093 0.5851500034332275
0.6206278800964355 0.2911852300167084 0.4803841710090637
0.6699591875076294 0.24031764268875122 0.5010806322097778
0.5683426856994629 0.17595620453357697 0.5028419494628906
0.6952499151229858 0.2654860317707062 0.43074914813041687
0.7251841425895691 0.2453894317150116 0.511227011680603
0.5924524068832397 0.31302931904792786 0.6039673686027527
0.6370866298675537 0.22184041142463684 0.5806098580360413
0.5939566493034363 0.3316052556037903 0.5560946464538574
0.5973819494247437 0.2513783872127533 0.5684351325035095
0.5718317031860352 0.2687211036682129 0.49008816480636597
0.6487951278686523 0.1412728726863861 0.5511447787284851
0.6457037925720215 0.20218756794929504 0.5346855521202087
0.5771002173423767 0.21469570696353912 0.5923264622688293
0.5934546589851379 0.2221059501171112 0.5852229595184326
0.5553520321846008 0.2514296770095825 0.5879009366035461
0.5156798362731934 0.19093304872512817 0.5241190791130066
0.6601457595825195 0.2910117208957672 0.5402682423591614
0.697223961353302 0.23789948225021362 0.5609031319618225
0.5920055508613586 0.30389508605003357 0.593222439289093
0.6176319718360901 0.265665739774704 0.5505996346473694
0.5288949608802795 0.1410655677318573 0.5795260071754456
0.6548274755477905 0.19488225877285004 0.428166002035141
0.6431972980499268 0.1224978119134903 0.5667279958724976
0.6611453890800476 0.23619000613689423 0.4667108356952667
0.5025845766067505 0.14830677211284637 0.518695592880249
0.5931450724601746 0.2677384912967682 0.501086413860321
0.6354690790176392 0.15890030562877655 0.5041345357894897
0.6034874320030212 0.1345854103565216 0.5761233568191528
0.7159565091133118 0.2597666382789612 0.4958626329898834
0.6515384316444397 0.18003474175930023 0.5434359312057495
0.6311141848564148 0.1489742547273636 0.3951355218887329
0.6259841322898865 0.24369587004184723 0.5249456763267517
0.5405285358428955 0.16641192138195038 0.42325323820114136
0.6514878869056702 0.18632416427135468 0.5280038714408875
0.5538103580474854 0.13380664587020874 0.49804338812828064
0.4916795790195465 0.17268633842468262 0.4492317736148834
0.6052853465080261 0.18492567539215088 0.4695501923561096
0.5691134929656982 0.16703028976917267 0.5151248574256897
0.6776202917098999 0.14495372772216797 0.5186651945114136
0.6633651852607727 0.13685083389282227 0.4619784951210022
0.5440953969955444 0.314394474029541 0.46403947472572327
0.5428328514099121 0.18230648338794708 0.583734929561615
0.5580798387527466 0.27406296133995056 0.4834747612476349
0.5752528309822083 0.18395622074604034 0.44753164052963257
0.5852344632148743 0.3246324956417084 0.5629862546920776
0.669646680355072 0.15321892499923706 0.5284033417701721
0.7248327732086182 0.24727150797843933 0.5002511143684387
0.5692447423934937 0.27714574337005615 0.49588990211486816
0.5778936743736267 0.26324158906936646 0.43651214241981506
0.6488039493560791 0.15523946285247803 0.46306461095809937
0.5365626215934753 0.24212734401226044 0.5908879041671753
0.6357149481773376 0.13699693977832794 0.5116063952445984
0.5288949608802795 0.1410655677318573 0.5795260071754456
0.6710377931594849 0.16487455368041992 0.5610402822494507
0.5411252975463867 0.1740979552268982 0.5435912609100342
0.5543397665023804 0.15219812095165253 0.47177207469940186
0.5639916062355042 0.3557855486869812 0.5169230103492737
0.6952955722808838 0.23796086013317108 0.430695503950119
0.630347728729248 0.19121889770030975 0.49657365679740906
0.646407961845398 0.11367132514715195 0.5595285296440125
0.6665136814117432 0.12005296349525452 0.48495548963546753
0.5567193031311035 0.14712786674499512 0.5636857748031616
0.7136193513870239 0.20116986334323883 0.5818449854850769
0.5995908975601196 0.1979725956916809 0.5329076647758484
0.6079420447349548 0.20643503963947296 0.4743597209453583
0.5769296884536743 0.3117128312587738 0.5775194764137268
0.5059648752212524 0.20325127243995667 0.5104658603668213
0.6429913640022278 0.20191547274589539 0.4027654230594635
0.699283242225647 0.21521981060504913 0.4397111237049103
0.5112466216087341 0.19466835260391235 0.5462184548377991
0.638677716255188 0.1558474451303482 0.5287802815437317
0.6164015531539917 0.239228755235672 0.5229008793830872
0.6163448095321655 0.3072545528411865 0.5693472027778625
0.5393826961517334 0.23748958110809326 0.4781528413295746
0.5216543078422546 0.25318554043769836 0.5135505199432373
0.5398105978965759 0.2179683893918991 0.44577446579933167
0.5353774428367615 0.20746773481369019 0.4101065993309021
0.5551351308822632 0.17971253395080566 0.5221673250198364
0.5742202401161194 0.16169224679470062 0.455623984336853
0.5271968841552734 0.28583383560180664 0.4433414041996002
0.5974101424217224 0.1841965764760971 0.5331659317016602
0.5842841863632202 0.18457861244678497 0.4827289581298828
0.5934143662452698 0.12936235964298248 0.4480246603488922
0.5948268175125122 0.3236776292324066 0.44313356280326843
0.5520766377449036 0.24804659187793732 0.5265386700630188
0.5842841863632202 0.18457861244678497 0.4827289581298828
0.5934143662452698 0.12936235964298248 0.4480246603488922
0.5948268175125122 0.3236776292324066 0.44313356280326843
0.6700739860534668 0.1942138373851776 0.5448746085166931
0.5058203339576721 0.16174687445163727 0.4905177056789398
0.6247078776359558 0.2748686671257019 0.49067795276641846
0.6172738075256348 0.12721851468086243 0.5742394328117371
0.5930812358856201 0.12238539755344391 0.5188275575637817
0.5655105113983154 0.1372688114643097 0.5648421049118042
0.604602575302124 0.12390952557325363 0.5038301944732666
0.5918611288070679 0.2612287998199463 0.4501809775829315
0.6498150825500488 0.29282665252685547 0.5454245805740356
0.6578378081321716 0.11602171510457993 0.4448097348213196
0.6116154789924622 0.29085731506347656 0.5767577886581421
0.6319853663444519 0.13900843262672424 0.4509177505970001
0.5785209536552429 0.13341641426086426 0.47621291875839233
0.5344877243041992 0.2357034683227539 0.46310582756996155
0.6053754687309265 0.15826518833637238 0.4238072335720062
0.566643238067627 0.16499833762645721 0.4269201159477234
0.6847608089447021 0.26559051871299744 0.4239785373210907
0.6339346766471863 0.2779807448387146 0.5886004567146301
0.5458606481552124 0.175634503364563 0.55462646484375
0.6264297366142273 0.2592203915119171 0.41638895869255066
0.580231785774231 0.1778758019208908 0.4883652925491333
0.5982952117919922 0.3246673345565796 0.46990251541137695
0.6955817937850952 0.17230427265167236 0.5339004993438721
0.5082517862319946 0.2284902185201645 0.4943832755088806
0.5546212196350098 0.24876783788204193 0.45258674025535583
0.5999847650527954 0.2090180367231369 0.5329313278198242
0.6744459271430969 0.27638936042785645 0.5664535760879517
0.5493756532669067 0.15022747218608856 0.5912410020828247
0.5964488387107849 0.1619044691324234 0.45443835854530334
0.6564267873764038 0.27458810806274414 0.4806540906429291
0.5776583552360535 0.1806277185678482 0.5288074612617493
0.6148435473442078 0.1944226324558258 0.5692936778068542
0.6115341782569885 0.19869989156723022 0.4965888559818268
0.5250577330589294 0.24538451433181763 0.5554638504981995
0.5729711055755615 0.3198162615299225 0.4711349904537201
0.5066533088684082 0.1688171774148941 0.5007847547531128
0.563190221786499 0.2528632581233978 0.5957905054092407
0.6173658967018127 0.2514652907848358 0.5664963126182556
0.6664007306098938 0.24380750954151154 0.5247657299041748
0.703787624835968 0.2565002739429474 0.4980398416519165
0.5555601716041565 0.15573357045650482 0.4399893879890442
0.7025917768478394 0.19994139671325684 0.5174230337142944
0.6421855688095093 0.27429693937301636 0.46098268032073975
0.5703292489051819 0.21414661407470703 0.4524492919445038
0.5895478129386902 0.2434314489364624 0.5694420337677002
0.696306586265564 0.1831161379814148 0.5046402215957642
0.6763591170310974 0.1643570512533188 0.4101337194442749
0.5922611355781555 0.1228223517537117 0.5040936470031738
0.5720235109329224 0.15895041823387146 0.5925773978233337
0.6487841606140137 0.18125982582569122 0.5425401926040649
0.6148740649223328 0.16286025941371918 0.5756012797355652
0.5065578818321228 0.242555633187294 0.48882970213890076
0.6404244303703308 0.2446824312210083 0.4844684302806854
0.6469818949699402 0.27902281284332275 0.43735751509666443
0.5781405568122864 0.23339621722698212 0.46356114745140076
0.5485527515411377 0.17508523166179657 0.49644535779953003
0.561293363571167 0.17553290724754333 0.4471639096736908
0.5342094898223877 0.18078674376010895 0.5892171859741211
0.674185037612915 0.14345115423202515 0.4945443272590637
0.5896673202514648 0.24236205220222473 0.5967370271682739
0.5663319826126099 0.20033353567123413 0.5185852646827698
0.6512752175331116 0.2312087118625641 0.5556650757789612
0.6233169436454773 0.2626558840274811 0.43359923362731934
0.7231876254081726 0.20934182405471802 0.5821354389190674
0.5804802179336548 0.22456926107406616 0.47906920313835144
0.5937185883522034 0.14872555434703827 0.5398921966552734
0.534771740436554 0.2311655879020691 0.47572967410087585
0.5671573281288147 0.18482866883277893 0.4447961151599884
0.6745992302894592 0.23313863575458527 0.5938102602958679
0.5663596391677856 0.20692643523216248 0.5661012530326843
0.6425748467445374 0.1515047550201416 0.43126824498176575
0.6548274755477905 0.19488225877285004 0.428166002035141
0.6431972980499268 0.1224978119134903 0.5667279958724976
0.6611453890800476 0.23619000613689423 0.4667108356952667
0.5025845766067505 0.14830677211284637 0.518695592880249
0.5931450724601746 0.2677384912967682 0.501086413860321
0.6345369219779968 0.31752341985702515 0.44720715284347534
0.5686209797859192 0.2838824987411499 0.4633829593658447
0.5574629902839661 0.2132188379764557 0.4540634751319885
0.6101864576339722 0.2743496000766754 0.4991515874862671
0.5823261737823486 0.18053437769412994 0.5283392071723938
0.627405047416687 0.10039927065372467 0.5652945041656494
0.6259841322898865 0.24369587004184723 0.5249456763267517
0.5405285358428955 0.16641192138195038 0.42325323820114136
0.6514878869056702 0.18632416427135468 0.5280038714408875
0.5538103580474854 0.13380664587020874 0.49804338812828064
0.4916795790195465 0.17268633842468262 0.4492317736148834
0.6052853465080261 0.18492567539215088 0.4695501923561096
0.5691134929656982 0.16703028976917267 0.5151248574256897
0.6776202917098999 0.14495372772216797 0.5186651945114136
0.5150081515312195 0.18812952935695648 0.4172191321849823
0.6574645638465881 0.25416186451911926 0.42379969358444214
0.6320174932479858 0.15295560657978058 0.4020853638648987
0.5287699699401855 0.294107586145401 0.44083887338638306
0.5376408696174622 0.25416556000709534 0.4403860569000244
0.5058203339576721 0.16174687445163727 0.4905177056789398
0.6247078776359558 0.2748686671257019 0.49067795276641846
0.6172738075256348 0.12721851468086243 0.5742394328117371
0.5655105113983154 0.1372688114643097 0.5648421049118042
0.604602575302124 0.12390952557325363 0.5038301944732666
0.6184399724006653 0.30349746346473694 0.5022813081741333
0.5918611288070679 0.2612287998199463 0.4501809775829315
0.6498150825500488 0.29282665252685547 0.5454245805740356
0.6578378081321716 0.11602171510457993 0.4448097348213196
0.6116154789924622 0.29085731506347656 0.5767577886581421
0.6319853663444519 0.13900843262672424 0.4509177505970001
0.5785209536552429 0.13341641426086426 0.47621291875839233
0.6053754687309265 0.15826518833637238 0.4238072335720062
0.566643238067627 0.16499833762645721 0.4269201159477234
0.5171692371368408 0.1705847978591919 0.5070488452911377
0.6847608089447021 0.26559051871299744 0.4239785373210907
0.6339346766471863 0.2779807448387146 0.5886004567146301
0.5458606481552124 0.175634503364563 0.55462646484375
0.6264297366142273 0.2592203915119171 0.41638895869255066
0.5982952117919922 0.3246673345565796 0.46990251541137695
0.6955817937850952 0.17230427265167236 0.5339004993438721
0.5082517862319946 0.2284902185201645 0.4943832755088806
0.5546212196350098 0.24876783788204193 0.45258674025535583
0.5546212196350098 0.24876783788204193 0.45258674025535583
0.5999847650527954 0.2090180367231369 0.5329313278198242
0.6744459271430969 0.27638936042785645 0.5664535760879517
0.5864744782447815 0.14588239789009094 0.5851890444755554
0.5493756532669067 0.15022747218608856 0.5912410020828247
0.6177868843078613 0.15641771256923676 0.5025314688682556
0.6080220937728882 0.19269540905952454 0.4375391900539398
0.6321802735328674 0.1029653549194336 0.459066241979599
0.6531167030334473 0.15562182664871216 0.4540407657623291
0.6565361022949219 0.18249903619289398 0.40263915061950684
0.6145449876785278 0.26354795694351196 0.5305060744285583
0.5550408363342285 0.24102875590324402 0.5927645564079285
0.602776288986206 0.12143928557634354 0.4572824239730835
0.5710658431053162 0.19013595581054688 0.4013601243495941
0.5524296164512634 0.29778292775154114 0.533974826335907
0.6810623407363892 0.12808972597122192 0.5519573092460632
0.5871440172195435 0.2887270748615265 0.46490854024887085
0.6221532821655273 0.1509513109922409 0.5537354946136475
0.6291581392288208 0.3055405914783478 0.4470521807670593
0.5844704508781433 0.17477235198020935 0.4624006152153015
0.6899286508560181 0.21523599326610565 0.4644608497619629
0.6049169301986694 0.1514912098646164 0.5011048913002014
0.5736522674560547 0.3035361170768738 0.43775221705436707
0.6757639646530151 0.23133151233196259 0.4335709512233734
0.5962742567062378 0.25717976689338684 0.43131953477859497
0.6072450280189514 0.12141962349414825 0.5748047828674316
0.5569353103637695 0.36121511459350586 0.4587450325489044
0.5626866221427917 0.3557662069797516 0.43680164217948914
0.5828863978385925 0.22594204545021057 0.49964722990989685
0.5557724833488464 0.20966030657291412 0.46776193380355835
0.5420548915863037 0.2948612868785858 0.4192717373371124
0.5858462452888489 0.15159127116203308 0.5004965662956238
0.5458961129188538 0.31277602910995483 0.4340844750404358
0.6497552990913391 0.13131868839263916 0.5583314299583435
0.6696721315383911 0.2809152603149414 0.45733049511909485
0.6334812641143799 0.10764701664447784 0.4470979571342468
0.5891954302787781 0.14260756969451904 0.40956297516822815
0.60804283618927 0.13024252653121948 0.38953897356987
0.6320174932479858 0.15295560657978058 0.4020853638648987
0.674185037612915 0.14345115423202515 0.4945443272590637
0.5896673202514648 0.24236205220222473 0.5967370271682739
0.5987038016319275 0.3164537250995636 0.5459055304527283
0.6459525227546692 0.10856539756059647 0.4745829403400421
0.5622744560241699 0.20082144439220428 0.5195099711418152
0.5002657771110535 0.19277995824813843 0.47845545411109924
0.5842600464820862 0.3314846456050873 0.594602644443512
0.6149110794067383 0.30666419863700867 0.41690802574157715
0.6083415746688843 0.2285463809967041 0.5589265823364258
0.6467294096946716 0.2796660363674164 0.473456472158432
0.5239214301109314 0.24912184476852417 0.5213356614112854
0.5078355073928833 0.17077119648456573 0.42552193999290466
0.5626808404922485 0.3367179036140442 0.5162382125854492
0.6438823938369751 0.18545585870742798 0.5551812648773193
0.6686636805534363 0.19753241539001465 0.470236212015152
