ply
format ascii 1.0
element vertex 818
property float x
property float y
property float z
end_header
0.2340758591890335 0.18922099471092224 0.524034857749939
0.15673527121543884 0.25369322299957275 0.5364144444465637
0.18786318600177765 0.2756199240684509 0.42767950892448425
0.29620441794395447 0.13885773718357086 0.4080769419670105
0.17391765117645264 0.1630411297082901 0.4221576452255249
0.21122772991657257 0.10386083275079727 0.4801987409591675
0.21693722903728485 0.1970420926809311 0.5416351556777954
0.1674928069114685 0.2507944405078888 0.4517735540866852
0.23833690583705902 0.2498260736465454 0.4786202013492584
0.23683781921863556 0.18836790323257446 0.5765007734298706
0.2235516458749771 0.11504163593053818 0.45099782943725586
0.18827995657920837 0.12356135994195938 0.4817386567592621
0.1303589940071106 0.16647666692733765 0.4850687086582184
0.15244120359420776 0.23313578963279724 0.5821150541305542
0.2112332582473755 0.1925738900899887 0.581385612487793
0.15961433947086334 0.272208034992218 0.423134982585907
0.13658758997917175 0.16391457617282867 0.39345648884773254
0.12444159388542175 0.12965208292007446 0.5772356986999512
0.13869410753250122 0.12716616690158844 0.504252016544342
0.3019144535064697 0.1760556399822235 0.41293808817863464
0.21342194080352783 0.2085908204317093 0.5166016221046448
0.11449936032295227 0.22263434529304504 0.5516179800033569
0.1986529529094696 0.2816028296947479 0.5950784683227539
0.12568289041519165 0.19833314418792725 0.4532082676887512
0.12918435037136078 0.2624698281288147 0.5240918397903442
0.21125204861164093 0.2604980170726776 0.4274991452693939
0.12014364451169968 0.16799777746200562 0.5330457091331482
0.14221100509166718 0.11778965592384338 0.5518830418586731
0.26621708273887634 0.13896358013153076 0.5755087733268738
0.11941731721162796 0.13157619535923004 0.46574240922927856
0.1887122541666031 0.17057807743549347 0.5289033055305481
0.11338837444782257 0.20569191873073578 0.5944770574569702
0.13051456212997437 0.10718807578086853 0.5339653491973877
0.147563174366951 0.2635270357131958 0.44112271070480347
0.18487782776355743 0.26868367195129395 0.5827563405036926
0.16156090795993805 0.19304141402244568 0.5190279483795166
0.12904208898544312 0.20601226389408112 0.5700013041496277
0.1212962344288826 0.17696316540241241 0.5471508502960205
0.27343302965164185 0.12448139488697052 0.4922386407852173
0.17923426628112793 0.17486295104026794 0.4066104292869568
0.1861853003501892 0.24773439764976501 0.5061287879943848
0.1272212117910385 0.14782623946666718 0.4781551659107208
0.17979790270328522 0.16790783405303955 0.528287410736084
0.2947412133216858 0.11499176174402237 0.5329610705375671
0.1481574922800064 0.1576736569404602 0.42616838216781616
0.23190924525260925 0.14641478657722473 0.4317399859428406
0.16997912526130676 0.1329478919506073 0.45374709367752075
0.19492220878601074 0.25976455211639404 0.5211741328239441
0.2287522256374359 0.16683357954025269 0.5229955911636353
0.12080651521682739 0.13250784575939178 0.5432383418083191
0.1745661497116089 0.11234337091445923 0.5854016542434692
0.25893649458885193 0.22559122741222382 0.45355886220932007
0.29182934761047363 0.16521716117858887 0.5905886888504028
0.2382897585630417 0.10997314751148224 0.5009899139404297
0.24490220844745636 0.26631399989128113 0.44287988543510437
0.1583709865808487 0.17950481176376343 0.44472482800483704
0.234727144241333 0.12637589871883392 0.4321579337120056
0.13677841424942017 0.21854975819587708 0.5220310091972351
0.11658746004104614 0.14548979699611664 0.39204704761505127
0.2499457746744156 0.22166506946086884 0.44652971625328064
0.20289115607738495 0.20858517289161682 0.4056274890899658
0.21721868216991425 0.10632337629795074 0.5075666904449463
0.22054937481880188 0.13365331292152405 0.556936502456665
0.23777909576892853 0.23666498064994812 0.5650766491889954
0.22502024471759796 0.12083207070827484 0.5800893902778625
0.233152374625206 0.23125305771827698 0.41468846797943115
0.214472234249115 0.1973174661397934 0.44918128848075867
0.1805264800786972 0.24900095164775848 0.5886455774307251
0.13191594183444977 0.23396775126457214 0.4900323748588562
0.20537054538726807 0.18941587209701538 0.4675198793411255
0.14371053874492645 0.26814502477645874 0.4734402000904083
0.20784242451190948 0.24488696455955505 0.509609043598175
0.138757586479187 0.10212954878807068 0.5781394839286804
0.21810336410999298 0.23757176101207733 0.44764599204063416
0.11729256063699722 0.22580553591251373 0.566586971282959
0.23630979657173157 0.1951938271522522 0.5170605182647705
0.22848404943943024 0.2569584250450134 0.4078623354434967
0.2537696063518524 0.18237748742103577 0.4167155921459198
0.105422742664814 0.2213965803384781 0.4622434377670288
0.30482205748558044 0.12361115962266922 0.4996633529663086
0.1565466821193695 0.18516968190670013 0.48985153436660767
0.24065162241458893 0.12537074089050293 0.5886548757553101
0.11483681946992874 0.1620592325925827 0.4995923340320587
0.1379317194223404 0.20441655814647675 0.41084223985671997
0.22128376364707947 0.1782241016626358 0.5620400905609131
0.23901385068893433 0.14090970158576965 0.47903525829315186
0.16055414080619812 0.22743001580238342 0.5883219838142395
0.1880057454109192 0.10730201750993729 0.4722566604614258
0.1892399787902832 0.17657774686813354 0.53341144323349
0.12491024285554886 0.14712128043174744 0.46306708455085754
0.20217415690422058 0.13577090203762054 0.4285554885864258
0.19587968289852142 0.17228800058364868 0.5754659175872803
0.13938944041728973 0.16353654861450195 0.5705609917640686
0.21118807792663574 0.25936296582221985 0.4793410003185272
0.17644912004470825 0.25563108921051025 0.47447165846824646
0.11202085763216019 0.2506439983844757 0.4960861802101135
0.2022119164466858 0.23205333948135376 0.48165735602378845
0.20321796834468842 0.13509859144687653 0.6016146540641785
0.1304483264684677 0.1975405216217041 0.5630746483802795
0.19389568269252777 0.13100209832191467 0.5094035863876343
0.29700031876564026 0.1418755054473877 0.4656110107898712
0.20233452320098877 0.2749939262866974 0.5535884499549866
0.24110834300518036 0.1310425102710724 0.4648476541042328
0.14011573791503906 0.25175508856773376 0.5269390940666199
0.23195868730545044 0.14490297436714172 0.45958131551742554
0.2865585386753082 0.1153663620352745 0.5721869468688965
0.23618657886981964 0.2543965280056 0.5273333191871643
0.11936165392398834 0.2419319897890091 0.4765336215496063
0.24673454463481903 0.23545534908771515 0.4857657849788666
0.10894963145256042 0.16928838193416595 0.5843507647514343
0.24023792147636414 0.2768397927284241 0.45217573642730713
0.21161524951457977 0.10811687260866165 0.5722724795341492
0.204607293009758 0.23390139639377594 0.5136905908584595
0.1291484832763672 0.12110883742570877 0.5216972827911377
0.14348159730434418 0.14377139508724213 0.39476093649864197
0.2750200629234314 0.13553091883659363 0.48116350173950195
0.27464228868484497 0.11997770518064499 0.5596730709075928
0.21321898698806763 0.2755322754383087 0.4742395579814911
0.16646376252174377 0.11615516990423203 0.4735298752784729
0.20045709609985352 0.21914878487586975 0.49507656693458557
0.10844447463750839 0.24520912766456604 0.4084940552711487
0.16150669753551483 0.17065498232841492 0.4189741909503937
0.2217540591955185 0.29236099123954773 0.5871555209159851
0.15164999663829803 0.19312457740306854 0.5732677578926086
0.15453466773033142 0.10492652654647827 0.4658367335796356
0.10881740599870682 0.17322535812854767 0.5027520656585693
0.14076411724090576 0.1438426673412323 0.5481584668159485
0.22530078887939453 0.19800730049610138 0.553066611289978
0.22984586656093597 0.11790254712104797 0.46525296568870544
0.15830601751804352 0.14613617956638336 0.5739091634750366
0.219259575009346 0.1460570991039276 0.582857072353363
0.28702500462532043 0.13627810776233673 0.5942997932434082
0.11009210348129272 0.18637721240520477 0.4355614185333252
0.19631439447402954 0.2669588029384613 0.45898711681365967
0.14926455914974213 0.17588520050048828 0.5496598482131958
0.1548013687133789 0.1817902773618698 0.4024648070335388
0.2041124850511551 0.24693939089775085 0.49395138025283813
0.28942734003067017 0.11653660982847214 0.5513755679130554
0.2769853472709656 0.14712120592594147 0.5533411502838135
0.2866889238357544 0.1908925622701645 0.5146973729133606
0.2534801661968231 0.22572007775306702 0.5498178601264954
0.14950425922870636 0.24278001487255096 0.5497763752937317
0.10612233728170395 0.21329939365386963 0.5376089811325073
0.20222699642181396 0.1971500664949417 0.48402661085128784
0.1962520033121109 0.21930094063282013 0.43874260783195496
0.23465102910995483 0.20479384064674377 0.566650390625
0.25279369950294495 0.20173797011375427 0.455658882856369
0.11147702485322952 0.19423885643482208 0.4501799941062927
0.13825219869613647 0.1896214336156845 0.39453598856925964
0.16254287958145142 0.22358763217926025 0.6045304536819458
0.16815558075904846 0.23612970113754272 0.412584125995636
0.2498619556427002 0.1919548660516739 0.5448282957077026
0.1714049130678177 0.2474612444639206 0.40520575642585754
0.130072221159935 0.11461969465017319 0.527891218662262
0.14848469197750092 0.11211307346820831 0.5254979729652405
0.23918388783931732 0.1337798535823822 0.5031551122665405
0.13731971383094788 0.2411714494228363 0.5012568235397339
0.20355479419231415 0.23904836177825928 0.5705867409706116
0.14108963310718536 0.13350962102413177 0.43155720829963684
0.1963292360305786 0.12267950177192688 0.48194006085395813
0.1597672700881958 0.24887406826019287 0.6031709313392639
0.2592301368713379 0.16295616328716278 0.45739373564720154
0.219259575009346 0.1460570991039276 0.582857072353363
0.10815544426441193 0.21092361211776733 0.46692031621932983
0.21215388178825378 0.26539766788482666 0.4043337404727936
0.2533279061317444 0.1439235657453537 0.5683609247207642
0.22160927951335907 0.23981177806854248 0.5858834385871887
0.13728632032871246 0.19730588793754578 0.4151318371295929
0.16940845549106598 0.2325204610824585 0.5872800350189209
0.2271595150232315 0.29813632369041443 0.5127713084220886
0.11339561641216278 0.2542886734008789 0.48494645953178406
0.18390700221061707 0.11000504344701767 0.5508065819740295
0.10634218156337738 0.22954252362251282 0.5117321014404297
0.16079942882061005 0.15733587741851807 0.40076541900634766
0.11673026531934738 0.17609411478042603 0.52714604139328
0.20465195178985596 0.198350191116333 0.44777238368988037
0.19211743772029877 0.22459766268730164 0.40510571002960205
0.2277049720287323 0.23385855555534363 0.548795223236084
0.15887022018432617 0.1756378561258316 0.5019667148590088
0.17109805345535278 0.21465295553207397 0.5612356066703796
0.11693818867206573 0.11741926521062851 0.44192859530448914
0.11469227820634842 0.16251401603221893 0.5850961208343506
0.11496281623840332 0.17056414484977722 0.3959037661552429
0.19716301560401917 0.26224038004875183 0.4362442195415497
0.2624667286872864 0.1553693264722824 0.4458727240562439
0.27500924468040466 0.10900317132472992 0.43947869539260864
0.1684282422065735 0.2046295702457428 0.4742555320262909
0.28957870602607727 0.18922735750675201 0.4277350604534149
0.13754598796367645 0.20209737122058868 0.39481690526008606
0.13988126814365387 0.1063380092382431 0.4690078794956207
0.13104945421218872 0.18705645203590393 0.41412580013275146
0.18051034212112427 0.16594219207763672 0.5843372344970703
0.14708970487117767 0.11290759593248367 0.5481835603713989
0.12392956763505936 0.11746995151042938 0.45790615677833557
0.23833690583705902 0.2498260736465454 0.4786202013492584
0.2712985873222351 0.16901379823684692 0.5257009863853455
0.14708970487117767 0.11290759593248367 0.5481835603713989
0.12392956763505936 0.11746995151042938 0.45790615677833557
0.12273228168487549 0.25548601150512695 0.5617213845252991
0.2578841745853424 0.226583793759346 0.6043552756309509
0.17254292964935303 0.10492689162492752 0.4630225896835327
0.2057354897260666 0.13487227261066437 0.5194031000137329
0.2317834347486496 0.28628793358802795 0.5149490833282471
0.11128176748752594 0.2024517059326172 0.41325005888938904
0.14014393091201782 0.2250409722328186 0.5417054295539856
0.13678516447544098 0.131297767162323 0.5074151158332825
0.2141799032688141 0.1368294060230255 0.5274253487586975
0.1798442006111145 0.16777020692825317 0.5658537149429321
0.13204437494277954 0.10440341383218765 0.39197859168052673
0.2514301836490631 0.17049014568328857 0.5372887253761292
0.11633916199207306 0.12005200237035751 0.4853666424751282
0.12563125789165497 0.1415952742099762 0.4366994798183441
0.16127197444438934 0.18157874047756195 0.3969438076019287
0.21371489763259888 0.13934259116649628 0.4804532825946808
0.1355426013469696 0.21010591089725494 0.4508439898490906
0.22016242146492004 0.2745761573314667 0.42051059007644653
0.140734001994133 0.15039387345314026 0.5409318804740906
0.2700444459915161 0.21199864149093628 0.4160919487476349
0.22482869029045105 0.21801647543907166 0.5759831070899963
0.28971239924430847 0.14822131395339966 0.4911364018917084
0.15452362596988678 0.11422830075025558 0.5197654366493225
0.15452362596988678 0.11422830075025558 0.5197654366493225
0.21981379389762878 0.16617576777935028 0.4355684220790863
0.182259663939476 0.17487679421901703 0.4080495238304138
0.182259663939476 0.17487679421901703 0.4080495238304138
0.17803503572940826 0.16672083735466003 0.41618141531944275
0.19492220878601074 0.25976455211639404 0.5211741328239441
0.12273228168487549 0.25548601150512695 0.5617213845252991
0.1410854011774063 0.12093660980463028 0.47540244460105896
0.2258061319589615 0.23592215776443481 0.5791722536087036
0.17254292964935303 0.10492689162492752 0.4630225896835327
0.2057354897260666 0.13487227261066437 0.5194031000137329
0.2317834347486496 0.28628793358802795 0.5149490833282471
0.11128176748752594 0.2024517059326172 0.41325005888938904
0.14014393091201782 0.2250409722328186 0.5417054295539856
0.195286363363266 0.20319300889968872 0.4806056320667267
0.2584117650985718 0.22594942152500153 0.47551393508911133
0.16250333189964294 0.15852844715118408 0.5918698906898499
0.2141799032688141 0.1368294060230255 0.5274253487586975
0.1798442006111145 0.16777020692825317 0.5658537149429321
0.13204437494277954 0.10440341383218765 0.39197859168052673
0.2514301836490631 0.17049014568328857 0.5372887253761292
0.12563125789165497 0.1415952742099762 0.4366994798183441
0.16127197444438934 0.18157874047756195 0.3969438076019287
0.21371489763259888 0.13934259116649628 0.4804532825946808
0.1355426013469696 0.21010591089725494 0.4508439898490906
0.22016242146492004 0.2745761573314667 0.42051059007644653
0.140734001994133 0.15039387345314026 0.5409318804740906
0.2700444459915161 0.21199864149093628 0.4160919487476349
0.13170841336250305 0.14832322299480438 0.4455329179763794
0.22482869029045105 0.21801647543907166 0.5759831070899963
0.28971239924430847 0.14822131395339966 0.4911364018917084
0.15452362596988678 0.11422830075025558 0.5197654366493225
0.21981379389762878 0.16617576777935028 0.4355684220790863
0.182259663939476 0.17487679421901703 0.4080495238304138
0.29144400358200073 0.13765105605125427 0.43502870202064514
0.17803503572940826 0.16672083735466003 0.41618141531944275
0.3106766939163208 0.1298896074295044 0.5819856524467468
0.19492220878601074 0.25976455211639404 0.5211741328239441
0.15508335828781128 0.1449974924325943 0.5412670373916626
0.24085113406181335 0.1284879595041275 0.48456239700317383
0.2665511667728424 0.15928518772125244 0.5496931076049805
0.129215270280838 0.10736827552318573 0.5251315236091614
0.14051233232021332 0.24858535826206207 0.5503818392753601
0.12816224992275238 0.17299750447273254 0.5290933847427368
0.13746128976345062 0.17275843024253845 0.5598649978637695
0.23159493505954742 0.1969304233789444 0.43605566024780273
0.14843608438968658 0.22731509804725647 0.48790836334228516
0.24263575673103333 0.19658395648002625 0.5431444644927979
0.13650724291801453 0.18420755863189697 0.4990032911300659
0.1789414882659912 0.1863154172897339 0.414026141166687
0.20267470180988312 0.2272597849369049 0.40996524691581726
0.19097669422626495 0.11507764458656311 0.5363280773162842
0.2911810576915741 0.15960687398910522 0.5267158150672913
0.14158600568771362 0.1800256073474884 0.573338508605957
0.15350675582885742 0.1572948694229126 0.5144430994987488
0.1435249149799347 0.163271963596344 0.5086494088172913
0.16721388697624207 0.27126550674438477 0.5509405136108398
0.18505480885505676 0.19114817678928375 0.46781250834465027
0.27191439270973206 0.17150169610977173 0.45330244302749634
0.2517547607421875 0.22461335361003876 0.4488137364387512
0.15563182532787323 0.11731559783220291 0.47377508878707886
0.18533283472061157 0.10785216093063354 0.429413765668869
0.2500706613063812 0.12054985761642456 0.4646277129650116
0.23058846592903137 0.13601943850517273 0.5242120623588562
0.17623817920684814 0.16482600569725037 0.4130556583404541
0.3099198043346405 0.11275491863489151 0.42870211601257324
0.18391121923923492 0.2671363651752472 0.4444970190525055
0.2624667286872864 0.1553693264722824 0.4458727240562439
0.27500924468040466 0.10900317132472992 0.43947869539260864
0.13869410753250122 0.12716616690158844 0.504252016544342
0.14014393091201782 0.2250409722328186 0.5417054295539856
0.195286363363266 0.20319300889968872 0.4806056320667267
0.2584117650985718 0.22594942152500153 0.47551393508911133
0.16250333189964294 0.15852844715118408 0.5918698906898499
0.2141799032688141 0.1368294060230255 0.5274253487586975
0.1798442006111145 0.16777020692825317 0.5658537149429321
0.10217993706464767 0.25106164813041687 0.5048773288726807
0.16240812838077545 0.23220792412757874 0.47126221656799316
0.246333509683609 0.1463453620672226 0.40873587131500244
0.11613483726978302 0.1959700882434845 0.4497339427471161
0.1631641983985901 0.11379352957010269 0.4540901780128479
0.18706288933753967 0.17272551357746124 0.5189197063446045
0.2105574756860733 0.20542888343334198 0.4392540752887726
0.17540346086025238 0.11122164130210876 0.4951654374599457
0.1920047104358673 0.1252145767211914 0.40260395407676697
0.2317049354314804 0.23665136098861694 0.43438398838043213
0.12661506235599518 0.1435169279575348 0.47594964504241943
0.13378731906414032 0.12270081043243408 0.3961343467235565
0.23238606750965118 0.20692849159240723 0.4087812602519989
0.21733435988426208 0.10632362216711044 0.5748297572135925
0.2570803165435791 0.13083887100219727 0.5182511210441589
0.16629114747047424 0.15693701803684235 0.5033368468284607
0.25992271304130554 0.21712832152843475 0.5799945592880249
0.13186419010162354 0.23432059586048126 0.43072211742401123
0.28356820344924927 0.20419591665267944 0.446798712015152
0.1691628396511078 0.1044563502073288 0.4460834562778473
0.24706816673278809 0.15724262595176697 0.5284087657928467
0.16622047126293182 0.2364284098148346 0.4197985529899597
0.16235308349132538 0.10756173729896545 0.5557442903518677
0.2407250702381134 0.10549075156450272 0.5345708727836609
0.12648826837539673 0.11542436480522156 0.5838104486465454
0.2498619556427002 0.1919548660516739 0.5448282957077026
0.10897248983383179 0.16698649525642395 0.5872414708137512
0.17769351601600647 0.22587448358535767 0.4681277871131897
0.15348762273788452 0.16621148586273193 0.5145125389099121
0.1931232511997223 0.11140160262584686 0.4769423007965088
0.2143995612859726 0.1771351844072342 0.5301161408424377
0.18726550042629242 0.2646419107913971 0.4904435873031616
0.15154513716697693 0.26310476660728455 0.4403928220272064
0.17448829114437103 0.25557950139045715 0.5987182259559631
0.2210659235715866 0.2502783238887787 0.4501633942127228
0.20553457736968994 0.2019405961036682 0.5413001179695129
0.10989060997962952 0.15979261696338654 0.5735260844230652
0.28660422563552856 0.18459241092205048 0.4738461673259735
0.151036337018013 0.23910875618457794 0.42569491267204285
0.16946080327033997 0.2572036683559418 0.5926271080970764
0.26580581068992615 0.12064573168754578 0.5444638133049011
0.12661118805408478 0.2422143816947937 0.47955814003944397
0.23823092877864838 0.2002047598361969 0.5553941130638123
0.20727621018886566 0.18419119715690613 0.49356621503829956
0.12091533094644547 0.23068022727966309 0.4528931677341461
0.14113250374794006 0.1423366218805313 0.48320701718330383
0.15457208454608917 0.17039218544960022 0.5972101092338562
0.17008449137210846 0.22353537380695343 0.5115984082221985
0.21109513938426971 0.23459969460964203 0.5201659202575684
0.26137983798980713 0.15879741311073303 0.5039864778518677
0.23362767696380615 0.26573634147644043 0.5665640234947205
0.1601092368364334 0.2011415958404541 0.4172626733779907
0.12302570790052414 0.1138923242688179 0.5161630511283875
0.18582728505134583 0.2275829315185547 0.43862253427505493
0.1385255753993988 0.20490115880966187 0.5385068655014038
0.19620734453201294 0.17324043810367584 0.5487982034683228
0.10217993706464767 0.25106164813041687 0.5048773288726807
0.19241303205490112 0.26463815569877625 0.5575409531593323
0.14770002663135529 0.13056987524032593 0.589392900466919
0.1513950526714325 0.12265598028898239 0.5902818441390991
0.17287005484104156 0.24140885472297668 0.4482361078262329
0.22708861529827118 0.2514161467552185 0.6013042330741882
0.15988489985466003 0.15351709723472595 0.5126771330833435
0.2714464068412781 0.11687017977237701 0.4981534779071808
0.21713104844093323 0.10877437889575958 0.4515079855918884
0.27353838086128235 0.17206454277038574 0.5335310697555542
0.15431632101535797 0.14057791233062744 0.41178178787231445
0.22002549469470978 0.12124807387590408 0.39788469672203064
0.12231802940368652 0.11392050981521606 0.5847254991531372
0.1847483366727829 0.16123367846012115 0.45186367630958557
0.16177748143672943 0.2442990094423294 0.4955247640609741
0.16148041188716888 0.2287733256816864 0.44025856256484985
0.16805624961853027 0.25821754336357117 0.4232320189476013
0.12000608444213867 0.16172873973846436 0.4328003525733948
0.19599150121212006 0.238011434674263 0.49716025590896606
0.21958233416080475 0.10696430504322052 0.4429970681667328
0.15646079182624817 0.10922883450984955 0.45415839552879333
0.11989986896514893 0.20820245146751404 0.3947274684906006
0.28468525409698486 0.12202554941177368 0.5604991316795349
0.2051171064376831 0.18810772895812988 0.4421837329864502
0.22563229501247406 0.1427902728319168 0.5365447402000427
0.2178809493780136 0.16385607421398163 0.48472970724105835
0.15392310917377472 0.1857495903968811 0.6016615629196167
0.2922690808773041 0.17291872203350067 0.555756688117981
0.19046269357204437 0.21466827392578125 0.5122675895690918
0.1244078278541565 0.18473035097122192 0.5118744969367981
0.11051289737224579 0.15632031857967377 0.5331614017486572
0.21936823427677155 0.1540401428937912 0.40745148062705994
0.22001567482948303 0.27413052320480347 0.45195457339286804
0.10881740599870682 0.17322535812854767 0.5027520656585693
0.16184784471988678 0.1399596780538559 0.40373560786247253
0.24908766150474548 0.1973334550857544 0.584218442440033
0.21398374438285828 0.10667567700147629 0.46049684286117554
0.22821559011936188 0.17931605875492096 0.5165092349052429
0.19340626895427704 0.19371692836284637 0.4426165521144867
0.17046299576759338 0.11222667992115021 0.5503751635551453
0.1175377145409584 0.16279467940330505 0.5259872078895569
0.1938125044107437 0.1707748919725418 0.46787312626838684
0.15310701727867126 0.12258783727884293 0.3971976935863495
0.17166981101036072 0.12515591084957123 0.597998321056366
0.16143113374710083 0.20822688937187195 0.47070401906967163
0.22651705145835876 0.2187604010105133 0.5240927934646606
0.17818981409072876 0.24644728004932404 0.5639837384223938
0.22971326112747192 0.23544594645500183 0.5228136777877808
0.2322978526353836 0.14331278204917908 0.5399606227874756
0.13291211426258087 0.1861145943403244 0.527190625667572
0.147211953997612 0.20936895906925201 0.5020900368690491
0.16410186886787415 0.204756498336792 0.5107530355453491
0.2694299519062042 0.18200603127479553 0.5021141171455383
0.23343399167060852 0.2745344042778015 0.5119156837463379
0.20330645143985748 0.14152191579341888 0.5041722059249878
0.1349821239709854 0.25970450043678284 0.5641030669212341
0.17132985591888428 0.1651957482099533 0.5793970823287964
0.21489106118679047 0.2794978618621826 0.4321593642234802
0.15686556696891785 0.11369767040014267 0.4794403612613678
0.20481930673122406 0.12327700108289719 0.47045356035232544
0.1519358605146408 0.19167008996009827 0.4998463988304138
0.16843342781066895 0.23227183520793915 0.47489798069000244
0.30391958355903625 0.11530708521604538 0.40146341919898987
0.16411107778549194 0.20420372486114502 0.4237769544124603
0.1392405778169632 0.14200779795646667 0.49296602606773376
0.1571653187274933 0.22248880565166473 0.4598119854927063
0.1847703754901886 0.10301294177770615 0.5734857320785522
0.16751205921173096 0.11284271627664566 0.6017670035362244
0.1938621550798416 0.18251711130142212 0.5954102277755737
0.14234605431556702 0.1863309144973755 0.5534371733665466
0.229826882481575 0.16762970387935638 0.4800880253314972
0.11817121505737305 0.2380513697862625 0.562835156917572
0.1132531687617302 0.17283962666988373 0.41992390155792236
0.21570353209972382 0.1727491319179535 0.42658066749572754
0.25504234433174133 0.16910214722156525 0.4810393154621124
0.31599920988082886 0.11901146173477173 0.5296969413757324
0.23320452868938446 0.1070229634642601 0.4113767445087433
0.27886155247688293 0.21151115000247955 0.4232949912548065
0.18293161690235138 0.2628813683986664 0.5538314580917358
0.18351855874061584 0.23238223791122437 0.5062927007675171
0.27322086691856384 0.1850612312555313 0.49594202637672424
0.2750353515148163 0.2127731293439865 0.5034133195877075
0.11934104561805725 0.1938176155090332 0.42431917786598206
0.25658923387527466 0.1754864603281021 0.6017475128173828
0.2792290449142456 0.18494702875614166 0.5039017200469971
0.1941520869731903 0.16179297864437103 0.5992296934127808
0.12739063799381256 0.2575138211250305 0.503664493560791
0.11896927654743195 0.16289886832237244 0.6039522290229797
0.22507138550281525 0.13387155532836914 0.5267792344093323
0.13210612535476685 0.21408332884311676 0.5380197763442993
0.1479666531085968 0.26762205362319946 0.428930401802063
0.10956262052059174 0.17900121212005615 0.5683344602584839
0.16294975578784943 0.12684856355190277 0.44834232330322266
0.24079394340515137 0.23700642585754395 0.5668181777000427
0.15944308042526245 0.23811779916286469 0.4191693067550659
0.2641740143299103 0.13435740768909454 0.45755264163017273
0.18659383058547974 0.15126760303974152 0.42689064145088196
0.22530078887939453 0.19800730049610138 0.553066611289978
0.12302570790052414 0.1138923242688179 0.5161630511283875
0.18582728505134583 0.2275829315185547 0.43862253427505493
0.1385255753993988 0.20490115880966187 0.5385068655014038
0.10217993706464767 0.25106164813041687 0.5048773288726807
0.16240812838077545 0.23220792412757874 0.47126221656799316
0.246333509683609 0.1463453620672226 0.40873587131500244
0.11613483726978302 0.1959700882434845 0.4497339427471161
0.1631641983985901 0.11379352957010269 0.4540901780128479
0.18706288933753967 0.17272551357746124 0.5189197063446045
0.2105574756860733 0.20542888343334198 0.4392540752887726
0.18706288933753967 0.17272551357746124 0.5189197063446045
0.2105574756860733 0.20542888343334198 0.4392540752887726
0.17540346086025238 0.11122164130210876 0.4951654374599457
0.1920047104358673 0.1252145767211914 0.40260395407676697
0.2317049354314804 0.23665136098861694 0.43438398838043213
0.12661506235599518 0.1435169279575348 0.47594964504241943
0.13378731906414032 0.12270081043243408 0.3961343467235565
0.23238606750965118 0.20692849159240723 0.4087812602519989
0.21733435988426208 0.10632362216711044 0.5748297572135925
0.2570803165435791 0.13083887100219727 0.5182511210441589
0.16629114747047424 0.15693701803684235 0.5033368468284607
0.25992271304130554 0.21712832152843475 0.5799945592880249
0.15093161165714264 0.21281638741493225 0.5950106382369995
0.13628767430782318 0.14806893467903137 0.4214441776275635
0.14147250354290009 0.11896878480911255 0.5587842464447021
0.12452849000692368 0.12991061806678772 0.5138548612594604
0.2191542088985443 0.1696503609418869 0.527235746383667
0.11454521864652634 0.13655446469783783 0.5696151852607727
0.22271259129047394 0.21679648756980896 0.5355452299118042
0.19398753345012665 0.25379425287246704 0.4801919460296631
0.12181241065263748 0.1372469812631607 0.4282362461090088
0.19380582869052887 0.11988673359155655 0.4992610216140747
0.22971326112747192 0.23544594645500183 0.5228136777877808
0.2322978526353836 0.14331278204917908 0.5399606227874756
0.15781670808792114 0.18046298623085022 0.5442047119140625
0.18381710350513458 0.18268632888793945 0.5209008455276489
0.2694299519062042 0.18200603127479553 0.5021141171455383
0.23343399167060852 0.2745344042778015 0.5119156837463379
0.20330645143985748 0.14152191579341888 0.5041722059249878
0.2926388084888458 0.12742744386196136 0.40168485045433044
0.12821760773658752 0.12323638796806335 0.5230623483657837
0.10987117886543274 0.19383977353572845 0.4762245714664459
0.25547701120376587 0.23014411330223083 0.5175039172172546
0.15686556696891785 0.11369767040014267 0.4794403612613678
0.2508660554885864 0.2219834327697754 0.5124843120574951
0.20481930673122406 0.12327700108289719 0.47045356035232544
0.1519358605146408 0.19167008996009827 0.4998463988304138
0.30391958355903625 0.11530708521604538 0.40146341919898987
0.11520891636610031 0.11662200093269348 0.6031888723373413
0.16411107778549194 0.20420372486114502 0.4237769544124603
0.1392405778169632 0.14200779795646667 0.49296602606773376
0.21043114364147186 0.15320084989070892 0.5042339563369751
0.10734628140926361 0.25171300768852234 0.5626714825630188
0.16067366302013397 0.13625971972942352 0.45643746852874756
0.14502526819705963 0.21429233253002167 0.4057803452014923
0.1052689328789711 0.21294741332530975 0.5232686996459961
0.22804054617881775 0.19136305153369904 0.5629740953445435
0.12563762068748474 0.13705943524837494 0.4018176794052124
0.1602083444595337 0.1846533566713333 0.4256516695022583
0.27762463688850403 0.12064886838197708 0.42099690437316895
0.11831008642911911 0.2261630892753601 0.5929742455482483
0.17073272168636322 0.2426537126302719 0.588424026966095
0.21572569012641907 0.1059449091553688 0.4441598355770111
0.10745836794376373 0.21828103065490723 0.5303280353546143
0.14234605431556702 0.1863309144973755 0.5534371733665466
0.229826882481575 0.16762970387935638 0.4800880253314972
0.11817121505737305 0.2380513697862625 0.562835156917572
0.25568482279777527 0.19693586230278015 0.4292169213294983
0.1967540979385376 0.20393063127994537 0.5504780411720276
0.21570353209972382 0.1727491319179535 0.42658066749572754
0.12471038103103638 0.20605014264583588 0.5588308572769165
0.15033583343029022 0.22531716525554657 0.47548407316207886
0.14555364847183228 0.230669304728508 0.5651838779449463
0.10852232575416565 0.1897047907114029 0.5678635239601135
0.22784538567066193 0.25113028287887573 0.5958059430122375
0.29110243916511536 0.11240404099225998 0.4295041263103485
0.1458432972431183 0.2045930027961731 0.4156986176967621
0.16958361864089966 0.20577819645404816 0.518857479095459
0.15278415381908417 0.2309497445821762 0.4762190282344818
0.2698718011379242 0.1921098232269287 0.5271692872047424
0.13271284103393555 0.11987065523862839 0.5579075813293457
0.2260507196187973 0.15303057432174683 0.5568222403526306
0.13168983161449432 0.2144111692905426 0.5384217500686646
0.20930443704128265 0.1728813350200653 0.5668684244155884
0.2406119704246521 0.2537790536880493 0.5679963827133179
0.22199861705303192 0.25004372000694275 0.4907793700695038
0.14317825436592102 0.1449565887451172 0.6026631593704224
0.1723792999982834 0.2535901665687561 0.4213031232357025
0.19782724976539612 0.216116800904274 0.44350823760032654
0.3118290901184082 0.1362154185771942 0.51747065782547
0.11768684536218643 0.1326599419116974 0.4514102637767792
0.2085050344467163 0.2673671245574951 0.48321160674095154
0.193783700466156 0.1739548295736313 0.4472888112068176
0.17060814797878265 0.21973977982997894 0.5002621412277222
0.21274836361408234 0.22088034451007843 0.4998224377632141
0.28957870602607727 0.18922735750675201 0.4277350604534149
0.11557647585868835 0.25079670548439026 0.45394453406333923
0.11685608327388763 0.17992454767227173 0.43339329957962036
0.11096710711717606 0.2379893660545349 0.44306209683418274
0.1375086009502411 0.21479491889476776 0.5090568661689758
0.20725032687187195 0.28030839562416077 0.5029231905937195
0.17931517958641052 0.11415553838014603 0.4536636471748352
0.14040635526180267 0.12763309478759766 0.4077189564704895
0.20934510231018066 0.22763720154762268 0.5484058260917664
0.1847703754901886 0.10301294177770615 0.5734857320785522
0.16751205921173096 0.11284271627664566 0.6017670035362244
0.1938621550798416 0.18251711130142212 0.5954102277755737
0.14234605431556702 0.1863309144973755 0.5534371733665466
0.229826882481575 0.16762970387935638 0.4800880253314972
0.11817121505737305 0.2380513697862625 0.562835156917572
0.25568482279777527 0.19693586230278015 0.4292169213294983
0.2290802150964737 0.2618881165981293 0.5674866437911987
0.16300764679908752 0.19508463144302368 0.4240553081035614
0.1375339776277542 0.16057778894901276 0.4534275233745575
0.17045259475708008 0.12438512593507767 0.5828582048416138
0.13201887905597687 0.17718562483787537 0.5778212547302246
0.1181853711605072 0.15774011611938477 0.5344394445419312
0.16878998279571533 0.11926446110010147 0.541967511177063
0.23016145825386047 0.21054939925670624 0.5596897602081299
0.20949530601501465 0.19153283536434174 0.5738556385040283
0.2710936665534973 0.21889974176883698 0.5301251411437988
0.21158339083194733 0.19953453540802002 0.45684510469436646
0.3039100170135498 0.13856743276119232 0.4216603934764862
0.22587165236473083 0.21706941723823547 0.47751089930534363
0.14669302105903625 0.14119401574134827 0.4490353763103485
0.15732955932617188 0.10368363559246063 0.47290679812431335
0.12521907687187195 0.20948068797588348 0.4787976145744324
0.12273228168487549 0.25548601150512695 0.5617213845252991
0.13201887905597687 0.17718562483787537 0.5778212547302246
0.1181853711605072 0.15774011611938477 0.5344394445419312
0.16878998279571533 0.11926446110010147 0.541967511177063
0.23016145825386047 0.21054939925670624 0.5596897602081299
0.20949530601501465 0.19153283536434174 0.5738556385040283
0.2710936665534973 0.21889974176883698 0.5301251411437988
0.21158339083194733 0.19953453540802002 0.45684510469436646
0.3039100170135498 0.13856743276119232 0.4216603934764862
0.22587165236473083 0.21706941723823547 0.47751089930534363
0.14669302105903625 0.14119401574134827 0.4490353763103485
0.15964561700820923 0.10691312700510025 0.4821857511997223
0.11884915083646774 0.23888921737670898 0.44404423236846924
0.15242621302604675 0.1480938345193863 0.4616874158382416
0.29381483793258667 0.1289762407541275 0.42953771352767944
0.22755137085914612 0.1542605459690094 0.5970237851142883
0.1812497079372406 0.13650959730148315 0.5833008885383606
0.12269668281078339 0.25847911834716797 0.5016657710075378
0.1136634573340416 0.23620565235614777 0.3949825167655945
0.1301407665014267 0.21371221542358398 0.5084393620491028
0.12388510257005692 0.21122203767299652 0.47018471360206604
0.2610187232494354 0.161603182554245 0.46299687027931213
0.1261425018310547 0.1184563860297203 0.4359588921070099
0.20244328677654266 0.12088726460933685 0.40037256479263306
0.16923266649246216 0.17116795480251312 0.49533239006996155
0.11461714655160904 0.19419026374816895 0.6007553935050964
0.13066019117832184 0.2037106454372406 0.40653932094573975
0.16968506574630737 0.12711201608181 0.4501878023147583
0.18113023042678833 0.22660715878009796 0.3988996148109436
0.1709529161453247 0.22022508084774017 0.49220696091651917
0.12456962466239929 0.12773457169532776 0.5117715001106262
0.1365654319524765 0.21050405502319336 0.5254003405570984
0.17778319120407104 0.2125086486339569 0.5462533831596375
0.13210612535476685 0.21408332884311676 0.5380197763442993
0.2650392949581146 0.19839414954185486 0.5660111308097839
0.17921461164951324 0.2444780021905899 0.5138885974884033
0.20762470364570618 0.26752883195877075 0.412788450717926
0.22421017289161682 0.29247617721557617 0.4898950457572937
0.11461714655160904 0.19419026374816895 0.6007553935050964
0.13066019117832184 0.2037106454372406 0.40653932094573975
0.18068507313728333 0.11655255407094955 0.4658983051776886
0.13066019117832184 0.2037106454372406 0.40653932094573975
0.16968506574630737 0.12711201608181 0.4501878023147583
0.18113023042678833 0.22660715878009796 0.3988996148109436
0.3118290901184082 0.1362154185771942 0.51747065782547
0.11768684536218643 0.1326599419116974 0.4514102637767792
0.2085050344467163 0.2673671245574951 0.48321160674095154
0.193783700466156 0.1739548295736313 0.4472888112068176
0.17060814797878265 0.21973977982997894 0.5002621412277222
0.21274836361408234 0.22088034451007843 0.4998224377632141
0.2579560875892639 0.21517159044742584 0.600593626499176
0.1585012972354889 0.17751678824424744 0.44542253017425537
0.20009951293468475 0.2165922224521637 0.4410947859287262
0.24493016302585602 0.153052419424057 0.413845956325531
0.25501328706741333 0.17608512938022614 0.5922961235046387
0.18463197350502014 0.22196786105632782 0.4348406493663788
0.296728253364563 0.18838700652122498 0.40518972277641296
0.1666897088289261 0.261844664812088 0.47667455673217773
0.22005443274974823 0.29212686419487 0.550056517124176
0.13046571612358093 0.109183669090271 0.4707067310810089
0.13747407495975494 0.20911602675914764 0.4910047948360443
0.27008065581321716 0.12872906029224396 0.540802001953125
0.2050279825925827 0.10498329252004623 0.5555476546287537
0.13320767879486084 0.26457738876342773 0.49115869402885437
0.10799556225538254 0.22173865139484406 0.6050552129745483
0.18012720346450806 0.11170246452093124 0.5410264134407043
0.23643676936626434 0.15747669339179993 0.5181572437286377
0.12157606333494186 0.2452336996793747 0.4731825590133667
0.2276047021150589 0.16939258575439453 0.526637852191925
0.1788185089826584 0.184763103723526 0.5555614829063416
0.2041817605495453 0.15631739795207977 0.40601226687431335
0.2365839034318924 0.2761366367340088 0.43344661593437195
0.2408381998538971 0.2651418149471283 0.5187658071517944
0.2408381998538971 0.2651418149471283 0.5187658071517944
0.19166941940784454 0.23381578922271729 0.5349939465522766
0.24308227002620697 0.25027915835380554 0.4494151473045349
0.1053665429353714 0.24446456134319305 0.5670446753501892
0.23757094144821167 0.16846440732479095 0.4802646040916443
0.13294239342212677 0.2308357208967209 0.4533674120903015
0.15548741817474365 0.10259874165058136 0.5076245069503784
0.15548741817474365 0.10259874165058136 0.5076245069503784
0.14249561727046967 0.14792275428771973 0.5590268969535828
0.14812877774238586 0.11505616456270218 0.5364435315132141
0.12850582599639893 0.19730377197265625 0.4500367343425751
0.2876512110233307 0.11207164824008942 0.48955243825912476
0.2174077332019806 0.10834039002656937 0.5276538729667664
0.22942106425762177 0.13463714718818665 0.5154116749763489
0.26392900943756104 0.12808175384998322 0.5391554236412048
0.25428828597068787 0.1594633013010025 0.4992130696773529
0.26392900943756104 0.12808175384998322 0.5391554236412048
0.25428828597068787 0.1594633013010025 0.4992130696773529
0.25428828597068787 0.1594633013010025 0.4992130696773529
0.1642153114080429 0.20157398283481598 0.5262484550476074
0.10537102073431015 0.24432781338691711 0.4728998839855194
0.26959317922592163 0.17309531569480896 0.4239848256111145
0.13448691368103027 0.21352271735668182 0.49014198780059814
0.246333509683609 0.1463453620672226 0.40873587131500244
0.1052689328789711 0.21294741332530975 0.5232686996459961
0.22804054617881775 0.19136305153369904 0.5629740953445435
0.12563762068748474 0.13705943524837494 0.4018176794052124
0.12563762068748474 0.13705943524837494 0.4018176794052124
0.1602083444595337 0.1846533566713333 0.4256516695022583
0.2291175127029419 0.145758256316185 0.5856741666793823
0.228014275431633 0.26510676741600037 0.5051862597465515
0.26034075021743774 0.18087691068649292 0.5330929160118103
0.27003365755081177 0.1525929719209671 0.4929780662059784
0.16156889498233795 0.16515089571475983 0.48596635460853577
0.190122589468956 0.11884620040655136 0.49002039432525635
0.13324683904647827 0.20816843211650848 0.5568517446517944
0.1131935864686966 0.22749564051628113 0.4197811484336853
0.12329387664794922 0.16446560621261597 0.5788961052894592
0.1514163613319397 0.17494551837444305 0.5871888399124146
0.19372043013572693 0.231934055685997 0.453492671251297
0.2875979542732239 0.19360268115997314 0.4784865379333496
0.11009043455123901 0.23088939487934113 0.3950349986553192
0.17919199168682098 0.1884886622428894 0.429396390914917
0.14978927373886108 0.24276122450828552 0.5785217881202698
0.23687878251075745 0.25087422132492065 0.6005035042762756
0.19959986209869385 0.10430686175823212 0.45669955015182495
0.15693384408950806 0.11225025355815887 0.5429295897483826
0.21298974752426147 0.23907098174095154 0.5873789191246033
0.2663237154483795 0.1165974885225296 0.47943776845932007
0.19576777517795563 0.10450481623411179 0.5296792984008789
0.18012720346450806 0.11170246452093124 0.5410264134407043
0.23643676936626434 0.15747669339179993 0.5181572437286377
0.22738583385944366 0.1334398239850998 0.48419857025146484
0.2422953099012375 0.17034533619880676 0.5782783031463623
0.11862613260746002 0.16372719407081604 0.49705925583839417
0.19398753345012665 0.25379425287246704 0.4801919460296631
0.13294239342212677 0.2308357208967209 0.4533674120903015
0.15548741817474365 0.10259874165058136 0.5076245069503784
0.14249561727046967 0.14792275428771973 0.5590268969535828
0.14812877774238586 0.11505616456270218 0.5364435315132141
0.12850582599639893 0.19730377197265625 0.4500367343425751
0.2876512110233307 0.11207164824008942 0.48955243825912476
0.2174077332019806 0.10834039002656937 0.5276538729667664
0.22942106425762177 0.13463714718818665 0.5154116749763489
0.26392900943756104 0.12808175384998322 0.5391554236412048
0.25428828597068787 0.1594633013010025 0.4992130696773529
0.1642153114080429 0.20157398283481598 0.5262484550476074
0.10537102073431015 0.24432781338691711 0.4728998839855194
0.26959317922592163 0.17309531569480896 0.4239848256111145
0.13448691368103027 0.21352271735668182 0.49014198780059814
0.11505302786827087 0.21696403622627258 0.5079470872879028
0.1395508050918579 0.10673489421606064 0.48616430163383484
0.12723244726657867 0.18166260421276093 0.5980163812637329
0.16975371539592743 0.16734910011291504 0.4657706618309021
0.21056559681892395 0.12136652320623398 0.5944936871528625
0.2214159369468689 0.12376709282398224 0.5413295030593872
0.11557647585868835 0.25079670548439026 0.45394453406333923
0.14857830107212067 0.2498496174812317 0.5354050397872925
0.17920684814453125 0.24751633405685425 0.3995140492916107
0.14668674767017365 0.1292724460363388 0.603581964969635
0.1584896743297577 0.2237319052219391 0.4872748553752899
0.22121475636959076 0.27006712555885315 0.5754567980766296
0.2452312856912613 0.15535922348499298 0.5471574664115906
0.10756128281354904 0.2099592685699463 0.5766956806182861
0.24132852256298065 0.19167128205299377 0.5524870753288269
0.12216895073652267 0.15158338844776154 0.43034282326698303
0.13275723159313202 0.19726671278476715 0.5523776412010193
0.20452803373336792 0.1381589025259018 0.47630637884140015
0.21043114364147186 0.15320084989070892 0.5042339563369751
0.10734628140926361 0.25171300768852234 0.5626714825630188
0.16067366302013397 0.13625971972942352 0.45643746852874756
0.14502526819705963 0.21429233253002167 0.4057803452014923
0.1052689328789711 0.21294741332530975 0.5232686996459961
0.22804054617881775 0.19136305153369904 0.5629740953445435
0.12563762068748474 0.13705943524837494 0.4018176794052124
0.12548686563968658 0.13713711500167847 0.40194621682167053
0.2596695125102997 0.22028830647468567 0.4332294464111328
0.22530323266983032 0.21812395751476288 0.5003151893615723
0.2291175127029419 0.145758256316185 0.5856741666793823
0.22925667464733124 0.2672886252403259 0.5856475234031677
0.22176432609558105 0.19599765539169312 0.45239776372909546
0.11505302786827087 0.21696403622627258 0.5079470872879028
0.1395508050918579 0.10673489421606064 0.48616430163383484
0.12723244726657867 0.18166260421276093 0.5980163812637329
0.16975371539592743 0.16734910011291504 0.4657706618309021
0.21056559681892395 0.12136652320623398 0.5944936871528625
0.2214159369468689 0.12376709282398224 0.5413295030593872
0.11557647585868835 0.25079670548439026 0.45394453406333923
0.11685608327388763 0.17992454767227173 0.43339329957962036
0.11096710711717606 0.2379893660545349 0.44306209683418274
0.1375086009502411 0.21479491889476776 0.5090568661689758
0.20725032687187195 0.28030839562416077 0.5029231905937195
0.17931517958641052 0.11415553838014603 0.4536636471748352
0.14040635526180267 0.12763309478759766 0.4077189564704895
0.20934510231018066 0.22763720154762268 0.5484058260917664
0.1847703754901886 0.10301294177770615 0.5734857320785522
0.16751205921173096 0.11284271627664566 0.6017670035362244
0.1938621550798416 0.18251711130142212 0.5954102277755737
0.14234605431556702 0.1863309144973755 0.5534371733665466
0.13590417802333832 0.2514142692089081 0.5154318809509277
0.14668674767017365 0.1292724460363388 0.603581964969635
0.1584896743297577 0.2237319052219391 0.4872748553752899
0.22121475636959076 0.27006712555885315 0.5754567980766296
0.2452312856912613 0.15535922348499298 0.5471574664115906
0.10756128281354904 0.2099592685699463 0.5766956806182861
0.24132852256298065 0.19167128205299377 0.5524870753288269
0.12216895073652267 0.15158338844776154 0.43034282326698303
0.13275723159313202 0.19726671278476715 0.5523776412010193
0.14450155198574066 0.14822512865066528 0.488759309053421
0.3083430528640747 0.15298180282115936 0.45859596133232117
0.15686726570129395 0.2509472370147705 0.5940718054771423
0.17057457566261292 0.10493689775466919 0.4636041224002838
0.2620476484298706 0.14052735269069672 0.4837290644645691
0.11489039659500122 0.18757084012031555 0.47708064317703247
0.15775258839130402 0.2578431963920593 0.5868574976921082
0.2047625631093979 0.15136316418647766 0.49887555837631226
0.17794127762317657 0.17221896350383759 0.538507878780365
0.17543846368789673 0.21639204025268555 0.5331915020942688
0.1713877171278 0.17219971120357513 0.5108495950698853
0.15130279958248138 0.1424100697040558 0.5804101228713989
0.24801169335842133 0.1783672720193863 0.4044041335582733
0.2772790789604187 0.12589401006698608 0.5886565446853638
0.23126503825187683 0.14985598623752594 0.5752688646316528
0.12482579797506332 0.13263624906539917 0.46280616521835327
0.2776537537574768 0.17397724092006683 0.5657795667648315
0.20878520607948303 0.23010320961475372 0.49141043424606323
0.2093210369348526 0.23976778984069824 0.43307775259017944
0.2712244987487793 0.22040747106075287 0.45491307973861694
0.22421017289161682 0.29247617721557617 0.4898950457572937
0.28768986463546753 0.15735803544521332 0.4869951903820038
0.15980403125286102 0.10695979744195938 0.5504075288772583
0.16067366302013397 0.13625971972942352 0.45643746852874756
0.2558399438858032 0.15682515501976013 0.4451451897621155
0.12154904752969742 0.20609460771083832 0.5351399183273315
0.14427977800369263 0.14616511762142181 0.40268054604530334
0.21944449841976166 0.15548641979694366 0.4755811095237732
0.2038969099521637 0.13448961079120636 0.4460999369621277
0.24236343801021576 0.19970166683197021 0.5651689767837524
0.11871185153722763 0.1301574856042862 0.43603670597076416
0.11332506686449051 0.2575269341468811 0.6050225496292114
0.1086055189371109 0.21694491803646088 0.5281935930252075
0.1444053053855896 0.11550260335206985 0.5780487656593323
0.26240456104278564 0.22387129068374634 0.4876812696456909
0.27347418665885925 0.1732301265001297 0.5093271136283875
0.10897593945264816 0.18011312186717987 0.5572742819786072
0.2041252851486206 0.11254550516605377 0.4571005403995514
0.11684417724609375 0.10620930045843124 0.5087736248970032
