ply
format ascii 1.0
element vertex 819
property float x
property float y
property float z
end_header
0.14167428016662598 0.1703738570213318 0.598323404788971
0.23485498130321503 0.20624656975269318 0.49958616495132446
0.23853015899658203 0.1974172443151474 0.4489378035068512
0.27338042855262756 0.14561770856380463 0.5578508973121643
0.11167485266923904 0.18252670764923096 0.49063578248023987
0.16523784399032593 0.10564228892326355 0.6041524410247803
0.19775693118572235 0.1696840077638626 0.5067950487136841
0.2145337015390396 0.27779045701026917 0.4675414264202118
0.2149021476507187 0.3037595748901367 0.44248685240745544
0.11380667239427567 0.23496821522712708 0.5208714604377747
0.23575542867183685 0.13043875992298126 0.5677732229232788
0.2265864759683609 0.23813152313232422 0.5888988971710205
0.17464745044708252 0.30162546038627625 0.48185965418815613
0.1692487746477127 0.12395121902227402 0.5954618453979492
0.22947187721729279 0.30284449458122253 0.5357764959335327
0.22610297799110413 0.16107560694217682 0.5869295001029968
0.2338455617427826 0.1580418348312378 0.49870356917381287
0.14451323449611664 0.14680935442447662 0.5409598350524902
0.16927413642406464 0.2568906843662262 0.5802078247070312
0.17955495417118073 0.2810424864292145 0.5617939829826355
0.24879352748394012 0.16898712515830994 0.5537269711494446
0.13163305819034576 0.23534764349460602 0.5873390436172485
0.20724549889564514 0.31571462750434875 0.6054663062095642
0.14011967182159424 0.2886170744895935 0.4920259714126587
0.28847536444664 0.1462416648864746 0.483886182308197
0.17696012556552887 0.12003644555807114 0.469493567943573
0.23853886127471924 0.17958460748195648 0.496696799993515
0.17766447365283966 0.26537013053894043 0.5135000348091125
0.1788748949766159 0.10860981792211533 0.3950531780719757
0.11802331358194351 0.15864115953445435 0.5213159918785095
0.14167428016662598 0.1703738570213318 0.598323404788971
0.23853015899658203 0.1974172443151474 0.4489378035068512
0.27338042855262756 0.14561770856380463 0.5578508973121643
0.11167485266923904 0.18252670764923096 0.49063578248023987
0.16523784399032593 0.10564228892326355 0.6041524410247803
0.19775693118572235 0.1696840077638626 0.5067950487136841
0.2145337015390396 0.27779045701026917 0.4675414264202118
0.2149021476507187 0.3037595748901367 0.44248685240745544
0.11380667239427567 0.23496821522712708 0.5208714604377747
0.24047479033470154 0.13530103862285614 0.4829767942428589
0.16556920111179352 0.2945139706134796 0.5013568997383118
0.11973269283771515 0.1889869123697281 0.6016734838485718
0.16584031283855438 0.16497847437858582 0.528406023979187
0.1045515313744545 0.23466168344020844 0.48156556487083435
0.1738274097442627 0.24435041844844818 0.5425260663032532
0.2375352382659912 0.12663720548152924 0.5791539549827576
0.18435229361057281 0.21364952623844147 0.5022198557853699
0.25127333402633667 0.11877619475126266 0.46325910091400146
0.17955495417118073 0.2810424864292145 0.5617939829826355
0.24879352748394012 0.16898712515830994 0.5537269711494446
0.13163305819034576 0.23534764349460602 0.5873390436172485
0.20724549889564514 0.31571462750434875 0.6054663062095642
0.14011967182159424 0.2886170744895935 0.4920259714126587
0.23982670903205872 0.18035916984081268 0.4513361155986786
0.1503167748451233 0.10617075115442276 0.47791796922683716
0.18883313238620758 0.18811896443367004 0.5887455940246582
0.12802524864673615 0.2670117914676666 0.3953280448913574
0.24835838377475739 0.2576184570789337 0.5454466938972473
0.21680614352226257 0.12117495387792587 0.4247945547103882
0.21219918131828308 0.3084511458873749 0.4245654046535492
0.11086851358413696 0.23939087986946106 0.4484950006008148
0.1578342169523239 0.270596981048584 0.4814697802066803
0.2015398144721985 0.11554747074842453 0.476672887802124
0.20058591663837433 0.15945720672607422 0.4799472987651825
0.14779864251613617 0.10801830142736435 0.5345532298088074
0.2331177145242691 0.1794099658727646 0.5910723209381104
0.14823782444000244 0.1281595081090927 0.44690126180648804
0.19207775592803955 0.26302653551101685 0.5666927695274353
0.21518045663833618 0.12831079959869385 0.5628834962844849
0.1570829302072525 0.14713075757026672 0.4133795499801636
0.11528104543685913 0.14767445623874664 0.4703955054283142
0.14257562160491943 0.2729828655719757 0.41762396693229675
0.13670074939727783 0.23597674071788788 0.4158480763435364
0.14875644445419312 0.21990473568439484 0.5578749179840088
0.22366218268871307 0.12785735726356506 0.491483211517334
0.22876963019371033 0.17001976072788239 0.45649707317352295
0.23537155985832214 0.28329628705978394 0.5055177211761475
0.20819325745105743 0.21406079828739166 0.46393224596977234
0.18825118243694305 0.21500875055789948 0.4544149339199066
0.25165241956710815 0.16255147755146027 0.4318152368068695
0.1119091808795929 0.18624569475650787 0.5257035493850708
0.2497904896736145 0.1755828559398651 0.47874292731285095
0.2091376632452011 0.30972009897232056 0.4318414628505707
0.10133782774209976 0.26528429985046387 0.604393720626831
0.16719456017017365 0.1341182291507721 0.5943859219551086
0.2668515741825104 0.15297240018844604 0.5317986011505127
0.14379540085792542 0.13703122735023499 0.5828852653503418
0.13773362338542938 0.26311105489730835 0.533777117729187
0.18122391402721405 0.19115488231182098 0.4331871569156647
0.20058591663837433 0.15945720672607422 0.4799472987651825
0.14779864251613617 0.10801830142736435 0.5345532298088074
0.2331177145242691 0.1794099658727646 0.5910723209381104
0.15556761622428894 0.2508833110332489 0.5108221173286438
0.15160132944583893 0.281099796295166 0.45662033557891846
0.11521373689174652 0.16319310665130615 0.5412392616271973
0.14684326946735382 0.1361227184534073 0.5046606659889221
0.12253187596797943 0.22830316424369812 0.5815474390983582
0.15000711381435394 0.1392545849084854 0.420137882232666
0.16905927658081055 0.18266253173351288 0.5541422367095947
0.2692708969116211 0.21233877539634705 0.5172940492630005
0.12060879915952682 0.10923939198255539 0.44941067695617676
0.12351255118846893 0.19853614270687103 0.5173145532608032
0.12707842886447906 0.2304549366235733 0.47288599610328674
0.13136959075927734 0.17082791030406952 0.5185204148292542
0.21991771459579468 0.2812802493572235 0.4159664809703827
0.2071160078048706 0.2999173104763031 0.5695248246192932
0.1704888492822647 0.13300660252571106 0.46340662240982056
0.22292500734329224 0.29102084040641785 0.46701696515083313
0.190023735165596 0.15714582800865173 0.5225165486335754
0.17301638424396515 0.24714858829975128 0.5849965214729309
0.1887524574995041 0.3070800304412842 0.4346100687980652
0.2133323699235916 0.32918238639831543 0.43809908628463745
0.14523257315158844 0.27946415543556213 0.5255952477455139
0.18034695088863373 0.12385521829128265 0.4352007806301117
0.17412687838077545 0.2128424495458603 0.6015956997871399
0.2074621170759201 0.20535169541835785 0.560279905796051
0.19618697464466095 0.17318321764469147 0.4864901304244995
0.15951669216156006 0.1645776629447937 0.41932907700538635
0.2330244779586792 0.12211578339338303 0.5693195462226868
0.1759837120771408 0.1773214042186737 0.48362186551094055
0.18122391402721405 0.19115488231182098 0.4331871569156647
0.14824236929416656 0.1640906035900116 0.5417178273200989
0.14080122113227844 0.28714102506637573 0.5391201972961426
0.11137330532073975 0.22008496522903442 0.50690758228302
0.224956676363945 0.3019261658191681 0.526768684387207
0.1281978189945221 0.10747214406728745 0.5074415802955627
0.18806926906108856 0.16827867925167084 0.4583730697631836
0.2926936149597168 0.18816086649894714 0.43920451402664185
0.12783955037593842 0.2725799083709717 0.5284174680709839
0.15688957273960114 0.11007096618413925 0.568329393863678
0.15138012170791626 0.15977486968040466 0.5143253803253174
0.19769808650016785 0.21663810312747955 0.6027123928070068
0.21701757609844208 0.2485702484846115 0.41280269622802734
0.26123562455177307 0.13780765235424042 0.584115207195282
0.13348865509033203 0.11668922007083893 0.5270469188690186
0.2101178616285324 0.10906417667865753 0.5675306916236877
0.25435447692871094 0.2553713023662567 0.5934871435165405
0.1237991601228714 0.1650076061487198 0.49398869276046753
0.16988451778888702 0.15720346570014954 0.5541204810142517
0.22232754528522491 0.11640205979347229 0.3968328833580017
0.17976121604442596 0.20212872326374054 0.5947566032409668
0.1597398966550827 0.14740721881389618 0.49281761050224304
0.21458126604557037 0.11506699025630951 0.525191068649292
0.3004555106163025 0.16245388984680176 0.4462285041809082
0.1292252093553543 0.15187349915504456 0.4910147786140442
0.10434899479150772 0.22993163764476776 0.4804862141609192
0.1625475138425827 0.10680986940860748 0.5368773937225342
0.17193175852298737 0.12783317267894745 0.5904592871665955
0.1416996568441391 0.18057368695735931 0.40782877802848816
0.13373146951198578 0.16684572398662567 0.5128740668296814
0.17587514221668243 0.2157168835401535 0.5468923449516296
0.1252570003271103 0.12096787989139557 0.4821937382221222
0.22446280717849731 0.12044408172369003 0.49430787563323975
0.2137945592403412 0.29762059450149536 0.5621599555015564
0.18056339025497437 0.2870109975337982 0.49422627687454224
0.17489875853061676 0.26052242517471313 0.5387672185897827
0.14649967849254608 0.13298740983009338 0.44919586181640625
0.17395342886447906 0.2408093512058258 0.4373478889465332
0.2719639241695404 0.22236867249011993 0.4154815971851349
0.1782940924167633 0.2170996069908142 0.536821722984314
0.266977459192276 0.20838674902915955 0.4693598747253418
0.11570043116807938 0.22825084626674652 0.444985568523407
0.14950275421142578 0.2771383225917816 0.43426865339279175
0.2985759675502777 0.15011535584926605 0.45109957456588745
0.1106427013874054 0.1874825358390808 0.4578774869441986
0.1528899371623993 0.24320554733276367 0.5666425824165344
0.2414211481809616 0.19811953604221344 0.5042724609375
0.17670778930187225 0.18936865031719208 0.5871906280517578
0.28513213992118835 0.1854061782360077 0.4995802938938141
0.20689447224140167 0.2171841263771057 0.5142898559570312
0.215190127491951 0.2408076673746109 0.5950777530670166
0.18977637588977814 0.24017837643623352 0.5375909805297852
0.12705957889556885 0.2733284831047058 0.43046408891677856
0.1593443751335144 0.24625705182552338 0.4899265468120575
0.23078691959381104 0.29063037037849426 0.5700677633285522
0.18766207993030548 0.1879737824201584 0.4185495972633362
0.17180635035037994 0.1838473528623581 0.5647493600845337
0.17117129266262054 0.19494418799877167 0.5873708128929138
0.24636152386665344 0.2706763744354248 0.575526773929596
0.24827559292316437 0.24310900270938873 0.522767186164856
0.2316131442785263 0.11709126085042953 0.5812406539916992
0.21879719197750092 0.17456111311912537 0.5778806209564209
0.16743862628936768 0.23741614818572998 0.46502256393432617
0.13349376618862152 0.13295286893844604 0.5865806341171265
0.23207931220531464 0.21051053702831268 0.49904316663742065
0.12897002696990967 0.2018914520740509 0.5198787450790405
0.22824116051197052 0.1340576559305191 0.6010925769805908
0.2709962725639343 0.17203281819820404 0.46088653802871704
0.20453765988349915 0.26313191652297974 0.4338231384754181
0.1505817025899887 0.261772096157074 0.5210917592048645
0.16634882986545563 0.11102449148893356 0.4555061161518097
0.1439732164144516 0.2194935530424118 0.5898334383964539
0.20922768115997314 0.12700119614601135 0.5860967636108398
0.16808877885341644 0.2385268360376358 0.5372544527053833
0.20107245445251465 0.21122190356254578 0.592204749584198
0.10626202076673508 0.2643263339996338 0.49204888939857483
0.1622583568096161 0.17551816999912262 0.4920971691608429
0.24420419335365295 0.1549021452665329 0.47997814416885376
0.21304959058761597 0.27572157979011536 0.4315977096557617
0.20917825400829315 0.31342464685440063 0.4057815372943878
0.14861182868480682 0.19353416562080383 0.41439446806907654
0.2660853862762451 0.13386090099811554 0.41697463393211365
0.1980655938386917 0.1304958164691925 0.5106051564216614
0.1320313960313797 0.15864838659763336 0.5985409021377563
0.12600338459014893 0.2533224821090698 0.42573022842407227
0.1998966932296753 0.20321783423423767 0.48960229754447937
0.259661465883255 0.13336420059204102 0.44742119312286377
0.14748549461364746 0.2234208881855011 0.5874082446098328
0.11387499421834946 0.1567491590976715 0.45391103625297546
0.13716058433055878 0.2538321912288666 0.4138457179069519
0.24881000816822052 0.20975366234779358 0.43401503562927246
0.19163186848163605 0.22968514263629913 0.399183452129364
0.1357744038105011 0.24296270310878754 0.54075026512146
0.25718680024147034 0.23642507195472717 0.49717792868614197
0.2667906582355499 0.171571746468544 0.4333314001560211
0.1042199581861496 0.2503283619880676 0.5654104948043823
0.17846500873565674 0.23795384168624878 0.5024688839912415
0.2015398144721985 0.11554747074842453 0.476672887802124
0.20058591663837433 0.15945720672607422 0.4799472987651825
0.14779864251613617 0.10801830142736435 0.5345532298088074
0.14779864251613617 0.10801830142736435 0.5345532298088074
0.2331177145242691 0.1794099658727646 0.5910723209381104
0.15556761622428894 0.2508833110332489 0.5108221173286438
0.12253187596797943 0.22830316424369812 0.5815474390983582
0.15000711381435394 0.1392545849084854 0.420137882232666
0.16905927658081055 0.18266253173351288 0.5541422367095947
0.2692708969116211 0.21233877539634705 0.5172940492630005
0.2692708969116211 0.21233877539634705 0.5172940492630005
0.12060879915952682 0.10923939198255539 0.44941067695617676
0.12351255118846893 0.19853614270687103 0.5173145532608032
0.22452761232852936 0.26388823986053467 0.5439448356628418
0.13665372133255005 0.16343456506729126 0.582832932472229
0.12470084428787231 0.23757050931453705 0.5953481793403625
0.1692139208316803 0.2657676339149475 0.4629197120666504
0.24028624594211578 0.2502780556678772 0.5088603496551514
0.1647375077009201 0.11503227800130844 0.5006096959114075
0.20921926200389862 0.24046435952186584 0.4586706757545471
0.13348865509033203 0.11668922007083893 0.5270469188690186
0.312913179397583 0.14864645898342133 0.4559679627418518
0.2085399180650711 0.11054093390703201 0.40620049834251404
0.21241019666194916 0.30428197979927063 0.59067702293396
0.17255644500255585 0.2151148021221161 0.4463673233985901
0.11036968976259232 0.1866183876991272 0.591626763343811
0.13716058433055878 0.2538321912288666 0.4138457179069519
0.24881000816822052 0.20975366234779358 0.43401503562927246
0.19163186848163605 0.22968514263629913 0.399183452129364
0.1357744038105011 0.24296270310878754 0.54075026512146
0.25718680024147034 0.23642507195472717 0.49717792868614197
0.17696012556552887 0.12003644555807114 0.469493567943573
0.14806151390075684 0.2012246549129486 0.56546950340271
0.11814901977777481 0.11558754742145538 0.5502409338951111
0.15763908624649048 0.24791593849658966 0.40455424785614014
0.21624432504177094 0.29805320501327515 0.5274081826210022
0.1065153107047081 0.23782125115394592 0.40864843130111694
0.19828052818775177 0.1511314958333969 0.49022290110588074
0.1421107053756714 0.14596451818943024 0.566702127456665
0.27696695923805237 0.13463981449604034 0.4418652653694153
0.14954827725887299 0.20453804731369019 0.5257687568664551
0.15369105339050293 0.1804761439561844 0.5828041434288025
0.23491579294204712 0.12206567078828812 0.5898717045783997
0.1873522698879242 0.16628265380859375 0.5140630006790161
0.12194366753101349 0.20720955729484558 0.4427168369293213
0.16778653860092163 0.18698786199092865 0.43248289823532104
0.10984418541193008 0.1793295294046402 0.51609206199646
0.15229664742946625 0.20501188933849335 0.5032008290290833
0.12942491471767426 0.24523486196994781 0.4635922610759735
0.18148453533649445 0.12567049264907837 0.6034656167030334
0.2190817892551422 0.11291954666376114 0.5012553334236145
0.2762901186943054 0.14637474715709686 0.5541588068008423
0.271486759185791 0.19469653069972992 0.5047430396080017
0.14108632504940033 0.16735327243804932 0.5783659815788269
0.16355624794960022 0.27481064200401306 0.5265031456947327
0.20609429478645325 0.22280944883823395 0.45626652240753174
0.20609429478645325 0.22280944883823395 0.45626652240753174
0.2455771416425705 0.21704861521720886 0.5336650609970093
0.21724160015583038 0.24129056930541992 0.49294179677963257
0.18678003549575806 0.18089891970157623 0.4790361821651459
0.11922232061624527 0.27958497405052185 0.4184330701828003
0.1736501157283783 0.22463954985141754 0.5441307425498962
0.2915040850639343 0.18981000781059265 0.4407271146774292
0.20724549889564514 0.31571462750434875 0.6054663062095642
0.16355624794960022 0.27481064200401306 0.5265031456947327
0.20609429478645325 0.22280944883823395 0.45626652240753174
0.2455771416425705 0.21704861521720886 0.5336650609970093
0.21724160015583038 0.24129056930541992 0.49294179677963257
0.18678003549575806 0.18089891970157623 0.4790361821651459
0.11922232061624527 0.27958497405052185 0.4184330701828003
0.1736501157283783 0.22463954985141754 0.5441307425498962
0.2915040850639343 0.18981000781059265 0.4407271146774292
0.2045239359140396 0.15271127223968506 0.435749351978302
0.14624656736850739 0.2663053274154663 0.5130788683891296
0.16936932504177094 0.2187267392873764 0.4206838011741638
0.24675674736499786 0.11604257673025131 0.5439504384994507
0.1358359158039093 0.23193928599357605 0.48099657893180847
0.1616216003894806 0.11112182587385178 0.5143820643424988
0.1924089789390564 0.12616978585720062 0.43256616592407227
0.2395607829093933 0.17178605496883392 0.5693926215171814
0.2110934555530548 0.2939927279949188 0.4720795750617981
0.13808324933052063 0.13479553163051605 0.5905207395553589
0.2471487671136856 0.20470184087753296 0.5486748218536377
0.11842719465494156 0.27688854932785034 0.44809839129447937
0.30577072501182556 0.1583133190870285 0.4304367005825043
0.22384311258792877 0.25525015592575073 0.5521321296691895
0.10588067770004272 0.253756582736969 0.5054430961608887
0.24594388902187347 0.13225048780441284 0.4675590693950653
0.11888889968395233 0.23066794872283936 0.5081786513328552
0.12886743247509003 0.2325398176908493 0.47617143392562866
0.12727588415145874 0.1473577320575714 0.43963155150413513
0.2137945592403412 0.29762059450149536 0.5621599555015564
0.2334948033094406 0.2439422756433487 0.5037410855293274
0.1532936692237854 0.23230376839637756 0.5749626159667969
0.1120423972606659 0.2689010202884674 0.5233367085456848
0.2348650097846985 0.2611888349056244 0.5410165786743164
0.18678003549575806 0.18089891970157623 0.4790361821651459
0.11922232061624527 0.27958497405052185 0.4184330701828003
0.1736501157283783 0.22463954985141754 0.5441307425498962
0.2915040850639343 0.18981000781059265 0.4407271146774292
0.13006263971328735 0.23468758165836334 0.46035438776016235
0.11233635991811752 0.18081162869930267 0.42831113934516907
0.1549578160047531 0.19010089337825775 0.6042429208755493
0.10329228639602661 0.25363636016845703 0.4618239402770996
0.12357266992330551 0.12396357208490372 0.4434870779514313
0.2218036651611328 0.2298073172569275 0.601447582244873
0.11999448388814926 0.11442507803440094 0.5714577436447144
0.15409275889396667 0.11326729506254196 0.4657629430294037
0.2734478712081909 0.16747555136680603 0.5154910683631897
0.14774873852729797 0.21739830076694489 0.48936086893081665
0.2231825739145279 0.12445661425590515 0.5043952465057373
0.14853613078594208 0.19590136408805847 0.5629017949104309
0.26513034105300903 0.20500198006629944 0.5054958462715149
0.23084579408168793 0.2321787029504776 0.5201554298400879
0.2138068675994873 0.19701406359672546 0.5430920124053955
0.15737973153591156 0.2879451811313629 0.503440260887146
0.2471487671136856 0.20470184087753296 0.5486748218536377
0.11842719465494156 0.27688854932785034 0.44809839129447937
0.30577072501182556 0.1583133190870285 0.4304367005825043
0.22384311258792877 0.25525015592575073 0.5521321296691895
0.10588067770004272 0.253756582736969 0.5054430961608887
0.24594388902187347 0.13225048780441284 0.4675590693950653
0.11888889968395233 0.23066794872283936 0.5081786513328552
0.12886743247509003 0.2325398176908493 0.47617143392562866
0.12727588415145874 0.1473577320575714 0.43963155150413513
0.2137945592403412 0.29762059450149536 0.5621599555015564
0.18056339025497437 0.2870109975337982 0.49422627687454224
0.16189433634281158 0.12468783557415009 0.5058115124702454
0.14624656736850739 0.2663053274154663 0.5130788683891296
0.2405211329460144 0.179583340883255 0.5629419684410095
0.18457378447055817 0.11119164526462555 0.5502485036849976
0.24200226366519928 0.212294802069664 0.5495331883430481
0.2950441241264343 0.14470858871936798 0.4240158796310425
0.1258510947227478 0.18407239019870758 0.5103222727775574
0.2719639241695404 0.22236867249011993 0.4154815971851349
0.1782940924167633 0.2170996069908142 0.536821722984314
0.266977459192276 0.20838674902915955 0.4693598747253418
0.11570043116807938 0.22825084626674652 0.444985568523407
0.14950275421142578 0.2771383225917816 0.43426865339279175
0.2985759675502777 0.15011535584926605 0.45109957456588745
0.1106427013874054 0.1874825358390808 0.4578774869441986
0.1528899371623993 0.24320554733276367 0.5666425824165344
0.2414211481809616 0.19811953604221344 0.5042724609375
0.17670778930187225 0.18936865031719208 0.5871906280517578
0.28513213992118835 0.1854061782360077 0.4995802938938141
0.20689447224140167 0.2171841263771057 0.5142898559570312
0.215190127491951 0.2408076673746109 0.5950777530670166
0.18977637588977814 0.24017837643623352 0.5375909805297852
0.12705957889556885 0.2733284831047058 0.43046408891677856
0.1593443751335144 0.24625705182552338 0.4899265468120575
0.23078691959381104 0.29063037037849426 0.5700677633285522
0.1685905158519745 0.1378611922264099 0.5819029211997986
0.16937464475631714 0.2841310501098633 0.4657217264175415
0.28308770060539246 0.18143288791179657 0.5626257061958313
0.2048826366662979 0.14325034618377686 0.5931902527809143
0.1454750895500183 0.19493819773197174 0.4751196801662445
0.10164333879947662 0.2677195370197296 0.5504093170166016
0.14315497875213623 0.2644946575164795 0.5301038026809692
0.2705141603946686 0.12368267774581909 0.5376744270324707
0.2218036651611328 0.2298073172569275 0.601447582244873
0.12351255118846893 0.19853614270687103 0.5173145532608032
0.22452761232852936 0.26388823986053467 0.5439448356628418
0.13665372133255005 0.16343456506729126 0.582832932472229
0.12470084428787231 0.23757050931453705 0.5953481793403625
0.1692139208316803 0.2657676339149475 0.4629197120666504
0.24823080003261566 0.27404919266700745 0.5178359150886536
0.1647375077009201 0.11503227800130844 0.5006096959114075
0.20913128554821014 0.24009908735752106 0.45888593792915344
0.19145122170448303 0.23426415026187897 0.6040546894073486
0.22986754775047302 0.3064521849155426 0.5179411768913269
0.2618198096752167 0.23989713191986084 0.46671047806739807
0.11151479929685593 0.21514756977558136 0.5749980211257935
0.15233537554740906 0.19198168814182281 0.5906760692596436
0.2688773274421692 0.22393260896205902 0.4230322539806366
0.24881000816822052 0.20975366234779358 0.43401503562927246
0.21880337595939636 0.22199657559394836 0.43251344561576843
0.25718680024147034 0.23642507195472717 0.49717792868614197
0.17262862622737885 0.1160021722316742 0.5435593128204346
0.1524813175201416 0.18232221901416779 0.4638482630252838
0.2193157821893692 0.29091107845306396 0.5163331031799316
0.11395055800676346 0.22228804230690002 0.4052719473838806
0.1951448768377304 0.22247689962387085 0.47591426968574524
0.23959282040596008 0.21031992137432098 0.4285113215446472
0.23569947481155396 0.1872289776802063 0.5905425548553467
0.1609533131122589 0.20120683312416077 0.46660491824150085
0.26117169857025146 0.21853730082511902 0.5626602172851562
0.16320303082466125 0.22759845852851868 0.5470656752586365
0.19747838377952576 0.14150142669677734 0.5853630900382996
0.2443126142024994 0.22155198454856873 0.49100813269615173
0.18336179852485657 0.17352549731731415 0.6024712920188904
0.10964406281709671 0.24838000535964966 0.39704325795173645
0.1120423972606659 0.2689010202884674 0.5233367085456848
0.18565279245376587 0.26072120666503906 0.5836031436920166
0.23461423814296722 0.29314014315605164 0.5286416411399841
0.27983587980270386 0.16402088105678558 0.5319954752922058
0.26935338973999023 0.1710696667432785 0.5403221845626831
0.1775628924369812 0.14477962255477905 0.5128104090690613
0.16921240091323853 0.1573074758052826 0.502729594707489
0.21659624576568604 0.271960973739624 0.417058527469635
0.21062210202217102 0.19979055225849152 0.47685298323631287
0.18175479769706726 0.13834266364574432 0.5408114790916443
0.2577536404132843 0.20204849541187286 0.40414929389953613
0.17894305288791656 0.23938776552677155 0.45184803009033203
0.2863348424434662 0.17050707340240479 0.5245171189308167
0.14837771654129028 0.2559211254119873 0.4741813540458679
0.23060686886310577 0.17045773565769196 0.5086959600448608
0.11800374835729599 0.26165667176246643 0.5187062621116638
0.15118461847305298 0.14128433167934418 0.5669716000556946
0.1493854522705078 0.24574674665927887 0.40211403369903564
0.14809460937976837 0.1463547646999359 0.41570019721984863
0.19094833731651306 0.20993435382843018 0.46581870317459106
0.12162483483552933 0.1772748827934265 0.46564123034477234
0.2080160230398178 0.2928245961666107 0.510183572769165
0.13675357401371002 0.28599753975868225 0.4131748080253601
0.242139995098114 0.13771122694015503 0.47133511304855347
0.20430131256580353 0.11074795573949814 0.4765998125076294
0.11992091685533524 0.18310748040676117 0.4484248459339142
0.171071395277977 0.15521423518657684 0.5050711035728455
0.22715850174427032 0.2620762288570404 0.5421521067619324
0.13141779601573944 0.24920223653316498 0.3928222060203552
0.13745900988578796 0.28612783551216125 0.5715441703796387
0.18858720362186432 0.2746107876300812 0.4111163020133972
0.11084050685167313 0.268054723739624 0.4744408428668976
0.207833394408226 0.26953843235969543 0.548785388469696
0.2913602888584137 0.17965859174728394 0.5507749319076538
0.12245457619428635 0.23188751935958862 0.4198569059371948
0.22460931539535522 0.1318671852350235 0.49072933197021484
0.28427639603614807 0.17746838927268982 0.4779331684112549
0.19828173518180847 0.28551697731018066 0.5716782212257385
0.16032731533050537 0.14310312271118164 0.5471212267875671
0.17707805335521698 0.28450101613998413 0.44352394342422485
0.2247312366962433 0.11882881820201874 0.6011199951171875
0.2140660583972931 0.18689769506454468 0.5846800804138184
0.16202591359615326 0.22075961530208588 0.472896933555603
0.2316078096628189 0.16919942200183868 0.5086199045181274
0.12477234750986099 0.13277214765548706 0.5420174598693848
0.11676953732967377 0.1854316145181656 0.49233096837997437
0.10983666032552719 0.26071417331695557 0.5022318363189697
0.24796226620674133 0.2241259664297104 0.46879300475120544
0.17992320656776428 0.22547344863414764 0.5186961889266968
0.12321581691503525 0.17699290812015533 0.4839416444301605
0.15040186047554016 0.24189968407154083 0.41491013765335083
0.18578393757343292 0.21599583327770233 0.558888852596283
0.14121732115745544 0.2735626995563507 0.41305026412010193
0.2906005382537842 0.16807010769844055 0.42294684052467346
0.2733525037765503 0.20668809115886688 0.4597952961921692
0.17453445494174957 0.27459245920181274 0.5339381694793701
0.25279897451400757 0.18530701100826263 0.5776147246360779
0.26339587569236755 0.24728189408779144 0.5764148235321045
0.17885799705982208 0.12104972451925278 0.5865002870559692
0.17942991852760315 0.2491299957036972 0.5598630309104919
0.2232319563627243 0.1396002620458603 0.4375367760658264
0.21189960837364197 0.24036172032356262 0.5105029344558716
0.23597818613052368 0.19856715202331543 0.550815761089325
0.19922970235347748 0.24579507112503052 0.46013760566711426
0.19637155532836914 0.15540409088134766 0.46407729387283325
0.17262862622737885 0.1160021722316742 0.5435593128204346
0.1524813175201416 0.18232221901416779 0.4638482630252838
0.264160692691803 0.12200620770454407 0.43557271361351013
0.22993957996368408 0.19480106234550476 0.41192924976348877
0.21948504447937012 0.1840377151966095 0.49061766266822815
0.17168639600276947 0.11444053053855896 0.40211793780326843
0.1334196925163269 0.2137802243232727 0.5047333836555481
0.14280205965042114 0.239068403840065 0.5797567367553711
0.2523319125175476 0.20805035531520844 0.5302881598472595
0.16169963777065277 0.1791466921567917 0.5000730156898499
0.258289098739624 0.21482683718204498 0.5192582607269287
0.26261618733406067 0.13254907727241516 0.5694524049758911
0.13703352212905884 0.22771596908569336 0.420460045337677
0.22044700384140015 0.19153830409049988 0.5479517579078674
0.160665825009346 0.2204919159412384 0.49335843324661255
0.10658685863018036 0.20561368763446808 0.4724379777908325
0.25416094064712524 0.20725581049919128 0.5264555811882019
0.18717429041862488 0.2561749815940857 0.5049716234207153
0.23734986782073975 0.1314900517463684 0.5182990431785583
0.18735569715499878 0.15104638040065765 0.502617359161377
0.19716760516166687 0.320403516292572 0.4527234137058258
0.18607258796691895 0.13947691023349762 0.5807645916938782
0.18608523905277252 0.11221256852149963 0.43021509051322937
0.1075671836733818 0.22347556054592133 0.6039697527885437
0.1891712248325348 0.28528913855552673 0.40718966722488403
0.11061390489339828 0.22625349462032318 0.5132972598075867
0.12153326719999313 0.1854180246591568 0.4469189941883087
0.16504962742328644 0.22024044394493103 0.5758072137832642
0.17908355593681335 0.11941781640052795 0.4735890328884125
0.12716995179653168 0.24821215867996216 0.5657086968421936
0.20615942776203156 0.13864803314208984 0.575649082660675
0.13348865509033203 0.11668922007083893 0.5270469188690186
0.16011303663253784 0.1498175859451294 0.5030542016029358
0.1600198745727539 0.23131012916564941 0.6030364632606506
0.22412988543510437 0.1258230358362198 0.5962532162666321
0.1609533131122589 0.20120683312416077 0.46660491824150085
0.26117169857025146 0.21853730082511902 0.5626602172851562
0.16320303082466125 0.22759845852851868 0.5470656752586365
0.17312665283679962 0.27075231075286865 0.44889935851097107
0.19747838377952576 0.14150142669677734 0.5853630900382996
0.2443126142024994 0.22155198454856873 0.49100813269615173
0.18336179852485657 0.17352549731731415 0.6024712920188904
0.10964406281709671 0.24838000535964966 0.39704325795173645
0.16869628429412842 0.17239710688591003 0.43397215008735657
0.24366195499897003 0.1455097794532776 0.4910282790660858
0.12380877882242203 0.27963799238204956 0.4446009397506714
0.2999686002731323 0.17524705827236176 0.5388084650039673
0.22801321744918823 0.283022940158844 0.4416395425796509
0.176059752702713 0.11092774569988251 0.4209868907928467
0.11435012519359589 0.1699809730052948 0.46975988149642944
0.19054046273231506 0.1534569263458252 0.511352002620697
0.14277541637420654 0.23543792963027954 0.5519128441810608
0.21273060142993927 0.28766685724258423 0.40487611293792725
0.30513957142829895 0.14972665905952454 0.5686212778091431
0.1899835467338562 0.12260421365499496 0.5122227072715759
0.28582292795181274 0.1409829556941986 0.5461970567703247
0.1075671836733818 0.22347556054592133 0.6039697527885437
0.1891712248325348 0.28528913855552673 0.40718966722488403
0.11061390489339828 0.22625349462032318 0.5132972598075867
0.12153326719999313 0.1854180246591568 0.4469189941883087
0.16504962742328644 0.22024044394493103 0.5758072137832642
0.17908355593681335 0.11941781640052795 0.4735890328884125
0.12716995179653168 0.24821215867996216 0.5657086968421936
0.12600338459014893 0.2533224821090698 0.42573022842407227
0.13184984028339386 0.1920696645975113 0.46288469433784485
0.13423128426074982 0.17748458683490753 0.49144497513771057
0.2160063236951828 0.12276218086481094 0.5723593235015869
0.226007342338562 0.18092544376850128 0.47459957003593445
0.13340699672698975 0.24573256075382233 0.4825006425380707
0.17576302587985992 0.21449941396713257 0.536510169506073
0.11267779767513275 0.27365216612815857 0.46576809883117676
0.20753838121891022 0.3288217782974243 0.5233702063560486
0.11241234838962555 0.2037164717912674 0.47334566712379456
0.13716307282447815 0.22885829210281372 0.43362000584602356
0.19054046273231506 0.1534569263458252 0.511352002620697
0.14277541637420654 0.23543792963027954 0.5519128441810608
0.21273060142993927 0.28766685724258423 0.40487611293792725
0.30513957142829895 0.14972665905952454 0.5686212778091431
0.1899835467338562 0.12260421365499496 0.5122227072715759
0.28582292795181274 0.1409829556941986 0.5461970567703247
0.1075671836733818 0.22347556054592133 0.6039697527885437
0.1891712248325348 0.28528913855552673 0.40718966722488403
0.11061390489339828 0.22625349462032318 0.5132972598075867
0.12153326719999313 0.1854180246591568 0.4469189941883087
0.16504962742328644 0.22024044394493103 0.5758072137832642
0.17908355593681335 0.11941781640052795 0.4735890328884125
0.12716995179653168 0.24821215867996216 0.5657086968421936
0.20615942776203156 0.13864803314208984 0.575649082660675
0.20859035849571228 0.15718121826648712 0.5427019596099854
0.24059990048408508 0.2240094095468521 0.5570951104164124
0.20456568896770477 0.2580314874649048 0.553202748298645
0.172875314950943 0.12073878198862076 0.414552241563797
0.2845713496208191 0.14581380784511566 0.5960717797279358
0.17025086283683777 0.11193300038576126 0.39159125089645386
0.21382056176662445 0.300828754901886 0.42618751525878906
0.12600338459014893 0.2533224821090698 0.42573022842407227
0.2313980609178543 0.12842242419719696 0.5698806643486023
0.22071321308612823 0.1486252099275589 0.5718669295310974
0.14846178889274597 0.2934844195842743 0.532696008682251
0.1951448768377304 0.22247689962387085 0.47591426968574524
0.13556557893753052 0.20049315690994263 0.5688340663909912
0.24237649142742157 0.1513352394104004 0.5113878846168518
0.2827536463737488 0.19006413221359253 0.48900794982910156
0.17561699450016022 0.10843480378389359 0.41229161620140076
0.20859035849571228 0.15718121826648712 0.5427019596099854
0.24059990048408508 0.2240094095468521 0.5570951104164124
0.19011428952217102 0.14238865673542023 0.47833549976348877
0.2005542814731598 0.2276284545660019 0.4044336676597595
0.1928173005580902 0.25291064381599426 0.469711571931839
0.1366744041442871 0.26541802287101746 0.5399541258811951
0.22139093279838562 0.2748527526855469 0.4599950611591339
0.17863969504833221 0.1463368982076645 0.45339223742485046
0.11696646362543106 0.17264433205127716 0.4387584328651428
0.14805370569229126 0.24770274758338928 0.4283839166164398
0.20567849278450012 0.3020232021808624 0.5436003804206848
0.19692014157772064 0.19592352211475372 0.41174912452697754
0.16414017975330353 0.11576234549283981 0.5632646679878235
0.15244808793067932 0.21055947244167328 0.5144809484481812
0.26489847898483276 0.23384271562099457 0.4897044003009796
0.20155416429042816 0.24978268146514893 0.558698296546936
0.2523607909679413 0.17649637162685394 0.5357090830802917
0.14865681529045105 0.29362156987190247 0.5255019068717957
0.21781742572784424 0.2540609538555145 0.5457291603088379
0.19518671929836273 0.2005634605884552 0.5051073431968689
0.21994072198867798 0.21517546474933624 0.5188447833061218
0.2138039916753769 0.20609453320503235 0.5714643597602844
0.17838674783706665 0.29535844922065735 0.40334585309028625
0.17262862622737885 0.1160021722316742 0.5435593128204346
0.2135685533285141 0.14720942080020905 0.43493974208831787
0.1908220499753952 0.27605029940605164 0.5433797836303711
0.15416094660758972 0.21135053038597107 0.521135687828064
0.2514595687389374 0.13819608092308044 0.5970820188522339
0.27337750792503357 0.18411444127559662 0.5288575887680054
0.22144582867622375 0.20067834854125977 0.4578704237937927
0.18438175320625305 0.11428182572126389 0.4355822801589966
0.19462703168392181 0.20758643746376038 0.5218260288238525
0.13479797542095184 0.11500552296638489 0.5705944895744324
0.19192682206630707 0.13646960258483887 0.5945895314216614
0.14741556346416473 0.18937121331691742 0.5673094391822815
0.20724457502365112 0.3218683898448944 0.4330289363861084
0.14912639558315277 0.231855571269989 0.5434368252754211
0.21909110248088837 0.27126505970954895 0.45760655403137207
0.295430988073349 0.14180611073970795 0.4533761441707611
0.14858433604240417 0.21540124714374542 0.4838586151599884
0.29175782203674316 0.16525767743587494 0.5630046725273132
0.12145894765853882 0.20414330065250397 0.4529840052127838
0.2897433936595917 0.17594300210475922 0.47407111525535583
0.19584546983242035 0.298088014125824 0.580239474773407
0.15435650944709778 0.1291048377752304 0.3984507620334625
0.15952472388744354 0.22197945415973663 0.4937368333339691
0.18452338874340057 0.24023772776126862 0.5081480741500854
0.16107258200645447 0.2182590812444687 0.545770525932312
0.1633182317018509 0.12396526336669922 0.4790244996547699
0.27851003408432007 0.1938367635011673 0.4357853829860687
0.1629987359046936 0.21621794998645782 0.6011895537376404
0.2697727084159851 0.19728299975395203 0.45615890622138977
0.15798480808734894 0.28552159667015076 0.5775321125984192
0.2852877080440521 0.17765988409519196 0.4846896231174469
0.29916664958000183 0.15961194038391113 0.5610338449478149
0.2313980609178543 0.12842242419719696 0.5698806643486023
0.2671469748020172 0.12467572093009949 0.4783344566822052
0.19311463832855225 0.29647430777549744 0.532597005367279
0.20141786336898804 0.28943490982055664 0.548256516456604
0.14749059081077576 0.16014769673347473 0.4445728063583374
0.1659611016511917 0.1743641346693039 0.41466057300567627
0.22312164306640625 0.1483665555715561 0.5197223424911499
0.1314203441143036 0.2834882140159607 0.5513641834259033
0.19189117848873138 0.11568137258291245 0.5998570322990417
0.1090468242764473 0.25719645619392395 0.41537466645240784
0.19011428952217102 0.14238865673542023 0.47833549976348877
0.2005542814731598 0.2276284545660019 0.4044336676597595
0.1928173005580902 0.25291064381599426 0.469711571931839
0.1366744041442871 0.26541802287101746 0.5399541258811951
0.2135685533285141 0.14720942080020905 0.43493974208831787
0.14670194685459137 0.15452313423156738 0.530318558216095
0.14499123394489288 0.2195199429988861 0.532098114490509
0.11670088022947311 0.19048291444778442 0.40721365809440613
0.17689739167690277 0.2618176341056824 0.5147592425346375
0.202026829123497 0.15239346027374268 0.5781513452529907
0.20221658051013947 0.2788924276828766 0.5404585599899292
0.19627736508846283 0.139849454164505 0.4222515821456909
0.22572077810764313 0.1350560486316681 0.4352308511734009
0.2824060916900635 0.15914253890514374 0.5208949446678162
0.17425675690174103 0.24745206534862518 0.4120709300041199
0.14686298370361328 0.10640526562929153 0.4295608401298523
0.2731819152832031 0.17468108236789703 0.4164426326751709
0.19558654725551605 0.12350613623857498 0.40208113193511963
0.14432421326637268 0.16158203780651093 0.5555151700973511
0.22425596415996552 0.1563812792301178 0.5903855562210083
0.23275403678417206 0.30782386660575867 0.5720883011817932
0.16373908519744873 0.18991880118846893 0.599766194820404
0.11012102663516998 0.26219749450683594 0.394121915102005
0.23141083121299744 0.23537588119506836 0.431566447019577
0.12817034125328064 0.13972684741020203 0.5093690752983093
0.13105081021785736 0.21173720061779022 0.4648103713989258
0.14910131692886353 0.12648411095142365 0.5534922480583191
0.22826126217842102 0.23613427579402924 0.5701862573623657
0.17186352610588074 0.1337669938802719 0.5777291059494019
0.2916056513786316 0.1779583841562271 0.42183494567871094
0.10958030819892883 0.23799052834510803 0.46109020709991455
0.16417868435382843 0.170855313539505 0.4287419617176056
0.1449975222349167 0.1948159635066986 0.4711792469024658
0.14046400785446167 0.17997995018959045 0.4590372145175934
0.22809256613254547 0.13439391553401947 0.4045560657978058
0.19419759511947632 0.32564449310302734 0.44633349776268005
0.23674894869327545 0.19690662622451782 0.5560328364372253
0.15398108959197998 0.26552411913871765 0.5318094491958618
0.16454868018627167 0.28525081276893616 0.43831124901771545
0.1627977341413498 0.29316723346710205 0.4214365780353546
0.12894362211227417 0.10993565618991852 0.454966276884079
0.1415705382823944 0.21304398775100708 0.49279189109802246
0.17359553277492523 0.29722028970718384 0.4334889352321625
0.1501680463552475 0.13864511251449585 0.4326828122138977
0.18028666079044342 0.1928497552871704 0.49023211002349854
0.1543343961238861 0.2627118229866028 0.5178890824317932
0.1450323760509491 0.24625304341316223 0.45205971598625183
0.15507125854492188 0.2410639226436615 0.5353958606719971
0.19542057812213898 0.2530943751335144 0.5763115286827087
0.17269307374954224 0.12779641151428223 0.5352942943572998
0.1366744041442871 0.26541802287101746 0.5399541258811951
0.2135685533285141 0.14720942080020905 0.43493974208831787
0.14670194685459137 0.15452313423156738 0.530318558216095
0.14499123394489288 0.2195199429988861 0.532098114490509
0.11296951770782471 0.1622811257839203 0.5018178224563599
0.17863969504833221 0.1463368982076645 0.45339223742485046
0.23822025954723358 0.24588459730148315 0.5711027979850769
0.20384648442268372 0.21133941411972046 0.4776425063610077
0.13799023628234863 0.15915000438690186 0.6019236445426941
0.23299185931682587 0.16245676577091217 0.40748175978660583
0.17221833765506744 0.17286905646324158 0.6013209223747253
0.21250559389591217 0.21256309747695923 0.5811506509780884
0.15215696394443512 0.24683286249637604 0.4806652367115021
0.13481104373931885 0.2337058186531067 0.5431272983551025
0.19288857281208038 0.18484275043010712 0.5252865552902222
0.2143491506576538 0.1343473345041275 0.49718180298805237
0.12337423115968704 0.2574867308139801 0.3993150591850281
0.1749250292778015 0.10735972970724106 0.5293741822242737
0.21742373704910278 0.2937736213207245 0.4507293701171875
0.17385335266590118 0.16424287855625153 0.5499776005744934
0.19843034446239471 0.18044036626815796 0.4854918122291565
0.124021515250206 0.1079476922750473 0.5857553482055664
0.23714251816272736 0.22531068325042725 0.4443903863430023
0.18950259685516357 0.31698381900787354 0.4338653087615967
0.11281988769769669 0.23358677327632904 0.4723692536354065
0.1195380911231041 0.19502100348472595 0.5642936825752258
0.12810951471328735 0.2245042771100998 0.4391525983810425
0.249479740858078 0.2635226845741272 0.5670326352119446
0.18799063563346863 0.1912887543439865 0.556936502456665
0.18701013922691345 0.31306642293930054 0.5274776220321655
0.1326105147600174 0.25945743918418884 0.47071388363838196
0.1633182317018509 0.12396526336669922 0.4790244996547699
0.27851003408432007 0.1938367635011673 0.4357853829860687
0.1629987359046936 0.21621794998645782 0.6011895537376404
0.2697727084159851 0.19728299975395203 0.45615890622138977
0.15798480808734894 0.28552159667015076 0.5775321125984192
0.1951448768377304 0.22247689962387085 0.47591426968574524
0.21431611478328705 0.2485397905111313 0.6032587885856628
0.2644694447517395 0.16245916485786438 0.4206352233886719
0.21297475695610046 0.331457257270813 0.4206121563911438
0.1351124346256256 0.16825349628925323 0.4943290948867798
0.11923087388277054 0.10556315630674362 0.4848828613758087
0.263793021440506 0.16738258302211761 0.5102531909942627
0.1800057739019394 0.13668067753314972 0.5876632332801819
0.13293267786502838 0.2709609866142273 0.40576186776161194
0.15833400189876556 0.26607418060302734 0.5773227214813232
0.18525652587413788 0.22308208048343658 0.5585504174232483
0.12424138188362122 0.15281373262405396 0.40612685680389404
0.14110003411769867 0.26931947469711304 0.5669974684715271
0.1652808040380478 0.11377698928117752 0.5519798398017883
0.24741992354393005 0.1531720757484436 0.5798901915550232
0.20215877890586853 0.24216119945049286 0.4912812411785126
0.1097102016210556 0.16360792517662048 0.5076038837432861
0.16769708693027496 0.11528285592794418 0.41547009348869324
0.11973497271537781 0.20703594386577606 0.5237353444099426
0.2038467973470688 0.11713896691799164 0.5770403742790222
0.10534586012363434 0.2293900102376938 0.4471915364265442
0.12151345610618591 0.1880955547094345 0.5264277458190918
0.20412412285804749 0.2511129081249237 0.42981967329978943
0.26170432567596436 0.23727042973041534 0.4896680414676666
0.22209930419921875 0.21058516204357147 0.4777024984359741
0.18894457817077637 0.18161609768867493 0.4743365943431854
0.19624026119709015 0.1098996102809906 0.3973940312862396
0.11432403326034546 0.2699875831604004 0.5867906808853149
0.2049078494310379 0.20576614141464233 0.5858747959136963
0.20215825736522675 0.2826695740222931 0.42166897654533386
0.2913169860839844 0.19646529853343964 0.4288979470729828
0.215725839138031 0.2640717327594757 0.5234785079956055
0.2647438049316406 0.13847437500953674 0.41471996903419495
0.2283971905708313 0.1531221717596054 0.40671709179878235
0.289622962474823 0.13786740601062775 0.5604156255722046
0.21416354179382324 0.130459725856781 0.4394858181476593
0.15857049822807312 0.29377782344818115 0.39969882369041443
0.2155562788248062 0.2966417372226715 0.4478435218334198
0.1799539476633072 0.15149269998073578 0.39820045232772827
0.22054806351661682 0.207891047000885 0.5581998825073242
0.1583722084760666 0.13642895221710205 0.4463896155357361
0.2256845235824585 0.2608053386211395 0.5515106320381165
0.22224153578281403 0.1663844734430313 0.4342363774776459
0.18398091197013855 0.30605635046958923 0.46875065565109253
0.17416474223136902 0.25103795528411865 0.5015377402305603
0.14966008067131042 0.22258403897285461 0.47526663541793823
0.25048378109931946 0.2522399425506592 0.5890448689460754
0.10276086628437042 0.2649705708026886 0.6031292676925659
0.2671469748020172 0.12467572093009949 0.4783344566822052
0.19311463832855225 0.29647430777549744 0.532597005367279
0.20141786336898804 0.28943490982055664 0.548256516456604
0.14749059081077576 0.16014769673347473 0.4445728063583374
0.1659611016511917 0.1743641346693039 0.41466057300567627
0.22312164306640625 0.1483665555715561 0.5197223424911499
0.1314203441143036 0.2834882140159607 0.5513641834259033
0.19189117848873138 0.11568137258291245 0.5998570322990417
0.1090468242764473 0.25719645619392395 0.41537466645240784
0.19011428952217102 0.14238865673542023 0.47833549976348877
0.2005542814731598 0.2276284545660019 0.4044336676597595
0.1928173005580902 0.25291064381599426 0.469711571931839
0.1366744041442871 0.26541802287101746 0.5399541258811951
0.2135685533285141 0.14720942080020905 0.43493974208831787
0.14670194685459137 0.15452313423156738 0.530318558216095
0.14499123394489288 0.2195199429988861 0.532098114490509
0.10964406281709671 0.24838000535964966 0.39704325795173645
0.1314203441143036 0.2834882140159607 0.5513641834259033
0.19189117848873138 0.11568137258291245 0.5998570322990417
0.1090468242764473 0.25719645619392395 0.41537466645240784
0.19011428952217102 0.14238865673542023 0.47833549976348877
0.2005542814731598 0.2276284545660019 0.4044336676597595
0.1928173005580902 0.25291064381599426 0.469711571931839
0.1366744041442871 0.26541802287101746 0.5399541258811951
0.2135685533285141 0.14720942080020905 0.43493974208831787
0.14670194685459137 0.15452313423156738 0.530318558216095
0.14499123394489288 0.2195199429988861 0.532098114490509
0.15416094660758972 0.21135053038597107 0.521135687828064
0.2514595687389374 0.13819608092308044 0.5970820188522339
0.27337750792503357 0.18411444127559662 0.5288575887680054
0.18438175320625305 0.11428182572126389 0.4355822801589966
0.19462703168392181 0.20758643746376038 0.5218260288238525
0.13479797542095184 0.11500552296638489 0.5705944895744324
0.23286089301109314 0.2318805605173111 0.4587062895298004
0.10835210233926773 0.20514073967933655 0.47202959656715393
0.14912639558315277 0.231855571269989 0.5434368252754211
0.21909110248088837 0.27126505970954895 0.45760655403137207
0.1465737223625183 0.2119412124156952 0.439873069524765
0.11881910264492035 0.1455022543668747 0.5184615850448608
0.1659054160118103 0.28090402483940125 0.5233634114265442
0.22240549325942993 0.14774030447006226 0.405815064907074
0.20064695179462433 0.24572546780109406 0.5809499025344849
0.14801952242851257 0.1743311583995819 0.5048946142196655
