ply
format ascii 1.0
element vertex 819
property float x
property float y
property float z
end_header
0.1965285986661911 0.2554056644439697 0.5088815689086914
0.1859554797410965 0.23074498772621155 0.48282065987586975
0.2623133659362793 0.22984609007835388 0.45150643587112427
0.1373210996389389 0.17326399683952332 0.42984116077423096
0.1091708391904831 0.2182794064283371 0.5574849247932434
0.13945013284683228 0.21329446136951447 0.5543490648269653
0.21970660984516144 0.26450061798095703 0.4095032513141632
0.2694716155529022 0.1862361580133438 0.5708344578742981
0.282931923866272 0.18305690586566925 0.40906164050102234
0.17011919617652893 0.23669826984405518 0.5195022225379944
0.15386848151683807 0.18075379729270935 0.5536879301071167
0.21374520659446716 0.2203502058982849 0.48685091733932495
0.19524206221103668 0.27672669291496277 0.5470758676528931
0.15207579731941223 0.2486308068037033 0.568579912185669
0.1541774421930313 0.18173693120479584 0.4595278203487396
0.28410401940345764 0.18288475275039673 0.5233811736106873
0.1900118589401245 0.2854747176170349 0.4334172010421753
0.10359124839305878 0.24480381608009338 0.5999188423156738
0.1641300767660141 0.27438047528266907 0.4012645184993744
0.20365962386131287 0.2720675766468048 0.4949650466442108
0.18652775883674622 0.12491928040981293 0.4402417838573456
0.15540555119514465 0.15566353499889374 0.540581226348877
0.19017702341079712 0.20309612154960632 0.4737224876880646
0.23939481377601624 0.2156982272863388 0.46765586733818054
0.11829128861427307 0.22312261164188385 0.521268904209137
0.2405659705400467 0.2773611843585968 0.5974760055541992
0.21680210530757904 0.1283743977546692 0.4842182397842407
0.21154966950416565 0.33794277906417847 0.5111605525016785
0.17334993183612823 0.15618309378623962 0.4743618071079254
0.15692506730556488 0.20333141088485718 0.40669772028923035
0.1605934351682663 0.31638604402542114 0.41928210854530334
0.21033376455307007 0.3676259517669678 0.44988328218460083
0.27376407384872437 0.19483990967273712 0.44231700897216797
0.19986583292484283 0.18886230885982513 0.5040941834449768
0.2694716155529022 0.1862361580133438 0.5708344578742981
0.282931923866272 0.18305690586566925 0.40906164050102234
0.17011919617652893 0.23669826984405518 0.5195022225379944
0.15362857282161713 0.20797741413116455 0.5063698887825012
0.1882624626159668 0.3258153200149536 0.43704545497894287
0.1960727721452713 0.16268081963062286 0.44516754150390625
0.2520633339881897 0.28334060311317444 0.6013917922973633
0.14013123512268066 0.20054487884044647 0.4700993597507477
0.1401679813861847 0.2766876220703125 0.5237078070640564
0.18450380861759186 0.231854647397995 0.572563648223877
0.20289795100688934 0.27946117520332336 0.4445214569568634
0.1392638087272644 0.26416534185409546 0.4557812511920929
0.17129544913768768 0.20758268237113953 0.5854446887969971
0.1721922904253006 0.13424304127693176 0.43532994389533997
0.2245267629623413 0.17296256124973297 0.5947466492652893
0.18884915113449097 0.26106593012809753 0.49422216415405273
0.1864049881696701 0.12298549711704254 0.5518626570701599
0.24417909979820251 0.21014241874217987 0.5452202558517456
0.1775263100862503 0.20044107735157013 0.4618755578994751
0.1914106160402298 0.1959325671195984 0.5008711814880371
0.2653120756149292 0.22014960646629333 0.5931636095046997
0.21368584036827087 0.30425310134887695 0.44075265526771545
0.17206883430480957 0.3015386462211609 0.5720669627189636
0.25542595982551575 0.23274964094161987 0.43887102603912354
0.15268544852733612 0.2960417568683624 0.5640167593955994
0.11325061321258545 0.19849826395511627 0.5094366669654846
0.19668613374233246 0.3449520766735077 0.4534350335597992
0.18869853019714355 0.27061766386032104 0.5529431104660034
0.10129812359809875 0.2649107575416565 0.5083298087120056
0.14523069560527802 0.17766767740249634 0.4063882827758789
0.1148635745048523 0.22311347723007202 0.4359300434589386
0.2401800900697708 0.3173227906227112 0.5539318323135376
0.16066870093345642 0.3077946603298187 0.5912002921104431
0.2557416260242462 0.20419445633888245 0.5083673000335693
0.1561347097158432 0.13145048916339874 0.39761826395988464
0.14929354190826416 0.11836206912994385 0.45165660977363586
0.10505712777376175 0.2534842789173126 0.6088971495628357
0.19240450859069824 0.2935912311077118 0.5152522921562195
0.23811566829681396 0.2464134395122528 0.5183044672012329
0.21968279778957367 0.3044866919517517 0.48555782437324524
0.1154676303267479 0.24397046864032745 0.3993259072303772
0.13331151008605957 0.21607571840286255 0.4865577220916748
0.24527233839035034 0.1417427659034729 0.5368415117263794
0.1610662341117859 0.19994385540485382 0.500230610370636
0.1867446005344391 0.20387642085552216 0.40381157398223877
0.24968457221984863 0.2688502371311188 0.5043807625770569
0.2090420424938202 0.12642326951026917 0.47283583879470825
0.13154496252536774 0.15336720645427704 0.42114371061325073
0.17056620121002197 0.30166247487068176 0.5196231007575989
0.10781480371952057 0.2693944573402405 0.4734915494918823
0.19507840275764465 0.1364811360836029 0.5209415555000305
0.2246965914964676 0.29822930693626404 0.5788925290107727
0.19751770794391632 0.22647519409656525 0.5679426789283752
0.28235894441604614 0.18588274717330933 0.5461161732673645
0.24950577318668365 0.30256468057632446 0.5874621868133545
0.23260030150413513 0.17960262298583984 0.47195494174957275
0.21156127750873566 0.2718440294265747 0.5340633988380432
0.2311532348394394 0.2880004346370697 0.5749000906944275
0.237123504281044 0.29600635170936584 0.524604082107544
0.20428189635276794 0.21271392703056335 0.45353570580482483
0.14888499677181244 0.2796064615249634 0.4271004796028137
0.2130058854818344 0.2291383445262909 0.4726400077342987
0.2623133659362793 0.22984609007835388 0.45150643587112427
0.25631800293922424 0.28800106048583984 0.5092625021934509
0.2152044177055359 0.34855303168296814 0.4718324542045593
0.2205757200717926 0.15410564839839935 0.49820539355278015
0.11324640363454819 0.25810232758522034 0.5611600279808044
0.16032063961029053 0.30260294675827026 0.5404680371284485
0.17777113616466522 0.19345299899578094 0.5842549204826355
0.18601901829242706 0.17246155440807343 0.5385173559188843
0.1556003838777542 0.2523897886276245 0.526619017124176
0.13575629889965057 0.1341666281223297 0.48701584339141846
0.2120658904314041 0.17873680591583252 0.40678703784942627
0.23359742760658264 0.16235573589801788 0.564475953578949
0.21775391697883606 0.2688244879245758 0.5545551776885986
0.1452658325433731 0.1697891801595688 0.5374196171760559
0.23613861203193665 0.20553065836429596 0.4331448972225189
0.17116273939609528 0.30747517943382263 0.5531760454177856
0.1427912712097168 0.3080272674560547 0.5380536913871765
0.17005595564842224 0.21368905901908875 0.5109118223190308
0.2576513886451721 0.18114109337329865 0.5779712796211243
0.18671196699142456 0.13709494471549988 0.5722489356994629
0.20270226895809174 0.32730427384376526 0.5857921838760376
0.27883949875831604 0.23806127905845642 0.5377547740936279
0.19504614174365997 0.24447892606258392 0.45281726121902466
0.12091096490621567 0.18471881747245789 0.4353320896625519
0.14798542857170105 0.2439245730638504 0.48231467604637146
0.18635694682598114 0.15807093679904938 0.5126608610153198
0.20384660363197327 0.19639447331428528 0.4217953383922577
0.119916170835495 0.26973333954811096 0.41611164808273315
0.13774722814559937 0.12546364963054657 0.5625849366188049
0.15708310902118683 0.2991518974304199 0.4210708439350128
0.1964326649904251 0.23335497081279755 0.5645727515220642
0.20711973309516907 0.19916629791259766 0.5836816430091858
0.14929354190826416 0.11836206912994385 0.45165660977363586
0.24527233839035034 0.1417427659034729 0.5368415117263794
0.1610662341117859 0.19994385540485382 0.500230610370636
0.20971767604351044 0.3489709794521332 0.4932618737220764
0.17871662974357605 0.2773517072200775 0.5596990585327148
0.18814969062805176 0.31897681951522827 0.4333684742450714
0.16272668540477753 0.11590877175331116 0.41468390822410583
0.22406870126724243 0.13527993857860565 0.5144229531288147
0.10999947786331177 0.2592273950576782 0.6102986931800842
0.19731584191322327 0.1418570727109909 0.5284727215766907
0.18856854736804962 0.30418696999549866 0.5535756349563599
0.22907443344593048 0.25377771258354187 0.439400315284729
0.1786854863166809 0.2482120394706726 0.42485159635543823
0.13483375310897827 0.11409763246774673 0.4521993398666382
0.10424157232046127 0.23267212510108948 0.5793311595916748
0.22079600393772125 0.32438039779663086 0.4093959331512451
0.15033476054668427 0.28296205401420593 0.45678290724754333
0.16243644058704376 0.3134268522262573 0.5863068103790283
0.13888099789619446 0.11994513869285583 0.47164204716682434
0.1297542154788971 0.20714230835437775 0.506432831287384
0.10692373663187027 0.23874498903751373 0.6111587882041931
0.12501035630702972 0.25103455781936646 0.5204815864562988
0.21107430756092072 0.21037843823432922 0.4131832718849182
0.12345296144485474 0.2970304489135742 0.45967283844947815
0.1897837519645691 0.19796894490718842 0.6008622050285339
0.11311110854148865 0.20595242083072662 0.5873101353645325
0.20067308843135834 0.3530633747577667 0.4133448898792267
0.26440170407295227 0.2824079692363739 0.48195359110832214
0.26189669966697693 0.23492753505706787 0.5769763588905334
0.12063129991292953 0.15552373230457306 0.5623803734779358
0.21081353724002838 0.19777433574199677 0.5023477077484131
0.17311957478523254 0.11684256792068481 0.5982219576835632
0.1556003838777542 0.2523897886276245 0.526619017124176
0.15702027082443237 0.16028515994548798 0.5819957852363586
0.17808681726455688 0.24094218015670776 0.5965893268585205
0.11936303973197937 0.1995462328195572 0.5570395588874817
0.22851800918579102 0.31727278232574463 0.4771239757537842
0.1992037296295166 0.28250688314437866 0.5343970060348511
0.20914730429649353 0.3065389096736908 0.42615339159965515
0.2324221432209015 0.27993038296699524 0.5410332083702087
0.15044671297073364 0.21619388461112976 0.5249473452568054
0.23219746351242065 0.3421516716480255 0.5174187421798706
0.20569923520088196 0.14639198780059814 0.4462944269180298
0.15149609744548798 0.2441490888595581 0.4113910496234894
0.1600942462682724 0.2654585838317871 0.4675563871860504
0.11865565180778503 0.2441784143447876 0.43486422300338745
0.2606743574142456 0.16497832536697388 0.4724752902984619
0.276639461517334 0.21094456315040588 0.4446926712989807
0.11347968876361847 0.22867755591869354 0.596479594707489
0.18635694682598114 0.15807093679904938 0.5126608610153198
0.20384660363197327 0.19639447331428528 0.4217953383922577
0.119916170835495 0.26973333954811096 0.41611164808273315
0.13774722814559937 0.12546364963054657 0.5625849366188049
0.15708310902118683 0.2991518974304199 0.4210708439350128
0.1964326649904251 0.23335497081279755 0.5645727515220642
0.20711973309516907 0.19916629791259766 0.5836816430091858
0.27781376242637634 0.1679331362247467 0.45697247982025146
0.19242283701896667 0.12286483496427536 0.4173634350299835
0.16361545026302338 0.22402729094028473 0.44702738523483276
0.203775554895401 0.1996813863515854 0.5523872971534729
0.24745553731918335 0.2782321274280548 0.41558560729026794
0.24486087262630463 0.26502087712287903 0.47450754046440125
0.13914477825164795 0.26247861981391907 0.41113513708114624
0.2525973916053772 0.26185163855552673 0.5115521550178528
0.16989152133464813 0.31147462129592896 0.49152249097824097
0.13161718845367432 0.16963237524032593 0.5359405279159546
0.3011629283428192 0.20670878887176514 0.5430909991264343
0.17104719579219818 0.15406395494937897 0.41259628534317017
0.13631121814250946 0.11819694936275482 0.5543083548545837
0.1410127878189087 0.2934596836566925 0.471219003200531
0.19247333705425262 0.14601263403892517 0.5371326208114624
0.15901878476142883 0.21084091067314148 0.5434366464614868
0.2547484338283539 0.15091656148433685 0.564812421798706
0.2517051100730896 0.1478632539510727 0.4324057698249817
0.13573643565177917 0.1944454312324524 0.413850873708725
0.20876279473304749 0.13086725771427155 0.5553174018859863
0.29101845622062683 0.21477851271629333 0.41808390617370605
0.24292632937431335 0.22990432381629944 0.4583324193954468
0.24123945832252502 0.28092876076698303 0.5461305379867554
0.12974004447460175 0.285706490278244 0.531946063041687
0.25282809138298035 0.16288787126541138 0.5734933018684387
0.17566561698913574 0.2721952795982361 0.40247398614883423
0.20120495557785034 0.28091076016426086 0.41085755825042725
0.20955003798007965 0.19092164933681488 0.5840151309967041
0.19838936626911163 0.2044113725423813 0.5634927749633789
0.16484785079956055 0.13345731794834137 0.40886393189430237
0.16359828412532806 0.29943448305130005 0.5134871602058411
0.2247481495141983 0.20367205142974854 0.5400548577308655
0.24219989776611328 0.29050543904304504 0.547013521194458
0.10248962789773941 0.272323876619339 0.4153503477573395
0.16991329193115234 0.28411248326301575 0.5431336760520935
0.18769143521785736 0.28427305817604065 0.5921961665153503
0.11004652827978134 0.2785632014274597 0.5226160287857056
0.2573818564414978 0.214380145072937 0.43042927980422974
0.18531933426856995 0.2580297291278839 0.5373803377151489
0.14916209876537323 0.25572821497917175 0.5329561233520508
0.23443949222564697 0.2747461199760437 0.45288580656051636
0.15318939089775085 0.166947141289711 0.5802624821662903
0.1578170359134674 0.15981599688529968 0.4191541373729706
0.16133832931518555 0.20194090902805328 0.474496990442276
0.1488482803106308 0.24097058176994324 0.4973876178264618
0.1786559522151947 0.1472501903772354 0.5046619772911072
0.1732795387506485 0.11311402171850204 0.47792571783065796
0.12345296144485474 0.2970304489135742 0.45967283844947815
0.1897837519645691 0.19796894490718842 0.6008622050285339
0.21393504738807678 0.3310789465904236 0.5419294834136963
0.2356935292482376 0.2183331996202469 0.4661880135536194
0.15076524019241333 0.2666337192058563 0.4027697741985321
0.1595001518726349 0.3235563337802887 0.4808206856250763
0.15868884325027466 0.16777703166007996 0.4341316521167755
0.11898832023143768 0.22239120304584503 0.4676249623298645
0.29279375076293945 0.22455503046512604 0.5735297799110413
0.1882016360759735 0.19354526698589325 0.403809517621994
0.2634120285511017 0.18645046651363373 0.5500648021697998
0.1887303590774536 0.12439935654401779 0.48936983942985535
0.17947213351726532 0.2806275188922882 0.5575827360153198
0.12041979283094406 0.18368838727474213 0.44338127970695496
0.22720438241958618 0.2878934442996979 0.5691092610359192
0.19119760394096375 0.1560973972082138 0.48365482687950134
0.14908865094184875 0.21012040972709656 0.40526291728019714
0.111897774040699 0.26916763186454773 0.4093325138092041
0.2160336971282959 0.2461075335741043 0.4521511197090149
0.20945262908935547 0.2958415150642395 0.5491103529930115
0.2556215822696686 0.15463005006313324 0.43412578105926514
0.24393852055072784 0.21183718740940094 0.5454657077789307
0.19070939719676971 0.12610065937042236 0.5832508206367493
0.13503779470920563 0.24947835505008698 0.5310209393501282
0.1857842057943344 0.18997377157211304 0.4619787633419037
0.20009134709835052 0.16476480662822723 0.5464872121810913
0.19838936626911163 0.2044113725423813 0.5634927749633789
0.16484785079956055 0.13345731794834137 0.40886393189430237
0.16359828412532806 0.29943448305130005 0.5134871602058411
0.2247481495141983 0.20367205142974854 0.5400548577308655
0.24219989776611328 0.29050543904304504 0.547013521194458
0.10248962789773941 0.272323876619339 0.4153503477573395
0.16991329193115234 0.28411248326301575 0.5431336760520935
0.18769143521785736 0.28427305817604065 0.5921961665153503
0.11004652827978134 0.2785632014274597 0.5226160287857056
0.2573818564414978 0.214380145072937 0.43042927980422974
0.18531933426856995 0.2580297291278839 0.5373803377151489
0.1473454385995865 0.23908086121082306 0.5898357629776001
0.1908579021692276 0.15198491513729095 0.4920661747455597
0.21444356441497803 0.2938229739665985 0.48126548528671265
0.20070064067840576 0.15237906575202942 0.4909978210926056
0.25839805603027344 0.2367592453956604 0.4598514437675476
0.14139236509799957 0.14309296011924744 0.3992253839969635
0.21895065903663635 0.3414760231971741 0.4280657172203064
0.1825224757194519 0.27765360474586487 0.559032142162323
0.10502399504184723 0.26549509167671204 0.44072064757347107
0.15707992017269135 0.11306291818618774 0.584652841091156
0.20770776271820068 0.2046326994895935 0.5523831248283386
0.2220005989074707 0.3512337803840637 0.49083149433135986
0.23130983114242554 0.2606217861175537 0.5050615072250366
0.23188291490077972 0.2925712466239929 0.44877558946609497
0.12895932793617249 0.3011534512042999 0.48167145252227783
0.1052495464682579 0.26541993021965027 0.4554237127304077
0.1143685132265091 0.2438213974237442 0.4067208170890808
0.19077277183532715 0.3262719511985779 0.4548356533050537
0.22823849320411682 0.1278994381427765 0.5688057541847229
0.22264942526817322 0.2518271803855896 0.526556134223938
0.11027207225561142 0.26639989018440247 0.5240076780319214
0.17566561698913574 0.2721952795982361 0.40247398614883423
0.20120495557785034 0.28091076016426086 0.41085755825042725
0.20955003798007965 0.19092164933681488 0.5840151309967041
0.19838936626911163 0.2044113725423813 0.5634927749633789
0.16484785079956055 0.13345731794834137 0.40886393189430237
0.16359828412532806 0.29943448305130005 0.5134871602058411
0.2247481495141983 0.20367205142974854 0.5400548577308655
0.24219989776611328 0.29050543904304504 0.547013521194458
0.10248962789773941 0.272323876619339 0.4153503477573395
0.16991329193115234 0.28411248326301575 0.5431336760520935
0.18769143521785736 0.28427305817604065 0.5921961665153503
0.11004652827978134 0.2785632014274597 0.5226160287857056
0.2573818564414978 0.214380145072937 0.43042927980422974
0.18531933426856995 0.2580297291278839 0.5373803377151489
0.14916209876537323 0.25572821497917175 0.5329561233520508
0.10623451322317123 0.2531355917453766 0.5048530101776123
0.21686378121376038 0.1854100227355957 0.4697190821170807
0.14811737835407257 0.3131697177886963 0.43135327100753784
0.17099353671073914 0.18889252841472626 0.44713765382766724
0.20974873006343842 0.21489953994750977 0.4968967139720917
0.15217232704162598 0.14782975614070892 0.4582749009132385
0.13610540330410004 0.12028761953115463 0.5950554013252258
0.30261290073394775 0.19926084578037262 0.5049411058425903
0.12430770695209503 0.29517820477485657 0.49744096398353577
0.22591498494148254 0.25755754113197327 0.4671262204647064
0.16763286292552948 0.22681617736816406 0.48788103461265564
0.2849830389022827 0.19981355965137482 0.5264911651611328
0.260623037815094 0.19306902587413788 0.4365522861480713
0.18287748098373413 0.2359999716281891 0.5552523732185364
0.12973184883594513 0.19487899541854858 0.4188796281814575
0.12488624453544617 0.3008420169353485 0.49107101559638977
0.30115798115730286 0.19748210906982422 0.4763188660144806
0.12063129991292953 0.15552373230457306 0.5623803734779358
0.28016698360443115 0.19315272569656372 0.5615662336349487
0.20711973309516907 0.19916629791259766 0.5836816430091858
0.27781376242637634 0.1679331362247467 0.45697247982025146
0.19242283701896667 0.12286483496427536 0.4173634350299835
0.16361545026302338 0.22402729094028473 0.44702738523483276
0.1829676777124405 0.2598112225532532 0.4911397397518158
0.16600869596004486 0.2852737605571747 0.5786948204040527
0.14515100419521332 0.260444313287735 0.4466530978679657
0.18717814981937408 0.12338186055421829 0.5143138766288757
0.22176890075206757 0.26779016852378845 0.5090826749801636
0.2910354733467102 0.17822393774986267 0.46434345841407776
0.22547133266925812 0.26697826385498047 0.4095193147659302
0.1689637452363968 0.12472695857286453 0.4120631217956543
0.1705268770456314 0.3017873167991638 0.47226735949516296
0.23863598704338074 0.30143240094184875 0.47562161087989807
0.1856304109096527 0.11387820541858673 0.588333249092102
0.2550600469112396 0.18424326181411743 0.5952689051628113
0.17386816442012787 0.20056107640266418 0.48975810408592224
0.1954880952835083 0.28035616874694824 0.5793843269348145
0.12430892139673233 0.21926569938659668 0.5457233190536499
0.22736907005310059 0.30329832434654236 0.4550275504589081
0.12520696222782135 0.16267389059066772 0.4456658661365509
0.2764940559864044 0.25631535053253174 0.43272024393081665
0.11536062508821487 0.2010728418827057 0.4798597991466522
0.1188744306564331 0.2672457695007324 0.48274126648902893
0.23644483089447021 0.2526738941669464 0.5810157060623169
0.20118841528892517 0.22307220101356506 0.572340190410614
0.11187632381916046 0.28724876046180725 0.45930054783821106
0.22619175910949707 0.354760080575943 0.43830281496047974
0.237166628241539 0.22470419108867645 0.5515701770782471
0.11602979898452759 0.2846224009990692 0.3986414670944214
0.15076524019241333 0.2666337192058563 0.4027697741985321
0.18357013165950775 0.2806435823440552 0.5060577392578125
0.26601099967956543 0.20958513021469116 0.4368320107460022
0.11805209517478943 0.23821572959423065 0.4008939862251282
0.24696630239486694 0.2776627242565155 0.5007203221321106
0.2115357369184494 0.2653059959411621 0.46537521481513977
0.11724868416786194 0.18188171088695526 0.4945574700832367
0.18578551709651947 0.18094582855701447 0.4328274428844452
0.1594914346933365 0.14595261216163635 0.521632730960846
0.2455529421567917 0.22314327955245972 0.5469686388969421
0.13569438457489014 0.11477258056402206 0.4723227620124817
0.13180412352085114 0.13766320049762726 0.583162784576416
0.16540826857089996 0.2146371454000473 0.5873022079467773
0.2057703137397766 0.14136464893817902 0.5012831687927246
0.13524824380874634 0.2593840956687927 0.6064972281455994
0.13070827722549438 0.11047446727752686 0.44880661368370056
0.21908187866210938 0.30293789505958557 0.49556195735931396
0.2060050219297409 0.1882905662059784 0.5986900925636292
0.1183357685804367 0.18976806104183197 0.5954555869102478
0.21071724593639374 0.25210535526275635 0.45698970556259155
0.2703920602798462 0.1905929446220398 0.4678002893924713
0.13413549959659576 0.19936887919902802 0.5054424405097961
0.15358400344848633 0.13681577146053314 0.5988073945045471
0.13035261631011963 0.23161613941192627 0.5976740121841431
0.2508087158203125 0.27943548560142517 0.4947679042816162
0.1506003886461258 0.19766765832901 0.5362087488174438
0.30685243010520935 0.19791434705257416 0.5261598825454712
0.2191181629896164 0.3567987084388733 0.41385555267333984
0.14955495297908783 0.30889058113098145 0.5784639716148376
0.17381365597248077 0.22199536859989166 0.4202561378479004
0.299628883600235 0.18725910782814026 0.5315353274345398
0.12974004447460175 0.285706490278244 0.531946063041687
0.28859058022499084 0.22335994243621826 0.5227359533309937
0.2315714806318283 0.24560870230197906 0.5830340385437012
0.10573969781398773 0.24732278287410736 0.5162635445594788
0.2115357369184494 0.2653059959411621 0.46537521481513977
0.11724868416786194 0.18188171088695526 0.4945574700832367
0.18578551709651947 0.18094582855701447 0.4328274428844452
0.15165379643440247 0.12247895449399948 0.5367396473884583
0.25043758749961853 0.2634212076663971 0.5158714652061462
0.24291767179965973 0.17613434791564941 0.5358670353889465
0.15753906965255737 0.12197317183017731 0.42520827054977417
0.21581245958805084 0.32813113927841187 0.4675074815750122
0.16994120180606842 0.24124659597873688 0.5598794221878052
0.11683769524097443 0.1748727560043335 0.48862046003341675
0.2088070809841156 0.26933199167251587 0.4462655782699585
0.14627715945243835 0.11961304396390915 0.4645518958568573
0.19628317654132843 0.15635432302951813 0.4198310971260071
0.2545218765735626 0.2943696677684784 0.5410524606704712
0.19697636365890503 0.2958778440952301 0.5431135296821594
0.15176832675933838 0.20487165451049805 0.396447092294693
0.1899222880601883 0.3451171815395355 0.4893243908882141
0.21261803805828094 0.17921888828277588 0.5801589488983154
0.23898889124393463 0.14041613042354584 0.5924826860427856
0.1786176562309265 0.24455229938030243 0.531211256980896
0.2687278389930725 0.2618875503540039 0.49697345495224
0.29433929920196533 0.1892809122800827 0.5620908737182617
0.3035676181316376 0.1894741803407669 0.5556800961494446
0.1253645122051239 0.20486558973789215 0.4061099588871002
0.21795620024204254 0.17510510981082916 0.5643445253372192
0.21261096000671387 0.23218724131584167 0.5113632082939148
0.2576008141040802 0.26777270436286926 0.5561914443969727
0.12351590394973755 0.20718078315258026 0.5264723300933838
0.20711973309516907 0.19916629791259766 0.5836816430091858
0.27781376242637634 0.1679331362247467 0.45697247982025146
0.19242283701896667 0.12286483496427536 0.4173634350299835
0.16361545026302338 0.22402729094028473 0.44702738523483276
0.203775554895401 0.1996813863515854 0.5523872971534729
0.24745553731918335 0.2782321274280548 0.41558560729026794
0.24486087262630463 0.26502087712287903 0.47450754046440125
0.13914477825164795 0.26247861981391907 0.41113513708114624
0.2525973916053772 0.26185163855552673 0.5115521550178528
0.18717814981937408 0.12338186055421829 0.5143138766288757
0.22176890075206757 0.26779016852378845 0.5090826749801636
0.2864692211151123 0.17788662016391754 0.4665118455886841
0.22174867987632751 0.3408529460430145 0.4601454734802246
0.13288173079490662 0.16457374393939972 0.5721805095672607
0.18383461236953735 0.19385552406311035 0.5150484442710876
0.17282333970069885 0.21635112166404724 0.5040262937545776
0.2473103106021881 0.17743216454982758 0.5094811916351318
0.2016782909631729 0.3499875068664551 0.5198261737823486
0.20213724672794342 0.14599791169166565 0.4378204345703125
0.10313348472118378 0.27975377440452576 0.438080370426178
0.24502231180667877 0.2664138376712799 0.453476220369339
0.2090979665517807 0.1791151762008667 0.4959034323692322
0.15034593641757965 0.2985028624534607 0.41348034143447876
0.1188744306564331 0.2672457695007324 0.48274126648902893
0.23644483089447021 0.2526738941669464 0.5810157060623169
0.12281176447868347 0.24785354733467102 0.4946404993534088
0.18092791736125946 0.3151150345802307 0.5901815891265869
0.11187632381916046 0.28724876046180725 0.45930054783821106
0.10480202734470367 0.2518787086009979 0.5853467583656311
0.237166628241539 0.22470419108867645 0.5515701770782471
0.19692011177539825 0.2964138984680176 0.5184317827224731
0.18577498197555542 0.11549992859363556 0.5008816123008728
0.2386406809091568 0.2817382514476776 0.5223575234413147
0.2381223738193512 0.29454880952835083 0.5029020309448242
0.13136500120162964 0.1988498866558075 0.515162467956543
0.10846596956253052 0.21523690223693848 0.47034206986427307
0.13994082808494568 0.1927829086780548 0.5942973494529724
0.20312030613422394 0.2798270285129547 0.46277427673339844
0.18543440103530884 0.27423295378685 0.42323997616767883
0.16001127660274506 0.11201398819684982 0.49539002776145935
0.2513549327850342 0.3004314601421356 0.49499282240867615
0.1918635070323944 0.26794740557670593 0.44179919362068176
0.27608534693717957 0.2231893390417099 0.49220091104507446
0.24453240633010864 0.19078075885772705 0.564457356929779
0.23644483089447021 0.2526738941669464 0.5810157060623169
0.12281176447868347 0.24785354733467102 0.4946404993534088
0.18092791736125946 0.3151150345802307 0.5901815891265869
0.10659880936145782 0.25146037340164185 0.6129193305969238
0.17947985231876373 0.2007599025964737 0.5013902187347412
0.14882080256938934 0.1727178543806076 0.4988512396812439
0.24459019303321838 0.19190624356269836 0.5148401260375977
0.25677427649497986 0.15074686706066132 0.4410063326358795
0.18795336782932281 0.19774745404720306 0.4463333189487457
0.26285022497177124 0.22529640793800354 0.5157437324523926
0.16965730488300323 0.12494419515132904 0.43117064237594604
0.22036322951316833 0.176597461104393 0.5382813215255737
0.2919299304485321 0.20129646360874176 0.5344523787498474
0.23211133480072021 0.16484573483467102 0.43559736013412476
0.11429622769355774 0.20057404041290283 0.45467427372932434
0.20653389394283295 0.24774713814258575 0.5240713953971863
0.1444951891899109 0.253314346075058 0.4136716425418854
0.2881191074848175 0.19701191782951355 0.4264800548553467
0.16182944178581238 0.2475563883781433 0.4213760197162628
0.23830659687519073 0.25522586703300476 0.5059393048286438
0.21046103537082672 0.23260800540447235 0.5584613680839539
0.2525973916053772 0.26185163855552673 0.5115521550178528
0.1921040117740631 0.29655778408050537 0.5913087725639343
0.1771198958158493 0.2020067274570465 0.4069116413593292
0.18402110040187836 0.2916521728038788 0.5671217441558838
0.2539733052253723 0.1881357729434967 0.42199650406837463
0.23428209125995636 0.21859584748744965 0.5447307825088501
0.1464034765958786 0.14482326805591583 0.508887767791748
0.18898464739322662 0.263736754655838 0.508410632610321
0.14523133635520935 0.21263977885246277 0.5848554372787476
0.2265809029340744 0.20625777542591095 0.4466952979564667
0.21352681517601013 0.19291342794895172 0.4338701665401459
0.22608889639377594 0.23092539608478546 0.5232003927230835
0.11024591326713562 0.2353958934545517 0.44496384263038635
0.13903653621673584 0.1139773279428482 0.5835925340652466
0.16724857687950134 0.22802118957042694 0.5275618433952332
0.19249464571475983 0.3177410066127777 0.48678696155548096
0.1678580641746521 0.28778988122940063 0.5059711337089539
0.26238271594047546 0.29543444514274597 0.419802725315094
0.13982994854450226 0.24416545033454895 0.5050070285797119
0.2675839960575104 0.23492713272571564 0.4272681176662445
0.27731528878211975 0.21428075432777405 0.5300269722938538
0.1846708208322525 0.1461910754442215 0.49166378378868103
0.21005479991436005 0.16542674601078033 0.5841465592384338
0.2508535087108612 0.30838391184806824 0.4844556748867035
0.13971532881259918 0.22263015806674957 0.5351213812828064
0.1357211023569107 0.26936957240104675 0.5895600318908691
0.21017669141292572 0.13529551029205322 0.4071502983570099
0.1310712993144989 0.26523250341415405 0.4478130042552948
0.1840868890285492 0.33820024132728577 0.5352396965026855
0.20435473322868347 0.2967354953289032 0.5821608304977417
0.16705676913261414 0.13238494098186493 0.5779977440834045
0.1954520344734192 0.23174244165420532 0.5731809139251709
0.12963028252124786 0.2127027064561844 0.5225499272346497
0.23814022541046143 0.2951328754425049 0.4202689230442047
0.18965226411819458 0.21634012460708618 0.5127907991409302
0.15416841208934784 0.2968064844608307 0.41649484634399414
0.16978614032268524 0.14151397347450256 0.4308027923107147
0.13664725422859192 0.25414255261421204 0.6057762503623962
0.10994920879602432 0.22479499876499176 0.4983413815498352
0.20756755769252777 0.1674545258283615 0.5424928069114685
0.13041287660598755 0.13681060075759888 0.5220532417297363
0.13762500882148743 0.11229502409696579 0.5656459927558899
0.21561187505722046 0.28665176033973694 0.46156176924705505
0.13282233476638794 0.24568244814872742 0.5294288992881775
0.1682630330324173 0.12401675432920456 0.48574119806289673
0.19487324357032776 0.2375432252883911 0.5185464024543762
0.14743277430534363 0.2797945737838745 0.41047146916389465
0.19086039066314697 0.21114934980869293 0.5344926714897156
0.11855435371398926 0.16547493636608124 0.5750319361686707
0.26551416516304016 0.17789198458194733 0.5091203451156616
0.28654995560646057 0.2109498828649521 0.5038698315620422
0.17468084394931793 0.14846323430538177 0.5772536396980286
0.22012218832969666 0.2867746353149414 0.4769269824028015
0.16877202689647675 0.1292867660522461 0.47962093353271484
0.17143821716308594 0.1729787290096283 0.5839847326278687
0.12055296450853348 0.20214912295341492 0.49034789204597473
0.24753841757774353 0.3019573390483856 0.5321462750434875
0.15150560438632965 0.15454882383346558 0.48999324440956116
0.17512282729148865 0.1495072990655899 0.5011132955551147
0.15238937735557556 0.2631019651889801 0.40403804183006287
0.20352622866630554 0.3126159906387329 0.47905632853507996
0.1451723575592041 0.3037801682949066 0.5385364890098572
0.28003302216529846 0.17822982370853424 0.5525462627410889
0.28553351759910583 0.1845141500234604 0.5071218013763428
0.15497268736362457 0.28256046772003174 0.4392412006855011
0.12281176447868347 0.24785354733467102 0.4946404993534088
0.18092791736125946 0.3151150345802307 0.5901815891265869
0.10659880936145782 0.25146037340164185 0.6129193305969238
0.17947985231876373 0.2007599025964737 0.5013902187347412
0.24468721449375153 0.2728734612464905 0.4686284065246582
0.15610478818416595 0.2645621597766876 0.47897064685821533
0.19038088619709015 0.30568453669548035 0.5150617361068726
0.2218453735113144 0.26371416449546814 0.43915045261383057
0.21036694943904877 0.1898064762353897 0.576545000076294
0.20205247402191162 0.27606332302093506 0.583392322063446
0.20064955949783325 0.20555002987384796 0.5883814096450806
0.16072708368301392 0.20509278774261475 0.5662696361541748
0.16124801337718964 0.2517249286174774 0.4840678870677948
0.2503637969493866 0.3045286238193512 0.5997084379196167
0.2239789217710495 0.30272093415260315 0.48328080773353577
0.10637497156858444 0.25049346685409546 0.5596811175346375
0.13332128524780273 0.20933090150356293 0.4462498426437378
0.21920526027679443 0.2023766040802002 0.5219103693962097
0.21912528574466705 0.20612776279449463 0.4182240664958954
0.12999312579631805 0.2935733497142792 0.5048756003379822
0.11343938857316971 0.19208303093910217 0.4361953139305115
0.15232785046100616 0.11774250864982605 0.4278026521205902
0.22038233280181885 0.3617546260356903 0.5622515082359314
0.1319846212863922 0.19946430623531342 0.43716976046562195
0.21370825171470642 0.20252171158790588 0.4302288293838501
0.1218021959066391 0.25314608216285706 0.5012431740760803
0.18627113103866577 0.31715571880340576 0.5764001607894897
0.17091387510299683 0.3316234052181244 0.5176531672477722
0.2662868797779083 0.22576399147510529 0.538424551486969
0.2679758667945862 0.20713810622692108 0.5993092060089111
0.22576496005058289 0.20649978518486023 0.4377153813838959
0.1563582569360733 0.24917533993721008 0.4317433834075928
0.1361534297466278 0.20292878150939941 0.5194947123527527
0.1320502907037735 0.2650575339794159 0.411251425743103
0.2212652713060379 0.2052990347146988 0.4701786935329437
0.24481560289859772 0.28689655661582947 0.5945799946784973
0.26522475481033325 0.23900362849235535 0.5257642865180969
0.12705378234386444 0.22626745700836182 0.4988807737827301
0.19367551803588867 0.34264102578163147 0.5923766493797302
0.13217352330684662 0.1392579823732376 0.46726372838020325
0.23568670451641083 0.14002519845962524 0.4897637665271759
0.1702796369791031 0.31435084342956543 0.48784691095352173
0.1448620855808258 0.15049514174461365 0.48166120052337646
0.18177193403244019 0.24266134202480316 0.47036951780319214
0.3063623607158661 0.19607868790626526 0.5195565223693848
0.1261247992515564 0.13560383021831512 0.4456961750984192
0.12620924413204193 0.14592865109443665 0.42069461941719055
0.13029277324676514 0.1352354735136032 0.4184769093990326
0.1926162838935852 0.3111468553543091 0.41331571340560913
0.1349237710237503 0.17729416489601135 0.5744016170501709
0.2124118059873581 0.36891162395477295 0.4488281309604645
0.19633537530899048 0.33730223774909973 0.5044102072715759
0.19504329562187195 0.13256694376468658 0.48321333527565
0.1190890297293663 0.2121720016002655 0.43827003240585327
0.13482870161533356 0.2133219838142395 0.4720977246761322
0.12326326221227646 0.1853272020816803 0.41937896609306335
0.16927656531333923 0.31102311611175537 0.49010178446769714
0.1308094561100006 0.1889975219964981 0.588781476020813
0.16701368987560272 0.12862062454223633 0.5267171859741211
0.17063941061496735 0.22721616923809052 0.5884525775909424
0.17698679864406586 0.24309036135673523 0.4815441071987152
0.11195129156112671 0.18372215330600739 0.46523910760879517
0.18577498197555542 0.11549992859363556 0.5008816123008728
0.2134353071451187 0.2593402862548828 0.40523847937583923
0.20118388533592224 0.21446436643600464 0.5965937376022339
0.1411249339580536 0.2715027928352356 0.5552800297737122
0.2626830041408539 0.28770822286605835 0.5325320363044739
0.24443911015987396 0.3132268190383911 0.528283953666687
0.22752498090267181 0.16394342482089996 0.4657331109046936
0.14244121313095093 0.241204634308815 0.4616682529449463
0.17347629368305206 0.18078768253326416 0.4151977598667145
0.1413497030735016 0.286878377199173 0.42649805545806885
0.2684735059738159 0.18181021511554718 0.5607885122299194
0.1932445913553238 0.30847617983818054 0.5945224165916443
0.13155865669250488 0.21227112412452698 0.4670708477497101
0.12274131178855896 0.24056360125541687 0.4958833158016205
0.24447844922542572 0.3179452121257782 0.49228253960609436
0.13229362666606903 0.24440129101276398 0.3969452381134033
0.18090789020061493 0.2730245888233185 0.5416784286499023
0.23061680793762207 0.20618966221809387 0.5771951079368591
0.16847893595695496 0.29987388849258423 0.48757874965667725
0.17273594439029694 0.31074973940849304 0.4168965220451355
0.11822843551635742 0.25881338119506836 0.3938598334789276
0.13965670764446259 0.2227223515510559 0.5411625504493713
0.1352759301662445 0.24459439516067505 0.3987026810646057
0.11027245968580246 0.23016804456710815 0.49111586809158325
0.1561518758535385 0.1733391135931015 0.4071768820285797
0.166388601064682 0.28299203515052795 0.43702322244644165
0.12393824756145477 0.28437522053718567 0.5150023102760315
0.16632242500782013 0.11420892924070358 0.514912486076355
0.2548215389251709 0.26871025562286377 0.5559523105621338
0.13598975539207458 0.13847136497497559 0.4515129327774048
0.26955243945121765 0.24760103225708008 0.5081076622009277
0.18296881020069122 0.1165708601474762 0.40404200553894043
0.23628190159797668 0.23966306447982788 0.5448891520500183
0.2134353071451187 0.2593402862548828 0.40523847937583923
0.20118388533592224 0.21446436643600464 0.5965937376022339
0.1411249339580536 0.2715027928352356 0.5552800297737122
0.2626830041408539 0.28770822286605835 0.5325320363044739
0.24443911015987396 0.3132268190383911 0.528283953666687
0.22752498090267181 0.16394342482089996 0.4657331109046936
0.1303178071975708 0.2486063688993454 0.4223441183567047
0.12626959383487701 0.1430429071187973 0.42627307772636414
0.17347629368305206 0.18078768253326416 0.4151977598667145
0.1413497030735016 0.286878377199173 0.42649805545806885
0.2684735059738159 0.18181021511554718 0.5607885122299194
0.1932445913553238 0.30847617983818054 0.5945224165916443
0.13155865669250488 0.21227112412452698 0.4670708477497101
0.12274131178855896 0.24056360125541687 0.4958833158016205
0.24447844922542572 0.3179452121257782 0.49228253960609436
0.13229362666606903 0.24440129101276398 0.3969452381134033
0.19185616075992584 0.13686096668243408 0.5306088924407959
0.2604418396949768 0.18827082216739655 0.4652215540409088
0.16928143799304962 0.2315036952495575 0.459993839263916
0.13365791738033295 0.24491477012634277 0.4127912223339081
0.11027245968580246 0.23016804456710815 0.49111586809158325
0.1561518758535385 0.1733391135931015 0.4071768820285797
0.166388601064682 0.28299203515052795 0.43702322244644165
0.12393824756145477 0.28437522053718567 0.5150023102760315
0.16632242500782013 0.11420892924070358 0.514912486076355
0.2548215389251709 0.26871025562286377 0.5559523105621338
0.13598975539207458 0.13847136497497559 0.4515129327774048
0.1268019825220108 0.2972145974636078 0.4300776720046997
0.2212856411933899 0.18406158685684204 0.5785341858863831
0.18296881020069122 0.1165708601474762 0.40404200553894043
0.2365468591451645 0.22184018790721893 0.5933345556259155
0.12239066511392593 0.26975929737091064 0.47379425168037415
0.13006892800331116 0.2550264596939087 0.5745897889137268
0.15541774034500122 0.12939798831939697 0.4366132616996765
0.1563582569360733 0.24917533993721008 0.4317433834075928
0.1361534297466278 0.20292878150939941 0.5194947123527527
0.1320502907037735 0.2650575339794159 0.411251425743103
0.2212652713060379 0.2052990347146988 0.4701786935329437
0.24481560289859772 0.28689655661582947 0.5945799946784973
0.26522475481033325 0.23900362849235535 0.5257642865180969
0.12705378234386444 0.22626745700836182 0.4988807737827301
0.19367551803588867 0.34264102578163147 0.5923766493797302
0.13217352330684662 0.1392579823732376 0.46726372838020325
0.23568670451641083 0.14002519845962524 0.4897637665271759
0.1702796369791031 0.31435084342956543 0.48784691095352173
0.1448620855808258 0.15049514174461365 0.48166120052337646
0.18177193403244019 0.24266134202480316 0.47036951780319214
0.3063623607158661 0.19607868790626526 0.5195565223693848
0.1261247992515564 0.13560383021831512 0.4456961750984192
0.18883860111236572 0.2897430956363678 0.5920776724815369
0.25706934928894043 0.14655227959156036 0.5695763826370239
0.2452404499053955 0.2171110063791275 0.5170690417289734
0.14042021334171295 0.21934618055820465 0.5964646935462952
0.14672879874706268 0.22184984385967255 0.45463237166404724
0.2537522614002228 0.1673838496208191 0.4313932955265045
0.1650122106075287 0.11897704750299454 0.5170240998268127
0.1419132947921753 0.1814078688621521 0.5003857016563416
0.12210331112146378 0.2895081043243408 0.3919838070869446
0.2283773571252823 0.25605154037475586 0.5589386820793152
0.11527152359485626 0.15765909850597382 0.5949543118476868
0.21202656626701355 0.17564783990383148 0.48036813735961914
0.16886799037456512 0.19317156076431274 0.6009384989738464
0.18236027657985687 0.1531466543674469 0.47848251461982727
0.2919299304485321 0.20129646360874176 0.5344523787498474
0.13176268339157104 0.24690645933151245 0.4549713134765625
0.11082170158624649 0.26761797070503235 0.5030566453933716
0.11444856971502304 0.2715541422367096 0.4519028067588806
0.19853100180625916 0.21447421610355377 0.42618608474731445
0.22956502437591553 0.2799191474914551 0.5469930171966553
0.14900971949100494 0.1490846872329712 0.49097946286201477
0.11392778903245926 0.24912132322788239 0.5148124098777771
0.11847864836454391 0.23725247383117676 0.563620924949646
0.26614877581596375 0.25162503123283386 0.5035576820373535
0.18201494216918945 0.3063332438468933 0.5383935570716858
0.1652621626853943 0.2682245671749115 0.5483578443527222
0.14541438221931458 0.20409612357616425 0.6022628545761108
0.24997664988040924 0.24727272987365723 0.4710894823074341
0.20253300666809082 0.21012964844703674 0.5467883348464966
0.2097025066614151 0.24180471897125244 0.5003045797348022
0.18883860111236572 0.2897430956363678 0.5920776724815369
0.2934611141681671 0.21718917787075043 0.4427466094493866
0.25706934928894043 0.14655227959156036 0.5695763826370239
0.2452404499053955 0.2171110063791275 0.5170690417289734
0.14042021334171295 0.21934618055820465 0.5964646935462952
0.14672879874706268 0.22184984385967255 0.45463237166404724
0.2537522614002228 0.1673838496208191 0.4313932955265045
0.1650122106075287 0.11897704750299454 0.5170240998268127
0.1419132947921753 0.1814078688621521 0.5003857016563416
0.12210331112146378 0.2895081043243408 0.3919838070869446
0.2283773571252823 0.25605154037475586 0.5589386820793152
0.11527152359485626 0.15765909850597382 0.5949543118476868
0.21202656626701355 0.17564783990383148 0.48036813735961914
0.15772747993469238 0.2980022132396698 0.5761417150497437
0.1633717268705368 0.13891150057315826 0.5183183550834656
0.16622936725616455 0.17074963450431824 0.5795177817344666
0.23898889124393463 0.14041613042354584 0.5924826860427856
0.10771240293979645 0.21533440053462982 0.5619732141494751
0.2043635994195938 0.20224659144878387 0.5244784951210022
0.22762498259544373 0.25188207626342773 0.5845008492469788
0.24425962567329407 0.15766789019107819 0.48822230100631714
0.19537468254566193 0.18835598230361938 0.5905195474624634
0.2646113336086273 0.196524977684021 0.4416995048522949
0.20778252184391022 0.30844420194625854 0.5951492190361023
0.11046072095632553 0.21219691634178162 0.5297220349311829
0.17315372824668884 0.1586504429578781 0.5224969983100891
0.11055700480937958 0.23410609364509583 0.525966227054596
0.15556372702121735 0.11196150630712509 0.4882605969905853
0.15392842888832092 0.12193002551794052 0.5508235692977905
0.2626192271709442 0.2142830491065979 0.529499888420105
0.11193272471427917 0.1895277053117752 0.569318950176239
0.24195513129234314 0.14713625609874725 0.5925063490867615
0.22983519732952118 0.2509118616580963 0.44840893149375916
0.20350421965122223 0.2287677824497223 0.4758880138397217
0.11714571714401245 0.23741671442985535 0.5806125998497009
0.20787912607192993 0.36451512575149536 0.43029600381851196
0.2127002477645874 0.2875223159790039 0.5165334343910217
0.21303912997245789 0.23980560898780823 0.4985005259513855
0.19044876098632812 0.1823512613773346 0.5428115129470825
0.19309256970882416 0.24996845424175262 0.552669882774353
0.26654675602912903 0.18397727608680725 0.5063450932502747
0.17022372782230377 0.2224867045879364 0.560207724571228
0.30171555280685425 0.19194276630878448 0.47350597381591797
0.2190849483013153 0.354399710893631 0.4190073311328888
0.1834571361541748 0.19430051743984222 0.41454219818115234
0.18163645267486572 0.1268881857395172 0.44591137766838074
0.13734571635723114 0.20995604991912842 0.5697116851806641
0.1389804482460022 0.14338095486164093 0.5503660440444946
0.24344561994075775 0.1616925448179245 0.4852552115917206
0.29316121339797974 0.21924418210983276 0.562907874584198
0.1284022331237793 0.26045554876327515 0.4423842132091522
0.18948331475257874 0.30486857891082764 0.4274297058582306
0.13961955904960632 0.19125661253929138 0.395563542842865
0.12082082033157349 0.2901143431663513 0.3997935950756073
0.12834803760051727 0.2690684199333191 0.41955193877220154
0.19749155640602112 0.2995458245277405 0.5104067921638489
0.23141853511333466 0.15111511945724487 0.49233484268188477
0.11387854814529419 0.20749253034591675 0.4255862236022949
0.1309283822774887 0.2837561070919037 0.5034319162368774
0.12740714848041534 0.1305399239063263 0.3928723633289337
0.22590862214565277 0.2743629217147827 0.45091167092323303
0.14967693388462067 0.2882508635520935 0.5348621606826782
0.19125591218471527 0.16014987230300903 0.5921617746353149
0.1528344452381134 0.1610988825559616 0.5753681659698486
0.1723412424325943 0.3021637499332428 0.44308871030807495
0.1409718245267868 0.2471301108598709 0.5553951263427734
0.21652378141880035 0.2212975025177002 0.5984105467796326
0.23923026025295258 0.19487795233726501 0.4120931327342987
0.12336860597133636 0.2555718719959259 0.562959611415863
0.22573049366474152 0.21307800710201263 0.5149086713790894
0.27169540524482727 0.18493196368217468 0.4167831838130951
0.11441697925329208 0.2322796881198883 0.4577324688434601
0.1361476331949234 0.21177956461906433 0.5319381356239319
0.2901857793331146 0.21507510542869568 0.5317190885543823
0.1563895046710968 0.26919350028038025 0.4496362805366516
0.13210837543010712 0.29293614625930786 0.4764443635940552
0.20914030075073242 0.25514641404151917 0.5909082889556885
0.22009888291358948 0.2721879780292511 0.4505982995033264
0.20285217463970184 0.3180502951145172 0.4791702628135681
0.1517256200313568 0.27359387278556824 0.5562838315963745
0.26674675941467285 0.27460625767707825 0.5530577898025513
0.2134353071451187 0.2593402862548828 0.40523847937583923
0.20118388533592224 0.21446436643600464 0.5965937376022339
0.2250695824623108 0.26737111806869507 0.5328296422958374
0.2538030445575714 0.27759096026420593 0.556526780128479
0.19365979731082916 0.28282132744789124 0.5360317230224609
0.1895158737897873 0.2708110511302948 0.43165743350982666
0.21575231850147247 0.20725326240062714 0.4603639245033264
0.14454810321331024 0.29966357350349426 0.49908170104026794
0.2037314623594284 0.34452593326568604 0.4762628674507141
0.21464337408542633 0.2942366600036621 0.5448616147041321
0.1452532857656479 0.15857617557048798 0.43949347734451294
0.2745015323162079 0.1633324921131134 0.42002272605895996
0.14210891723632812 0.2536607086658478 0.4153693616390228
0.244160458445549 0.1567668616771698 0.5310600399971008
0.2029227912425995 0.24497467279434204 0.5539289116859436
0.21732930839061737 0.33322685956954956 0.6063632369041443
0.13147105276584625 0.162887841463089 0.4287302494049072
0.1499466747045517 0.19071447849273682 0.4619816243648529
