ply
format ascii 1.0
element vertex 822
property float x
property float y
property float z
end_header
0.11776553094387054 0.25839442014694214 0.5740357637405396
0.18777063488960266 0.1524599939584732 0.47154197096824646
0.16012714803218842 0.12708820402622223 0.4705986976623535
0.23601096868515015 0.30657249689102173 0.5421769618988037
0.24433080852031708 0.23817890882492065 0.4984661340713501
0.18752214312553406 0.3155252933502197 0.5144509077072144
0.19960489869117737 0.13258399069309235 0.4048157036304474
0.12354040890932083 0.18644845485687256 0.517849326133728
0.14863675832748413 0.19901372492313385 0.5916767120361328
0.24510030448436737 0.2648257315158844 0.5011044144630432
0.24768464267253876 0.25673386454582214 0.4518754780292511
0.2781442105770111 0.20888519287109375 0.5578832626342773
0.11546045541763306 0.209308922290802 0.4895552694797516
0.18243035674095154 0.12099672108888626 0.5907034873962402
0.2032189518213272 0.2193569839000702 0.5073386430740356
0.23149003088474274 0.3336159288883209 0.47052013874053955
0.2325248122215271 0.3591859042644501 0.4470759928226471
0.11707306653261185 0.25889235734939575 0.5201990604400635
0.2409503012895584 0.18569022417068481 0.5638322830200195
0.24190524220466614 0.2937648892402649 0.5874055027961731
0.18338026106357574 0.3507900536060333 0.4839753210544586
0.1782902330160141 0.15372365713119507 0.58515864610672
0.2457069754600525 0.35580116510391235 0.5355475544929504
0.23126481473445892 0.21283438801765442 0.5854028463363647
0.23709511756896973 0.21624726057052612 0.5004023909568787
0.1523646116256714 0.17899678647518158 0.5359961986541748
0.17856259644031525 0.30093204975128174 0.579654335975647
0.18851712346076965 0.3291056454181671 0.5614542365074158
0.2541050612926483 0.2276860773563385 0.554585337638855
0.138321653008461 0.26134830713272095 0.5859670042991638
0.22083142399787903 0.36764758825302124 0.601749062538147
0.1391090452671051 0.3223233222961426 0.4929029941558838
0.29361194372177124 0.21281450986862183 0.48731207847595215
0.18777063488960266 0.1524599939584732 0.47154197096824646
0.24433080852031708 0.23817890882492065 0.4984661340713501
0.18752214312553406 0.3155252933502197 0.5144509077072144
0.19960489869117737 0.13258399069309235 0.4048157036304474
0.12354040890932083 0.18644845485687256 0.517849326133728
0.14863675832748413 0.19901372492313385 0.5916767120361328
0.24768464267253876 0.25673386454582214 0.4518754780292511
0.2781442105770111 0.20888519287109375 0.5578832626342773
0.11546045541763306 0.209308922290802 0.4895552694797516
0.18243035674095154 0.12099672108888626 0.5907034873962402
0.2032189518213272 0.2193569839000702 0.5073386430740356
0.23149003088474274 0.3336159288883209 0.47052013874053955
0.2325248122215271 0.3591859042644501 0.4470759928226471
0.11707306653261185 0.25889235734939575 0.5201990604400635
0.24401648342609406 0.19539977610111237 0.4857833683490753
0.17076639831066132 0.3398739993572235 0.5025904178619385
0.124999038875103 0.2104555368423462 0.5960715413093567
0.17277586460113525 0.20463921129703522 0.5262974500656128
0.10676731914281845 0.25498726963996887 0.4807843863964081
0.18405543267726898 0.291939377784729 0.5426498651504517
0.24340900778770447 0.1808573454618454 0.5739496946334839
0.19459500908851624 0.2647274434566498 0.5034435391426086
0.25963252782821655 0.18139201402664185 0.46814677119255066
0.18851712346076965 0.3291056454181671 0.5614542365074158
0.2541050612926483 0.2276860773563385 0.554585337638855
0.138321653008461 0.26134830713272095 0.5859670042991638
0.22083142399787903 0.36764758825302124 0.601749062538147
0.1391090452671051 0.3223233222961426 0.4929029941558838
0.24633847177028656 0.23959453403949738 0.45453375577926636
0.1688477247953415 0.12146583199501038 0.4781344532966614
0.1976468861103058 0.23387521505355835 0.5868548154830933
0.13061021268367767 0.29145097732543945 0.39698660373687744
0.2665903568267822 0.3114618957042694 0.5448230504989624
0.22731661796569824 0.16976097226142883 0.43237337470054626
0.22981348633766174 0.36385834217071533 0.4297301471233368
0.11420661956071854 0.26068538427352905 0.4487795829772949
0.16402313113212585 0.31349584460258484 0.48330745100975037
0.21261142194271088 0.1567409485578537 0.47907477617263794
0.20559601485729218 0.2085949182510376 0.48185718059539795
0.1658955067396164 0.12423649430274963 0.5281057357788086
0.24019283056259155 0.2330431491136551 0.5913960337638855
0.15954668819904327 0.15607134997844696 0.44996193051338196
0.20434632897377014 0.314622700214386 0.5656680464744568
0.22144879400730133 0.17720624804496765 0.5580371618270874
0.16686832904815674 0.18001578748226166 0.4186643958091736
0.1214127466082573 0.17321324348449707 0.4708603620529175
0.14553605020046234 0.30498072504997253 0.4198817014694214
0.1442543864250183 0.26582059264183044 0.41816216707229614
0.1578400433063507 0.2565535008907318 0.5566565990447998
0.22888179123401642 0.1822279989719391 0.4933086633682251
0.2340962290763855 0.2273549735546112 0.45977547764778137
0.2536601424217224 0.3371853828430176 0.5070903301239014
0.21925947070121765 0.2711503803730011 0.46668291091918945
0.1987050324678421 0.2670941650867462 0.45755240321159363
0.25650835037231445 0.22299614548683167 0.4360310435295105
0.1155335009098053 0.21268194913864136 0.5229276418685913
0.2551983892917633 0.23559501767158508 0.48118531703948975
0.22650529444217682 0.36497652530670166 0.43677306175231934
0.10188987851142883 0.27321964502334595 0.6052310466766357
0.17462511360645294 0.166841059923172 0.5852760672569275
0.27082395553588867 0.216547891497612 0.5327842831611633
0.15223459899425507 0.16611605882644653 0.5736321806907654
0.1404271423816681 0.2952280342578888 0.5346363186836243
0.19021761417388916 0.23718585073947906 0.4370359182357788
0.20559601485729218 0.2085949182510376 0.48185718059539795
0.1658955067396164 0.12423649430274963 0.5281057357788086
0.24019283056259155 0.2330431491136551 0.5913960337638855
0.1632210612297058 0.2925916612148285 0.511844277381897
0.15529024600982666 0.32029345631599426 0.45864933729171753
0.12000555545091629 0.18949101865291595 0.5363171100616455
0.1556730568408966 0.1670141965150833 0.5025429725646973
0.12821994721889496 0.2513222098350525 0.5797361135482788
0.16048461198806763 0.16989299654960632 0.42505359649658203
0.17746911942958832 0.2246670126914978 0.551851749420166
0.2817199230194092 0.269646018743515 0.5190305113792419
0.13872703909873962 0.1214171051979065 0.4516236484050751
0.1290438175201416 0.22851160168647766 0.5159102082252502
0.1334071308374405 0.2595107853412628 0.47355136275291443
0.1378028243780136 0.20258857309818268 0.51612389087677
0.23748576641082764 0.3377220928668976 0.4209447205066681
0.2204975038766861 0.3519419729709625 0.5674793124198914
0.17892056703567505 0.16785506904125214 0.46575021743774414
0.24087482690811157 0.34605634212493896 0.4705083966255188
0.19531849026679993 0.20321322977542877 0.5215415954589844
0.18365180492401123 0.2924532890319824 0.5840652585029602
0.2031196504831314 0.36045801639556885 0.4390649199485779
0.23123420774936676 0.38383805751800537 0.443124920129776
0.14621023833751678 0.31505662202835083 0.5267954468727112
0.19121290743350983 0.1587405502796173 0.44059211015701294
0.18477289378643036 0.25564974546432495 0.5997503995895386
0.2179664522409439 0.2590324580669403 0.5602527260780334
0.20216721296310425 0.22263818979263306 0.48803651332855225
0.1682901233434677 0.19940151274204254 0.4236637353897095
0.24039465188980103 0.1755886822938919 0.5638623237609863
0.18297211825847626 0.22102884948253632 0.48491430282592773
0.19021761417388916 0.23718585073947906 0.4370359182357788
0.15554992854595184 0.19871987402439117 0.5378919839859009
0.1387619823217392 0.3192051351070404 0.5408772230148315
0.11484036594629288 0.24455198645591736 0.5059346556663513
0.24115386605262756 0.35521262884140015 0.5271649956703186
0.14654801785945892 0.12027505785226822 0.5038903951644897
0.19478487968444824 0.21397757530212402 0.4613284468650818
0.301737904548645 0.2473372519016266 0.4420236349105835
0.12770260870456696 0.2999265193939209 0.5295113921165466
0.17310775816440582 0.13018666207790375 0.5582551956176758
0.15850254893302917 0.19504329562187195 0.5123423933982849
0.20937013626098633 0.2671639323234558 0.6015292406082153
0.23225872218608856 0.3059459626674652 0.4169822335243225
0.26535704731941223 0.19707265496253967 0.5819070339202881
0.14815378189086914 0.13676594197750092 0.5217958688735962
0.22489531338214874 0.14841178059577942 0.5590602159500122
0.27255213260650635 0.3094612658023834 0.5910710096359253
0.1297900229692459 0.19485700130462646 0.4929302930831909
0.17698410153388977 0.1968303620815277 0.5501322746276855
0.23606811463832855 0.1643606275320053 0.4071909487247467
0.18976645171642303 0.2463393360376358 0.5929388999938965
0.16697247326374054 0.1828833967447281 0.4923946261405945
0.22494393587112427 0.16253624856472015 0.522789716720581
0.30707091093063354 0.22566741704940796 0.45011675357818604
0.1364671289920807 0.18203853070735931 0.49009081721305847
0.10664060711860657 0.25060003995895386 0.47965681552886963
0.1803712695837021 0.1250065416097641 0.5304368138313293
0.1800612360239029 0.1603572964668274 0.5811478495597839
0.15035177767276764 0.21088868379592896 0.4113541543483734
0.1404186636209488 0.19901934266090393 0.5107781887054443
0.18634361028671265 0.262786865234375 0.5465134382247925
0.13802295923233032 0.1413683295249939 0.4816938638687134
0.23183663189411163 0.1741204410791397 0.4959438145160675
0.2281055748462677 0.35026416182518005 0.5603246688842773
0.19073396921157837 0.33815839886665344 0.4959184527397156
0.1843426525592804 0.30868083238601685 0.5390316247940063
0.15679334104061127 0.1619531661272049 0.45198431611061096
0.18462255597114563 0.2884919345378876 0.4409226179122925
0.286286324262619 0.27754607796669006 0.4174337089061737
0.1887691617012024 0.2655062675476074 0.5368049740791321
0.2783105969429016 0.2667190134525299 0.471458375453949
0.12037567794322968 0.2520376443862915 0.4456672668457031
0.1532593071460724 0.31396105885505676 0.43662890791893005
0.30487918853759766 0.21532398462295532 0.4555160403251648
0.11442740261554718 0.21243901550769806 0.4583749771118164
0.16129744052886963 0.2808854579925537 0.5662267804145813
0.2502213418483734 0.2568957507610321 0.505784809589386
0.18566583096981049 0.23191766440868378 0.5847072601318359
0.29257574677467346 0.24679791927337646 0.502103865146637
0.21822375059127808 0.2731347978115082 0.5152469873428345
0.23000960052013397 0.2957916259765625 0.593246579170227
0.2016650289297104 0.2925660312175751 0.5377576351165771
0.12806901335716248 0.29881227016448975 0.43134719133377075
0.16818048059940338 0.28983592987060547 0.491599440574646
0.24700969457626343 0.34375399351119995 0.5675041675567627
0.19675564765930176 0.23504412174224854 0.4229280352592468
0.18043610453605652 0.2261916548013687 0.5622709393501282
0.18052613735198975 0.23628854751586914 0.5849238038063049
0.2646426856517792 0.32389840483665466 0.572899341583252
0.26527073979377747 0.29847240447998047 0.5235505104064941
0.2408083826303482 0.16767153143882751 0.5738838315010071
0.22563916444778442 0.22658619284629822 0.5771726369857788
0.17756962776184082 0.28363606333732605 0.4676421880722046
0.14254115521907806 0.15898536145687103 0.5762182474136353
0.24306945502758026 0.2690299451351166 0.500548243522644
0.135253444314003 0.23345458507537842 0.5187093615531921
0.2327675223350525 0.18304717540740967 0.595304548740387
0.27648159861564636 0.23352119326591492 0.463943749666214
0.21969212591648102 0.3193495273590088 0.43791937828063965
0.15593326091766357 0.30074045062065125 0.5219833850860596
0.18204300105571747 0.13459236919879913 0.4587213099002838
0.15294204652309418 0.2514592409133911 0.5876843929290771
0.2158249318599701 0.17143329977989197 0.5790202617645264
0.1779664009809494 0.2841546833515167 0.5374645590782166
0.21231354773044586 0.2624087333679199 0.5914047956466675
0.10722744464874268 0.2835465967655182 0.4915025532245636
0.16941772401332855 0.21488402783870697 0.49246320128440857
0.24739761650562286 0.21509848535060883 0.4826321303844452
0.2299347221851349 0.3322196304798126 0.4359712600708008
0.2266458421945572 0.36840635538101196 0.41134610772132874
0.15754100680351257 0.22719018161296844 0.41768866777420044
0.2723042964935303 0.1966629922389984 0.4230853021144867
0.2040477693080902 0.17505382001399994 0.5097394585609436
0.1386735588312149 0.1849662959575653 0.5900793671607971
0.13029493391513824 0.27875757217407227 0.4270404577255249
0.20931465923786163 0.25734132528305054 0.49132540822029114
0.26476559042930603 0.197040393948555 0.4524742662906647
0.15677928924560547 0.25708678364753723 0.585601806640625
0.11927840113639832 0.18211165070533752 0.4553568959236145
0.14276835322380066 0.2832987308502197 0.41609296202659607
0.260388046503067 0.2685149610042572 0.4367663264274597
0.20314538478851318 0.2816668152809143 0.40386542677879333
0.14126789569854736 0.2746202349662781 0.5407233238220215
0.27379387617111206 0.29189592599868774 0.4988437294960022
0.27278268337249756 0.23230460286140442 0.43683382868766785
0.10555359721183777 0.2652265131473541 0.5652810335159302
0.1893073171377182 0.28866046667099 0.5038648247718811
0.21261142194271088 0.1567409485578537 0.47907477617263794
0.20559601485729218 0.2085949182510376 0.48185718059539795
0.1658955067396164 0.12423649430274963 0.5281057357788086
0.1658955067396164 0.12423649430274963 0.5281057357788086
0.24019283056259155 0.2330431491136551 0.5913960337638855
0.1632210612297058 0.2925916612148285 0.511844277381897
0.12821994721889496 0.2513222098350525 0.5797361135482788
0.16048461198806763 0.16989299654960632 0.42505359649658203
0.17746911942958832 0.2246670126914978 0.551851749420166
0.2817199230194092 0.269646018743515 0.5190305113792419
0.2817199230194092 0.269646018743515 0.5190305113792419
0.13872703909873962 0.1214171051979065 0.4516236484050751
0.1290438175201416 0.22851160168647766 0.5159102082252502
0.24094754457473755 0.31881090998649597 0.543268084526062
0.14363770186901093 0.1926870346069336 0.5758312344551086
0.13034716248512268 0.2592769265174866 0.5939358472824097
0.1782720386981964 0.31345897912979126 0.46573320031166077
0.2575541138648987 0.3059018850326538 0.5100390911102295
0.17786483466625214 0.1412249505519867 0.49877938628196716
0.22326478362083435 0.2977735996246338 0.46157020330429077
0.14815378189086914 0.13676594197750092 0.5217958688735962
0.32047906517982483 0.21505804359912872 0.46070900559425354
0.22586311399936676 0.15010854601860046 0.41632261872291565
0.2264421582221985 0.3566972017288208 0.5874203443527222
0.18259172141551971 0.26100093126296997 0.44950348138809204
0.11392507702112198 0.2060721069574356 0.5857997536659241
0.14276835322380066 0.2832987308502197 0.41609296202659607
0.260388046503067 0.2685149610042572 0.4367663264274597
0.20314538478851318 0.2816668152809143 0.40386542677879333
0.14126789569854736 0.2746202349662781 0.5407233238220215
0.27379387617111206 0.29189592599868774 0.4988437294960022
0.18777063488960266 0.1524599939584732 0.47154197096824646
0.1569712609052658 0.236984983086586 0.5629730224609375
0.1322079598903656 0.13206341862678528 0.5418323874473572
0.16645683348178864 0.28615114092826843 0.40841245651245117
0.23170416057109833 0.35148969292640686 0.527694821357727
0.10920505970716476 0.25636205077171326 0.4092024266719818
0.20293010771274567 0.19876502454280853 0.491406112909317
0.15002070367336273 0.17697864770889282 0.559384822845459
0.2830071449279785 0.20002733170986176 0.4470840394496918
0.15808850526809692 0.24279944598674774 0.5250949263572693
0.1617247462272644 0.2152268886566162 0.5783679485321045
0.2419431209564209 0.17349903285503387 0.5829986929893494
0.19310547411441803 0.21255339682102203 0.5138027667999268
0.1279616504907608 0.23438212275505066 0.4439413547515869
0.1765243113040924 0.22749614715576172 0.436059832572937
0.1131742000579834 0.20558691024780273 0.5134683847427368
0.16088826954364777 0.24440200626850128 0.5035448670387268
0.13498248159885406 0.2742886543273926 0.4646289646625519
0.1890561580657959 0.15841086208820343 0.5934330821037292
0.23019059002399445 0.16202141344547272 0.5019052028656006
0.28128117322921753 0.2101822793483734 0.5544115304946899
0.2801167666912079 0.25438177585601807 0.5068766474723816
0.1482999622821808 0.19823232293128967 0.5721873641014099
0.16959792375564575 0.3189701437950134 0.527219295501709
0.21809569001197815 0.2798219323158264 0.459285706281662
0.21809569001197815 0.2798219323158264 0.459285706281662
0.25816017389297485 0.2744934558868408 0.5346760153770447
0.2319292575120926 0.29859641194343567 0.49457958340644836
0.1938766986131668 0.22850488126277924 0.4808492660522461
0.11870972812175751 0.3010953664779663 0.41876906156539917
0.18421012163162231 0.2715550363063812 0.5439683794975281
0.3007274866104126 0.24891114234924316 0.4435032904148102
0.22083142399787903 0.36764758825302124 0.601749062538147
0.16959792375564575 0.3189701437950134 0.527219295501709
0.21809569001197815 0.2798219323158264 0.459285706281662
0.25816017389297485 0.2744934558868408 0.5346760153770447
0.2319292575120926 0.29859641194343567 0.49457958340644836
0.1938766986131668 0.22850488126277924 0.4808492660522461
0.11870972812175751 0.3010953664779663 0.41876906156539917
0.18421012163162231 0.2715550363063812 0.5439683794975281
0.3007274866104126 0.24891114234924316 0.4435032904148102
0.21084682643413544 0.2013636976480484 0.4406493902206421
0.15028633177280426 0.3034454584121704 0.514062762260437
0.17973239719867706 0.2620362639427185 0.4244403839111328
0.2562113106250763 0.17613480985164642 0.5406246185302734
0.14307901263237 0.26482903957366943 0.4819498062133789
0.17686329782009125 0.1334177553653717 0.5107792019844055
0.2021505981683731 0.1661970466375351 0.43854328989982605
0.24554988741874695 0.22794091701507568 0.5698474645614624
0.2277766913175583 0.3489494025707245 0.4751875698566437
0.14672978222370148 0.16173692047595978 0.5802503228187561
0.2576957046985626 0.26243725419044495 0.5499473214149475
0.11833981424570084 0.2994553744792938 0.448306143283844
0.31297868490219116 0.22092604637145996 0.43457719683647156
0.23983632028102875 0.31043025851249695 0.5512171983718872
0.10731980204582214 0.27337536215782166 0.5048134922981262
0.2503666877746582 0.19357100129127502 0.4714173674583435
0.12332368642091751 0.2571137547492981 0.5078082084655762
0.1352798342704773 0.26234573125839233 0.4768834412097931
0.1359110027551651 0.17486807703971863 0.4423797130584717
0.2281055748462677 0.35026416182518005 0.5603246688842773
0.2496434450149536 0.3006637692451477 0.5050656199455261
0.1627279371023178 0.2695542275905609 0.5739308595657349
0.11223950982093811 0.28990238904953003 0.5236809253692627
0.25218725204467773 0.31595379114151 0.5405237674713135
0.1938766986131668 0.22850488126277924 0.4808492660522461
0.11870972812175751 0.3010953664779663 0.41876906156539917
0.18421012163162231 0.2715550363063812 0.5439683794975281
0.3007274866104126 0.24891114234924316 0.4435032904148102
0.13665342330932617 0.26423180103302 0.4614594578742981
0.11686085909605026 0.20470133423805237 0.43017664551734924
0.16338098049163818 0.22350238263607025 0.6001530289649963
0.10470147430896759 0.2715165317058563 0.46136415004730225
0.13665829598903656 0.14494185149669647 0.4460781216621399
0.2359819859266281 0.2854781150817871 0.6001152992248535
0.13409607112407684 0.131071537733078 0.5603232979774475
0.1691613644361496 0.13526874780654907 0.46743467450141907
0.2784149944782257 0.23018546402454376 0.5174961090087891
0.15639649331569672 0.2553560137748718 0.49036073684692383
0.2291753888130188 0.17833514511585236 0.5050635933876038
0.1572439819574356 0.23185136914253235 0.5601545572280884
0.27565839886665344 0.2636350989341736 0.5073595643043518
0.24528701603412628 0.28944501280784607 0.5210222005844116
0.22289562225341797 0.2520272731781006 0.5434267520904541
0.16064946353435516 0.32994142174720764 0.5045692324638367
0.2576957046985626 0.26243725419044495 0.5499473214149475
0.11833981424570084 0.2994553744792938 0.448306143283844
0.31297868490219116 0.22092604637145996 0.43457719683647156
0.23983632028102875 0.31043025851249695 0.5512171983718872
0.10731980204582214 0.27337536215782166 0.5048134922981262
0.2503666877746582 0.19357100129127502 0.4714173674583435
0.12332368642091751 0.2571137547492981 0.5078082084655762
0.1352798342704773 0.26234573125839233 0.4768834412097931
0.1359110027551651 0.17486807703971863 0.4423797130584717
0.2281055748462677 0.35026416182518005 0.5603246688842773
0.19073396921157837 0.33815839886665344 0.4959184527397156
0.17201319336891174 0.15512101352214813 0.5036758184432983
0.15028633177280426 0.3034454584121704 0.514062762260437
0.24741119146347046 0.23647594451904297 0.5638531446456909
0.19843845069408417 0.14103898406028748 0.5433076024055481
0.25378549098968506 0.2695406675338745 0.55049067735672
0.3019528388977051 0.20836760103702545 0.4288581907749176
0.1316644251346588 0.21503187716007233 0.5087857246398926
0.286286324262619 0.27754607796669006 0.4174337089061737
0.1887691617012024 0.2655062675476074 0.5368049740791321
0.2783105969429016 0.2667190134525299 0.471458375453949
0.12037567794322968 0.2520376443862915 0.4456672668457031
0.1532593071460724 0.31396105885505676 0.43662890791893005
0.30487918853759766 0.21532398462295532 0.4555160403251648
0.11442740261554718 0.21243901550769806 0.4583749771118164
0.16129744052886963 0.2808854579925537 0.5662267804145813
0.2502213418483734 0.2568957507610321 0.505784809589386
0.18566583096981049 0.23191766440868378 0.5847072601318359
0.29257574677467346 0.24679791927337646 0.502103865146637
0.21822375059127808 0.2731347978115082 0.5152469873428345
0.23000960052013397 0.2957916259765625 0.593246579170227
0.2016650289297104 0.2925660312175751 0.5377576351165771
0.12806901335716248 0.29881227016448975 0.43134719133377075
0.16818048059940338 0.28983592987060547 0.491599440574646
0.24700969457626343 0.34375399351119995 0.5675041675567627
0.1759050488471985 0.17303088307380676 0.5741751194000244
0.17729543149471283 0.33186835050582886 0.4683557152748108
0.2909535765647888 0.24053888022899628 0.5655155777931213
0.21000830829143524 0.18815940618515015 0.5878446102142334
0.15328648686408997 0.2306186407804489 0.47619733214378357
0.10178720206022263 0.2821372449398041 0.5513719916343689
0.14657758176326752 0.299417108297348 0.5310103893280029
0.2782069146633148 0.19026798009872437 0.5363923907279968
0.2359819859266281 0.2854781150817871 0.6001152992248535
0.1290438175201416 0.22851160168647766 0.5159102082252502
0.24094754457473755 0.31881090998649597 0.543268084526062
0.14363770186901093 0.1926870346069336 0.5758312344551086
0.13034716248512268 0.2592769265174866 0.5939358472824097
0.1782720386981964 0.31345897912979126 0.46573320031166077
0.2675933241844177 0.32701554894447327 0.5186370611190796
0.17786483466625214 0.1412249505519867 0.49877938628196716
0.22313420474529266 0.2974124252796173 0.4617787003517151
0.20414787530899048 0.28462129831314087 0.6023560762405396
0.2464502602815628 0.3595445454120636 0.5191428065299988
0.27947187423706055 0.2946533262729645 0.46879950165748596
0.11554521322250366 0.2355479896068573 0.5723099708557129
0.16089823842048645 0.22633212804794312 0.5869383811950684
0.2834934592247009 0.2796010971069336 0.425201416015625
0.260388046503067 0.2685149610042572 0.4367663264274597
0.2313779890537262 0.2801910638809204 0.4359642565250397
0.27379387617111206 0.29189592599868774 0.4988437294960022
0.18486152589321136 0.14466604590415955 0.5374500155448914
0.16011860966682434 0.21846123039722443 0.46560370922088623
0.2356245070695877 0.3449340760707855 0.5172173976898193
0.11880095303058624 0.24453768134117126 0.40645933151245117
0.20641076564788818 0.2774188816547394 0.47831979393959045
0.2510211765766144 0.26908060908317566 0.43153220415115356
0.2437972128391266 0.24180109798908234 0.5913283824920654
0.1697600781917572 0.24220910668373108 0.4685836434364319
0.27464157342910767 0.27437397837638855 0.5640117526054382
0.17317324876785278 0.2706168591976166 0.5467404127120972
0.2030927538871765 0.18504467606544495 0.5797169804573059
0.25759533047676086 0.2797107398509979 0.49270468950271606
0.19052943587303162 0.21434682607650757 0.5988682508468628
0.11246438324451447 0.2668929994106293 0.3977411389350891
0.11223950982093811 0.28990238904953003 0.5236809253692627
0.19728969037532806 0.3104208707809448 0.5822592377662659
0.25204581022262573 0.3463217318058014 0.5288060307502747
0.2852720320224762 0.22724474966526031 0.5336375832557678
0.27510547637939453 0.2322884202003479 0.5419071912765503
0.18359115719795227 0.1851067841053009 0.5114123225212097
0.17563094198703766 0.19677969813346863 0.502160906791687
0.23344935476779938 0.32867351174354553 0.42177438735961914
0.2197122722864151 0.25599405169487 0.4790894091129303
0.18812595307826996 0.17878200113773346 0.5370467305183411
0.2678624391555786 0.2593078315258026 0.406384140253067
0.18994851410388947 0.2897895574569702 0.45510193705558777
0.29251939058303833 0.23359332978725433 0.5265331268310547
0.15514975786209106 0.29424887895584106 0.47597336769104004
0.23519448935985565 0.22787360846996307 0.509963870048523
0.11939792335033417 0.28569772839546204 0.5189527869224548
0.15928998589515686 0.17369945347309113 0.5596914887428284
0.15767936408519745 0.2800023853778839 0.40554991364479065
0.1580248326063156 0.17723622918128967 0.42057037353515625
0.20099927484989166 0.26264217495918274 0.46853092312812805
0.12723009288311005 0.20560073852539062 0.4663781523704529
0.22303412854671478 0.34669190645217896 0.5113682150840759
0.1358519345521927 0.3144713044166565 0.4146338701248169
0.24573972821235657 0.1979292631149292 0.4747377336025238
0.21787820756435394 0.1509145349264145 0.47925806045532227
0.12546396255493164 0.210178941488266 0.44982123374938965
0.17736345529556274 0.19501961767673492 0.5043473243713379
0.24380379915237427 0.3171028196811676 0.5415973663330078
0.13734041154384613 0.2755065858364105 0.3951067328453064
0.1351298987865448 0.3140436112880707 0.5735720992088318
0.20130933821201324 0.32761672139167786 0.4162887632846832
0.11173484474420547 0.2886951267719269 0.47432371973991394
0.22227300703525543 0.32345452904701233 0.5479369163513184
0.2993611693382263 0.24039801955223083 0.5534366369247437
0.12823402881622314 0.25683698058128357 0.4212726652622223
0.22898994386196136 0.18692868947982788 0.49263256788253784
0.29056182503700256 0.23939481377601624 0.48076725006103516
0.21089352667331696 0.3371898829936981 0.5698921084403992
0.16791798174381256 0.1784312129020691 0.5420728325843811
0.18745644390583038 0.3350696861743927 0.4472435712814331
0.23303647339344025 0.16426043212413788 0.5922514796257019
0.22244180738925934 0.23863400518894196 0.5842270255088806
0.17177312076091766 0.2640182375907898 0.4749445617198944
0.23603375256061554 0.22680212557315826 0.5099060535430908
0.1344492882490158 0.15793859958648682 0.5356490015983582
0.12144270539283752 0.21370109915733337 0.4914243519306183
0.11121274530887604 0.2816336452960968 0.5018714070320129
0.2620459198951721 0.2821390628814697 0.47087550163269043
0.19066886603832245 0.27560994029045105 0.5194054841995239
0.12888647615909576 0.20661906898021698 0.48369479179382324
0.15905748307704926 0.27731388807296753 0.41808056831359863
0.19679532945156097 0.26544612646102905 0.558430016040802
0.1437893807888031 0.30455777049064636 0.4152796268463135
0.29747673869132996 0.22844725847244263 0.42627742886543274
0.2846316397190094 0.2648499011993408 0.46200740337371826
0.1829548329114914 0.3226064443588257 0.5343037247657776
0.2604972720146179 0.24213582277297974 0.5794309973716736
0.2813567519187927 0.30022063851356506 0.5753382444381714
0.1882697194814682 0.15310193598270416 0.5769974589347839
0.19027771055698395 0.2978229522705078 0.5595287084579468
0.22883610427379608 0.1931576281785965 0.44298163056373596
0.22589975595474243 0.29694485664367676 0.5115357041358948
0.24545098841190338 0.2559422552585602 0.5518048405647278
0.21254542469978333 0.3017358183860779 0.46315306425094604
0.20201866328716278 0.20228470861911774 0.4669107496738434
0.18486152589321136 0.14466604590415955 0.5374500155448914
0.16011860966682434 0.21846123039722443 0.46560370922088623
0.27277693152427673 0.18629302084445953 0.4420057535171509
0.23873692750930786 0.25219807028770447 0.41552555561065674
0.22604048252105713 0.2400800734758377 0.4923454225063324
0.18878665566444397 0.14092862606048584 0.41048604249954224
0.14038881659507751 0.24662062525749207 0.5046722888946533
0.150563046336174 0.2710370421409607 0.5788348913192749
0.26339513063430786 0.2661755383014679 0.5315950512886047
0.1690390259027481 0.21904590725898743 0.5000582933425903
0.270791232585907 0.27238917350769043 0.5207076668739319
0.26764029264450073 0.19432802498340607 0.5670758485794067
0.14499887824058533 0.25816377997398376 0.4227387607097626
0.22888115048408508 0.24707524478435516 0.5483654141426086
0.17027713358402252 0.2637425661087036 0.49465566873550415
0.10955169796943665 0.22911156713962555 0.47185996174812317
0.26508259773254395 0.26552310585975647 0.5278288125991821
0.198984295129776 0.3092609643936157 0.5062628984451294
0.24130664765834808 0.19089272618293762 0.5184697508811951
0.19256195425987244 0.19525279104709625 0.5025968551635742
0.21359527111053467 0.3745231032371521 0.45684996247291565
0.192354217171669 0.17988179624080658 0.574414074420929
0.20152395963668823 0.14358600974082947 0.436930388212204
0.11075587570667267 0.23776382207870483 0.601318359375
0.20221324265003204 0.33828791975975037 0.41260769963264465
0.11375132948160172 0.2498040348291397 0.5123322010040283
0.12733116745948792 0.21286983788013458 0.44838717579841614
0.175556480884552 0.26192453503608704 0.5745420455932617
0.18985705077648163 0.1523495465517044 0.47529837489128113
0.1312505155801773 0.27356138825416565 0.5654612183570862
0.21159236133098602 0.1851692795753479 0.5707343816757202
0.14815378189086914 0.13676594197750092 0.5217958688735962
0.1671711802482605 0.1859436333179474 0.5018742680549622
0.1705467402935028 0.26936301589012146 0.6013479232788086
0.23031476140022278 0.1734224110841751 0.5890662670135498
0.1697600781917572 0.24220910668373108 0.4685836434364319
0.27464157342910767 0.27437397837638855 0.5640117526054382
0.17317324876785278 0.2706168591976166 0.5467404127120972
0.18283137679100037 0.3198205530643463 0.4522947371006012
0.2030927538871765 0.18504467606544495 0.5797169804573059
0.25759533047676086 0.2797107398509979 0.49270468950271606
0.19052943587303162 0.21434682607650757 0.5988682508468628
0.11246438324451447 0.2668929994106293 0.3977411389350891
0.1769028753042221 0.21141935884952545 0.4377693831920624
0.246355801820755 0.20617307722568512 0.4933566153049469
0.12333402782678604 0.30420905351638794 0.4450261890888214
0.30773860216140747 0.2381872832775116 0.5411772727966309
0.24647732079029083 0.33867600560188293 0.44585222005844116
0.1932660937309265 0.13720417022705078 0.428169310092926
0.1189175546169281 0.19657564163208008 0.47007879614830017
0.19556008279323578 0.19915083050727844 0.5109521150588989
0.15025494992733002 0.26974421739578247 0.5514119267463684
0.22964002192020416 0.34381937980651855 0.4103783369064331
0.3128665089607239 0.21361681818962097 0.5699358582496643
0.19848302006721497 0.16136960685253143 0.5105025768280029
0.29207348823547363 0.20696380734443665 0.5463131070137024
0.11075587570667267 0.23776382207870483 0.601318359375
0.20221324265003204 0.33828791975975037 0.41260769963264465
0.11375132948160172 0.2498040348291397 0.5123322010040283
0.12733116745948792 0.21286983788013458 0.44838717579841614
0.175556480884552 0.26192453503608704 0.5745420455932617
0.18985705077648163 0.1523495465517044 0.47529837489128113
0.1312505155801773 0.27356138825416565 0.5654612183570862
0.13029493391513824 0.27875757217407227 0.4270404577255249
0.13878148794174194 0.2232169508934021 0.46399325132369995
0.14086958765983582 0.21003156900405884 0.4911032021045685
0.22368307411670685 0.1699356734752655 0.565990686416626
0.23229511082172394 0.23815876245498657 0.4769744873046875
0.13920189440250397 0.2772822678089142 0.4834122955799103
0.18602101504802704 0.261950820684433 0.5364062786102295
0.11297953128814697 0.2946200966835022 0.4657752513885498
0.22224847972393036 0.38114556670188904 0.524751603603363
0.11663492769002914 0.2292649745941162 0.4730849266052246
0.14494657516479492 0.2599610686302185 0.4356514811515808
0.19556008279323578 0.19915083050727844 0.5109521150588989
0.15025494992733002 0.26974421739578247 0.5514119267463684
0.22964002192020416 0.34381937980651855 0.4103783369064331
0.3128665089607239 0.21361681818962097 0.5699358582496643
0.19848302006721497 0.16136960685253143 0.5105025768280029
0.29207348823547363 0.20696380734443665 0.5463131070137024
0.11075587570667267 0.23776382207870483 0.601318359375
0.20221324265003204 0.33828791975975037 0.41260769963264465
0.11375132948160172 0.2498040348291397 0.5123322010040283
0.12733116745948792 0.21286983788013458 0.44838717579841614
0.175556480884552 0.26192453503608704 0.5745420455932617
0.18985705077648163 0.1523495465517044 0.47529837489128113
0.1312505155801773 0.27356138825416565 0.5654612183570862
0.21159236133098602 0.1851692795753479 0.5707343816757202
0.21340905129909515 0.2083054929971695 0.5414656400680542
0.254367858171463 0.2803340554237366 0.5574930906295776
0.21851755678653717 0.31197571754455566 0.5524041652679443
0.18634188175201416 0.15154500305652618 0.4215729236602783
0.28929898142814636 0.20574134588241577 0.5966235399246216
0.18972094357013702 0.13552382588386536 0.40085268020629883
0.23143580555915833 0.3565558195114136 0.4312422573566437
0.13029493391513824 0.27875757217407227 0.4270404577255249
0.23712292313575745 0.18197457492351532 0.565288245677948
0.22538422048091888 0.2001751959323883 0.5691714286804199
0.14743082225322723 0.32960250973701477 0.5340779423713684
0.20641076564788818 0.2774188816547394 0.47831979393959045
0.1433437317609787 0.23156091570854187 0.5657144784927368
0.24514827132225037 0.21156783401966095 0.5126760601997375
0.29082190990448 0.2506745755672455 0.49152621626853943
0.1950269341468811 0.13220305740833282 0.42043036222457886
0.21340905129909515 0.2083054929971695 0.5414656400680542
0.254367858171463 0.2803340554237366 0.5574930906295776
0.19585031270980835 0.18568316102027893 0.4800373315811157
0.2125798612833023 0.2822427451610565 0.4088610112667084
0.20561790466308594 0.3077699840068817 0.47246888279914856
0.13871610164642334 0.29652178287506104 0.540890634059906
0.23905624449253082 0.330890417098999 0.4632583260536194
0.1857917755842209 0.1859564185142517 0.4567072093486786
0.12240717560052872 0.19832836091518402 0.44069579243659973
0.15586872398853302 0.28298866748809814 0.4310913383960724
0.21926604211330414 0.35439133644104004 0.5430586338043213
0.20645500719547272 0.2466004490852356 0.4160841703414917
0.17708444595336914 0.1419728845357895 0.5546378493309021
0.1612902134656906 0.25023898482322693 0.5145570635795593
0.2815576493740082 0.28874295949935913 0.491529256105423
0.21502844989299774 0.3033900260925293 0.5579317212104797
0.25824618339538574 0.23630748689174652 0.5369401574134827
0.1478215903043747 0.3302455544471741 0.5267323851585388
0.23316903412342072 0.3093337118625641 0.5451897382736206
0.20426955819129944 0.253047376871109 0.5061619877815247
0.23141232132911682 0.2725015878677368 0.5197756290435791
0.224569633603096 0.26035764813423157 0.5714711546897888
0.18839454650878906 0.3445412814617157 0.40851032733917236
0.18486152589321136 0.14466604590415955 0.5374500155448914
0.2194145917892456 0.1982051283121109 0.4401700794696808
0.20246268808841705 0.3278525471687317 0.543114423751831
0.16318604350090027 0.2515651285648346 0.5210248827934265
0.25513410568237305 0.19345411658287048 0.5937272906303406
0.28077271580696106 0.24459153413772583 0.5307624340057373
0.23090197145938873 0.2588365375995636 0.4607449769973755
0.19853800535202026 0.14631204307079315 0.4415552318096161
0.20464590191841125 0.2602740526199341 0.5223838686943054
0.14951761066913605 0.13477936387062073 0.5600970387458801
0.19776712357997894 0.17658664286136627 0.5873421430587769
0.15575584769248962 0.2242966592311859 0.5638583898544312
0.22484010457992554 0.3766753673553467 0.4380132257938385
0.1575450450181961 0.269497811794281 0.5431369543075562
0.23641011118888855 0.32757821679115295 0.4608575999736786
0.30191636085510254 0.20811167359352112 0.45812931656837463
0.15731339156627655 0.2534390687942505 0.4850257337093353
0.29849958419799805 0.22675630450248718 0.565331220626831
0.12738463282585144 0.23172032833099365 0.453901082277298
0.296183705329895 0.23829452693462372 0.4770229458808899
0.20770883560180664 0.34870532155036926 0.5781233906745911
0.1678384691476822 0.15762458741664886 0.40546563267707825
0.16908961534500122 0.2648659348487854 0.49502065777778625
0.19593144953250885 0.2925865948200226 0.5093388557434082
0.1709422618150711 0.2602895498275757 0.5451698303222656
0.17372477054595947 0.15414538979530334 0.47963908314704895
0.28792744874954224 0.25253671407699585 0.43834951519966125
0.17344819009304047 0.254967600107193 0.5991140604019165
0.27913808822631836 0.25651222467422485 0.4586012065410614
0.161073699593544 0.3237994909286499 0.578389048576355
0.29158660769462585 0.2397935837507248 0.48747900128364563
0.30627256631851196 0.22255316376686096 0.5630512833595276
0.23712292313575745 0.18197457492351532 0.565288245677948
0.27353811264038086 0.1912834644317627 0.4822607636451721
0.2049957662820816 0.3481772243976593 0.5327633619308472
0.21451188623905182 0.34185901284217834 0.5474762916564941
0.15547975897789001 0.19260002672672272 0.4473986029624939
0.17489486932754517 0.21177423000335693 0.419026643037796
0.2263055294752121 0.20385611057281494 0.5199044346809387
0.1289244145154953 0.31018900871276855 0.5533291101455688
0.2023526281118393 0.14759944379329681 0.5890196561813354
0.1109444797039032 0.27566400170326233 0.41572949290275574
0.19585031270980835 0.18568316102027893 0.4800373315811157
0.2125798612833023 0.2822427451610565 0.4088610112667084
0.20561790466308594 0.3077699840068817 0.47246888279914856
0.13871610164642334 0.29652178287506104 0.540890634059906
0.2194145917892456 0.1982051283121109 0.4401700794696808
0.15407158434391022 0.18816247582435608 0.5267304182052612
0.1532563418149948 0.25612521171569824 0.5316453576087952
0.12250220775604248 0.2144327163696289 0.4093116223812103
0.18676601350307465 0.3117160201072693 0.5156817436218262
0.20770058035850525 0.1989232450723648 0.5744639039039612
0.21582646667957306 0.332158625125885 0.540073812007904
0.20425839722156525 0.18364731967449188 0.4284803569316864
0.23184286057949066 0.1890496462583542 0.4410790503025055
0.2874699831008911 0.2236005961894989 0.5227129459381104
0.18475554883480072 0.29422974586486816 0.4164486527442932
0.16787347197532654 0.12148948758840561 0.43459099531173706
0.27998900413513184 0.23400087654590607 0.4194495975971222
0.20769773423671722 0.16282379627227783 0.4108816981315613
0.15172748267650604 0.1946939378976822 0.5503655076026917
0.22906026244163513 0.20714877545833588 0.5881366729736328
0.2477351278066635 0.36023929715156555 0.5694872736930847
0.172422394156456 0.22693300247192383 0.5962576866149902
0.11191602796316147 0.28015655279159546 0.3946138024330139
0.24657903611660004 0.2934180796146393 0.43474480509757996
0.13672704994678497 0.1681474894285202 0.5065426826477051
0.1383088082075119 0.24267037212848663 0.46576714515686035
0.1597345769405365 0.15461987257003784 0.5462334156036377
0.24322891235351562 0.29179292917251587 0.569394052028656
0.17941546440124512 0.1691877543926239 0.570056676864624
0.2994783818721771 0.23697353899478912 0.42463114857673645
0.11273954063653946 0.25938931107521057 0.4610195755958557
0.1725751757621765 0.20801307260990143 0.432654470205307
0.15280763804912567 0.23016588389873505 0.4724072515964508
0.14771820604801178 0.21254810690879822 0.46069490909576416
0.23551365733146667 0.18749137222766876 0.4123420715332031
0.21078400313854218 0.3794947862625122 0.4506966173648834
0.24605712294578552 0.25409528613090515 0.5570627450942993
0.1592777967453003 0.30547213554382324 0.5326089859008789
0.17117370665073395 0.3300912082195282 0.4415190517902374
0.16789467632770538 0.336006760597229 0.4249286651611328
0.14694032073020935 0.12425609678030014 0.4570106863975525
0.1495581716299057 0.24868468940258026 0.49338123202323914
0.18275761604309082 0.3460029363632202 0.4373238980770111
0.16013874113559723 0.16948558390140533 0.43674394488334656
0.1884867548942566 0.2403300404548645 0.49154654145240784
0.1602363884449005 0.3034982681274414 0.5188265442848206
0.15261635184288025 0.28173965215682983 0.454142302274704
0.1634514182806015 0.2815922498703003 0.5356554388999939
0.20844906568527222 0.3052655756473541 0.575007438659668
0.18119603395462036 0.16222135722637177 0.5308731198310852
0.13871610164642334 0.29652178287506104 0.540890634059906
0.2194145917892456 0.1982051283121109 0.4401700794696808
0.15407158434391022 0.18816247582435608 0.5267304182052612
0.1532563418149948 0.25612521171569824 0.5316453576087952
0.11743709444999695 0.18930454552173615 0.49979668855667114
0.1857917755842209 0.1859564185142517 0.4567072093486786
0.25473281741142273 0.30091482400894165 0.569805383682251
0.2143823653459549 0.26733800768852234 0.4799043834209442
0.14478598535060883 0.18639816343784332 0.5936631560325623
0.238779678940773 0.21830087900161743 0.41253992915153503
0.17954128980636597 0.21036909520626068 0.5968559980392456
0.2240937501192093 0.2665523886680603 0.5808679461479187
0.16030941903591156 0.2870742380619049 0.4824243485927582
0.14113298058509827 0.26521438360214233 0.5426494479179382
0.20033125579357147 0.2347819209098816 0.5252511501312256
0.21874919533729553 0.1859973818063736 0.49824026226997375
0.12699663639068604 0.2806110978126526 0.4007611572742462
0.1915200650691986 0.13001574575901031 0.5242742896080017
0.2351471483707428 0.34933415055274963 0.4548507332801819
0.18095460534095764 0.2058618664741516 0.5469779968261719
0.2050677388906479 0.2314521074295044 0.4871780574321747
0.1412683129310608 0.12079235911369324 0.572736382484436
0.2511659562587738 0.283827543258667 0.4471679627895355
0.20475417375564575 0.37032994627952576 0.4384096562862396
0.11671726405620575 0.2569124698638916 0.4722524583339691
0.1250065118074417 0.22090637683868408 0.5604413747787476
0.13487166166305542 0.25270378589630127 0.44061318039894104
0.26790764927864075 0.3167542517185211 0.5650634765625
0.19705438613891602 0.2394612431526184 0.555918276309967
0.19800914824008942 0.36325350403785706 0.528120756149292
0.13658279180526733 0.2898787260055542 0.47180768847465515
0.17372477054595947 0.15414538979530334 0.47963908314704895
0.28792744874954224 0.25253671407699585 0.43834951519966125
0.17344819009304047 0.254967600107193 0.5991140604019165
0.27913808822631836 0.25651222467422485 0.4586012065410614
0.161073699593544 0.3237994909286499 0.578389048576355
0.20641076564788818 0.2774188816547394 0.47831979393959045
0.22969089448451996 0.3035317361354828 0.6008018851280212
0.26975923776626587 0.22314660251140594 0.42465171217918396
0.2313290387392044 0.38621509075164795 0.4260071814060211
0.14186781644821167 0.20060697197914124 0.4936235845088959
0.1375746726989746 0.11498291790485382 0.4839424788951874
0.2683088481426239 0.22937507927417755 0.5122089982032776
0.1865900158882141 0.1742027848958969 0.5801277160644531
0.13500750064849854 0.29776737093925476 0.4075236916542053
0.1646782010793686 0.30529266595840454 0.5774863958358765
0.19658173620700836 0.2728111445903778 0.5581608414649963
0.13329701125621796 0.17849038541316986 0.4103238582611084
0.14330856502056122 0.30044275522232056 0.5679404735565186
0.17910654842853546 0.1388832926750183 0.5444444417953491
0.25143858790397644 0.2096937596797943 0.5790131688117981
0.21546287834644318 0.29826459288597107 0.4930563271045685
0.11344434320926666 0.18965832889080048 0.5050808191299438
0.18366892635822296 0.14179138839244843 0.4224546551704407
0.12466656416654587 0.23516128957271576 0.5222977995872498
0.21397089958190918 0.15725655853748322 0.5688385963439941
0.10792046785354614 0.2495148479938507 0.4472612738609314
0.1267116665840149 0.2174142301082611 0.5240373015403748
0.21843762695789337 0.30732598900794983 0.4338292181491852
0.2788029611110687 0.29213255643844604 0.4914860725402832
0.23306292295455933 0.26907169818878174 0.47986769676208496
0.19615018367767334 0.2299351990222931 0.4764265716075897
0.21533749997615814 0.14232084155082703 0.40790024399757385
0.11462793499231339 0.28586506843566895 0.588121235370636
0.21561391651630402 0.2575892210006714 0.5853314995765686
0.2178632616996765 0.33826887607574463 0.4266120195388794
0.3018783926963806 0.25395625829696655 0.4313283860683441
0.23140668869018555 0.3193177580833435 0.5238804221153259
0.2703082263469696 0.20058570802211761 0.42052650451660156
0.23425976932048798 0.20736439526081085 0.4126761555671692
0.2965647280216217 0.20339682698249817 0.559994637966156
0.22148363292217255 0.18006254732608795 0.4451982080936432
0.1613193303346634 0.33251500129699707 0.4034194052219391
0.23315829038619995 0.35220104455947876 0.4521137475967407
0.18972091376781464 0.19008561968803406 0.40469124913215637
0.231453999876976 0.2637422978878021 0.5585845708847046
0.16768619418144226 0.1688644140958786 0.4497339725494385
0.24206846952438354 0.3157216012477875 0.5504677295684814
0.22806327044963837 0.22176770865917206 0.43868452310562134
0.1963232010602951 0.35815849900245667 0.4716821610927582
0.18425017595291138 0.3004893958568573 0.5029827952384949
0.15863646566867828 0.2609512209892273 0.47684967517852783
0.2682732939720154 0.3066332936286926 0.5868971347808838
0.10338947921991348 0.2737480700016022 0.6039463877677917
0.27353811264038086 0.1912834644317627 0.4822607636451721
0.2049957662820816 0.3481772243976593 0.5327633619308472
0.21451188623905182 0.34185901284217834 0.5474762916564941
0.15547975897789001 0.19260002672672272 0.4473986029624939
0.17489486932754517 0.21177423000335693 0.419026643037796
0.2263055294752121 0.20385611057281494 0.5199044346809387
0.1289244145154953 0.31018900871276855 0.5533291101455688
0.2023526281118393 0.14759944379329681 0.5890196561813354
0.1109444797039032 0.27566400170326233 0.41572949290275574
0.19585031270980835 0.18568316102027893 0.4800373315811157
0.2125798612833023 0.2822427451610565 0.4088610112667084
0.20561790466308594 0.3077699840068817 0.47246888279914856
0.13871610164642334 0.29652178287506104 0.540890634059906
0.2194145917892456 0.1982051283121109 0.4401700794696808
0.15407158434391022 0.18816247582435608 0.5267304182052612
0.1532563418149948 0.25612521171569824 0.5316453576087952
0.11246438324451447 0.2668929994106293 0.3977411389350891
0.1289244145154953 0.31018900871276855 0.5533291101455688
0.2023526281118393 0.14759944379329681 0.5890196561813354
0.1109444797039032 0.27566400170326233 0.41572949290275574
0.19585031270980835 0.18568316102027893 0.4800373315811157
0.2125798612833023 0.2822427451610565 0.4088610112667084
0.20561790466308594 0.3077699840068817 0.47246888279914856
0.13871610164642334 0.29652178287506104 0.540890634059906
0.2194145917892456 0.1982051283121109 0.4401700794696808
0.15407158434391022 0.18816247582435608 0.5267304182052612
0.1532563418149948 0.25612521171569824 0.5316453576087952
0.16318604350090027 0.2515651285648346 0.5210248827934265
0.25513410568237305 0.19345411658287048 0.5937272906303406
0.28077271580696106 0.24459153413772583 0.5307624340057373
0.19853800535202026 0.14631204307079315 0.4415552318096161
0.20464590191841125 0.2602740526199341 0.5223838686943054
0.14951761066913605 0.13477936387062073 0.5600970387458801
0.2477317452430725 0.2902468144893646 0.4612302780151367
0.11171530187129974 0.22924622893333435 0.4715752899646759
0.1575450450181961 0.269497811794281 0.5431369543075562
0.23641011118888855 0.32757821679115295 0.4608575999736786
0.15527692437171936 0.2469552904367447 0.44224491715431213
