ply
format ascii 1.0
element vertex 828
property float x
property float y
property float z
end_header
0.3934587240219116 0.19079706072807312 0.5194078087806702
0.4795292317867279 0.3248421847820282 0.48325449228286743
0.513691246509552 0.19220812618732452 0.585399329662323
0.4871317148208618 0.25521376729011536 0.578156054019928
0.39898934960365295 0.1817212998867035 0.5467249751091003
0.5258595943450928 0.3383290469646454 0.5152915716171265
0.3502645194530487 0.19765932857990265 0.4161222279071808
0.37502217292785645 0.17300543189048767 0.41301363706588745
0.4353468418121338 0.24182836711406708 0.4732227623462677
0.4023638367652893 0.34361347556114197 0.5262700915336609
0.3886483311653137 0.2609602212905884 0.5830518007278442
0.4233814477920532 0.30525317788124084 0.5053597092628479
0.3744424283504486 0.1987788826227188 0.431277871131897
0.5129293203353882 0.2772883474826813 0.4319663345813751
0.4839750826358795 0.19612480700016022 0.4692751467227936
0.379006028175354 0.23360595107078552 0.47004663944244385
0.4462912082672119 0.2352331429719925 0.5201408863067627
0.45909789204597473 0.36438247561454773 0.40289387106895447
0.47730752825737 0.19685116410255432 0.5662881135940552
0.5255686640739441 0.21065466105937958 0.4039728045463562
0.41500258445739746 0.19260551035404205 0.5884697437286377
0.3828733265399933 0.30239149928092957 0.5778360962867737
0.4533826410770416 0.21113990247249603 0.4409136176109314
0.5043385028839111 0.3521301746368408 0.4864782989025116
0.4175724983215332 0.22137688100337982 0.5473284125328064
0.4863898456096649 0.36916664242744446 0.46182456612586975
0.4259556233882904 0.2041129320859909 0.4495728611946106
0.48278820514678955 0.2084130495786667 0.5551193952560425
0.394960880279541 0.1812538057565689 0.5102899074554443
0.4411972165107727 0.2758619487285614 0.4128069579601288
0.5179827809333801 0.2674650251865387 0.5454515814781189
0.4570951461791992 0.22371426224708557 0.41605767607688904
0.5014416575431824 0.3572411835193634 0.5793942809104919
0.4548870325088501 0.25110605359077454 0.558766782283783
0.4421651065349579 0.3689117729663849 0.4797039330005646
0.5241935849189758 0.3676673173904419 0.5711190104484558
0.4233814477920532 0.30525317788124084 0.5053597092628479
0.3842262327671051 0.34410521388053894 0.56406170129776
0.5292254090309143 0.1917542964220047 0.46889111399650574
0.520453155040741 0.3611569106578827 0.44435176253318787
0.43630251288414 0.21795891225337982 0.4139028489589691
0.4797402322292328 0.18316417932510376 0.4886433482170105
0.35921746492385864 0.3642582893371582 0.5310341715812683
0.4317573606967926 0.2978353500366211 0.4932287335395813
0.3973068296909332 0.2724360525608063 0.4864163398742676
0.37793856859207153 0.26625627279281616 0.46837157011032104
0.5220099091529846 0.35749316215515137 0.4548693299293518
0.3621346056461334 0.18810199201107025 0.595577597618103
0.3670617640018463 0.3492080867290497 0.47830671072006226
0.516852080821991 0.30051496624946594 0.46475037932395935
0.5378738045692444 0.31211891770362854 0.5631341338157654
0.45832934975624084 0.30709508061408997 0.44033005833625793
0.4315996766090393 0.305193156003952 0.4679347574710846
0.463227778673172 0.2642323970794678 0.4343017637729645
0.52439284324646 0.22234690189361572 0.41346192359924316
0.35324057936668396 0.26149439811706543 0.5012408494949341
0.427538126707077 0.22945545613765717 0.44442218542099
0.36066165566444397 0.25559285283088684 0.47694817185401917
0.4898218512535095 0.28780198097229004 0.4750311076641083
0.5389489531517029 0.27729758620262146 0.553124725818634
0.5406267642974854 0.33895692229270935 0.5832818150520325
0.3813655376434326 0.2776765525341034 0.5877425670623779
0.37040677666664124 0.17818138003349304 0.5947420001029968
0.44167420268058777 0.29656872153282166 0.43070659041404724
0.4578090012073517 0.2228621542453766 0.5353003740310669
0.5302688479423523 0.29533302783966064 0.4462224245071411
0.5496049523353577 0.34997689723968506 0.5941705703735352
0.3977278769016266 0.35198473930358887 0.46704816818237305
0.42585861682891846 0.29225361347198486 0.5999345183372498
0.39964520931243896 0.28946271538734436 0.5992864966392517
0.4173305332660675 0.18111667037010193 0.5346063375473022
0.5306813716888428 0.18170574307441711 0.46192923188209534
0.5022515654563904 0.2830674648284912 0.4824824631214142
0.44760361313819885 0.31197601556777954 0.4956280589103699
0.46055173873901367 0.27292126417160034 0.5438902974128723
0.5446947813034058 0.271237313747406 0.5081981420516968
0.40217575430870056 0.20827825367450714 0.5365636944770813
0.5150759816169739 0.3715835511684418 0.5111900568008423
0.4352644383907318 0.23482739925384521 0.552600622177124
0.5499794483184814 0.28319796919822693 0.5104416012763977
0.5162084698677063 0.3555978536605835 0.4283669590950012
0.41939160227775574 0.3443417549133301 0.45789778232574463
0.49974751472473145 0.2840784788131714 0.5780338644981384
0.36747467517852783 0.33147743344306946 0.49385374784469604
0.4569486677646637 0.23527678847312927 0.43901485204696655
0.42018818855285645 0.3645269572734833 0.45480877161026
0.5383661985397339 0.34630441665649414 0.4923599064350128
0.5108630061149597 0.19795766472816467 0.5092648863792419
0.39898934960365295 0.1817212998867035 0.5467249751091003
0.5258595943450928 0.3383290469646454 0.5152915716171265
0.3502645194530487 0.19765932857990265 0.4161222279071808
0.37502217292785645 0.17300543189048767 0.41301363706588745
0.4353468418121338 0.24182836711406708 0.4732227623462677
0.4023638367652893 0.34361347556114197 0.5262700915336609
0.3886483311653137 0.2609602212905884 0.5830518007278442
0.4233814477920532 0.30525317788124084 0.5053597092628479
0.3744424283504486 0.1987788826227188 0.431277871131897
0.407992959022522 0.3323981463909149 0.5079697370529175
0.38062986731529236 0.3410293161869049 0.5240360498428345
0.4325474202632904 0.34123027324676514 0.47087815403938293
0.5499794483184814 0.28319796919822693 0.5104416012763977
0.5162084698677063 0.3555978536605835 0.4283669590950012
0.4232468008995056 0.2576283812522888 0.4012198746204376
0.5407821536064148 0.30210167169570923 0.5208388566970825
0.5304209589958191 0.31200408935546875 0.5961533188819885
0.5349332690238953 0.3459470272064209 0.5766218304634094
0.5407821536064148 0.30210167169570923 0.5208388566970825
0.5304209589958191 0.31200408935546875 0.5961533188819885
0.3934587240219116 0.19079706072807312 0.5194078087806702
0.4460951089859009 0.19458317756652832 0.46910932660102844
0.42475810647010803 0.20600919425487518 0.4776085913181305
0.42475810647010803 0.20600919425487518 0.4776085913181305
0.5394607782363892 0.2122158408164978 0.4593959450721741
0.5338392853736877 0.3666703999042511 0.5278211236000061
0.49967554211616516 0.23121312260627747 0.47059446573257446
0.5367011427879333 0.3324725329875946 0.5513555407524109
0.43870097398757935 0.2971581518650055 0.5960209369659424
0.5005636811256409 0.36866623163223267 0.43110573291778564
0.4701838493347168 0.2652440071105957 0.41058507561683655
0.3818124234676361 0.3337423503398895 0.575340747833252
0.5292254090309143 0.1917542964220047 0.46889111399650574
0.5215610861778259 0.34448668360710144 0.42723244428634644
0.5317314863204956 0.2133319228887558 0.4557111859321594
0.5073832273483276 0.2947356104850769 0.4969521462917328
0.48575466871261597 0.3677259385585785 0.5643998384475708
0.4294898211956024 0.31876474618911743 0.5390655398368835
0.498391330242157 0.2155182659626007 0.47711196541786194
0.5029656887054443 0.18981514871120453 0.5413455367088318
0.4510928690433502 0.3551066815853119 0.5743284821510315
0.5086693167686462 0.3568280339241028 0.44040486216545105
0.5108877420425415 0.36060577630996704 0.5626517534255981
0.4325474202632904 0.34123027324676514 0.47087815403938293
0.5304209589958191 0.31200408935546875 0.5961533188819885
0.3934587240219116 0.19079706072807312 0.5194078087806702
0.4460951089859009 0.19458317756652832 0.46910932660102844
0.42475810647010803 0.20600919425487518 0.4776085913181305
0.5394607782363892 0.2122158408164978 0.4593959450721741
0.5338392853736877 0.3666703999042511 0.5278211236000061
0.38776272535324097 0.3263700604438782 0.5668753981590271
0.5367011427879333 0.3324725329875946 0.5513555407524109
0.43870097398757935 0.2971581518650055 0.5960209369659424
0.5005636811256409 0.36866623163223267 0.43110573291778564
0.49867284297943115 0.23594456911087036 0.43286484479904175
0.3818124234676361 0.3337423503398895 0.575340747833252
0.5292254090309143 0.1917542964220047 0.46889111399650574
0.5215610861778259 0.34448668360710144 0.42723244428634644
0.5317314863204956 0.2133319228887558 0.4557111859321594
0.5073832273483276 0.2947356104850769 0.4969521462917328
0.48575466871261597 0.3677259385585785 0.5643998384475708
0.48575466871261597 0.3677259385585785 0.5643998384475708
0.4294898211956024 0.31876474618911743 0.5390655398368835
0.498391330242157 0.2155182659626007 0.47711196541786194
0.5029656887054443 0.18981514871120453 0.5413455367088318
0.44592350721359253 0.2267242968082428 0.46195274591445923
0.5270904898643494 0.3443519175052643 0.5851341485977173
0.5116176605224609 0.35862085223197937 0.581842303276062
0.350906640291214 0.3009093403816223 0.4971409738063812
0.5263910293579102 0.3451460599899292 0.5969064831733704
0.38251179456710815 0.180306538939476 0.4432675540447235
0.5433135628700256 0.28199896216392517 0.5824204683303833
0.48346930742263794 0.21824875473976135 0.4151042103767395
0.48824724555015564 0.21050502359867096 0.44089725613594055
0.35309672355651855 0.21957170963287354 0.4167652428150177
0.4325474202632904 0.34123027324676514 0.47087815403938293
0.4457651972770691 0.28403791785240173 0.5262839198112488
0.39391496777534485 0.34958744049072266 0.4119892418384552
0.45705926418304443 0.3568824529647827 0.5251383781433105
0.5151113271713257 0.18878726661205292 0.5451443791389465
0.4630424976348877 0.17319545149803162 0.490662544965744
0.39638546109199524 0.34470465779304504 0.5148623585700989
0.4593929946422577 0.2610362470149994 0.5563948750495911
0.4299643039703369 0.32771894335746765 0.42140060663223267
0.4820341467857361 0.18067483603954315 0.5057483315467834
0.46093857288360596 0.3600544333457947 0.4491478502750397
0.4411068260669708 0.36384594440460205 0.5448044538497925
0.458169549703598 0.19959911704063416 0.5273777842521667
0.45810696482658386 0.20951759815216064 0.5282677412033081
0.4718792736530304 0.35405799746513367 0.5010207891464233
0.4440840482711792 0.327680379152298 0.48988938331604004
0.4941084086894989 0.29994043707847595 0.5420843362808228
0.37759023904800415 0.21529744565486908 0.4873645603656769
0.37687379121780396 0.29978930950164795 0.5008687973022461
0.4105736315250397 0.22982920706272125 0.5451131463050842
0.5129677057266235 0.33005714416503906 0.5129417777061462
0.5023341774940491 0.36789757013320923 0.479394793510437
0.42871496081352234 0.3575315773487091 0.5917340517044067
0.4237493574619293 0.33709290623664856 0.49534720182418823
0.5037338733673096 0.28255346417427063 0.5896663069725037
0.5125980973243713 0.20245982706546783 0.5744010210037231
0.3723061978816986 0.253368616104126 0.4765051603317261
0.3821122646331787 0.24681039154529572 0.5707507729530334
0.5145540237426758 0.19893217086791992 0.4013431668281555
0.480648398399353 0.32216185331344604 0.46614888310432434
0.42399170994758606 0.1914527714252472 0.41268986463546753
0.36731621623039246 0.2878856956958771 0.4445206820964813
0.5234732627868652 0.17714250087738037 0.5477551221847534
0.49218282103538513 0.35028284788131714 0.5264270901679993
0.3593630790710449 0.29102396965026855 0.5939935445785522
0.5292254090309143 0.1917542964220047 0.46889111399650574
0.5215610861778259 0.34448668360710144 0.42723244428634644
0.5317314863204956 0.2133319228887558 0.4557111859321594
0.5073832273483276 0.2947356104850769 0.4969521462917328
0.48575466871261597 0.3677259385585785 0.5643998384475708
0.4294898211956024 0.31876474618911743 0.5390655398368835
0.498391330242157 0.2155182659626007 0.47711196541786194
0.5029656887054443 0.18981514871120453 0.5413455367088318
0.44592350721359253 0.2267242968082428 0.46195274591445923
0.5270904898643494 0.3443519175052643 0.5851341485977173
0.5116176605224609 0.35862085223197937 0.581842303276062
0.350906640291214 0.3009093403816223 0.4971409738063812
0.5263910293579102 0.3451460599899292 0.5969064831733704
0.39691925048828125 0.22304877638816833 0.4273296594619751
0.4065774381160736 0.3615700900554657 0.58836430311203
0.39137691259384155 0.26919251680374146 0.4001190662384033
0.48824724555015564 0.21050502359867096 0.44089725613594055
0.458994597196579 0.180823415517807 0.44824162125587463
0.5224149227142334 0.2519001066684723 0.497233122587204
0.3762218654155731 0.27830418944358826 0.4161032438278198
0.5032483339309692 0.24860858917236328 0.4377707242965698
0.500514566898346 0.21984229981899261 0.490328848361969
0.4583337903022766 0.25280407071113586 0.5058018565177917
0.3623093068599701 0.3398890793323517 0.4314635992050171
0.3944973051548004 0.3723585307598114 0.48546314239501953
0.45110002160072327 0.28515908122062683 0.4217008650302887
0.44210100173950195 0.3153842091560364 0.541638970375061
0.4694660007953644 0.36814403533935547 0.41892626881599426
0.5050967931747437 0.20545412600040436 0.5910893678665161
0.3726431131362915 0.27586594223976135 0.5855635404586792
0.38815993070602417 0.3106485605239868 0.4214964807033539
0.48295095562934875 0.2063012421131134 0.5470190644264221
0.49005410075187683 0.24461238086223602 0.4839458167552948
0.4695420563220978 0.21461458504199982 0.5972005724906921
0.3587477505207062 0.29390910267829895 0.4217051565647125
0.5158271789550781 0.23040427267551422 0.4632325768470764
0.36018890142440796 0.19977045059204102 0.5459874272346497
0.42619532346725464 0.3344479203224182 0.4527754485607147
0.39468300342559814 0.2705692648887634 0.5734114050865173
0.5084220767021179 0.2484281063079834 0.5922709703445435
0.4630228877067566 0.25928622484207153 0.5693562030792236
0.5494238138198853 0.21682246029376984 0.5905227661132812
0.37484365701675415 0.21276967227458954 0.5044699311256409
0.49997785687446594 0.20399315655231476 0.4407666325569153
0.4418809711933136 0.24524661898612976 0.4273907244205475
0.45865127444267273 0.19937388598918915 0.5249031782150269
0.5045050978660583 0.32379186153411865 0.5049597024917603
0.5481151342391968 0.18443825840950012 0.5060845017433167
0.5116437077522278 0.3273502588272095 0.41838565468788147
0.512938916683197 0.2293250560760498 0.5566340088844299
0.5377212762832642 0.2266034483909607 0.5120907425880432
0.4721512794494629 0.24072016775608063 0.5506206154823303
0.4540669620037079 0.33952072262763977 0.42711976170539856
0.488335520029068 0.2857828140258789 0.4984738826751709
0.5079448819160461 0.3661428987979889 0.4687296450138092
0.4427682161331177 0.26699280738830566 0.47444915771484375
0.463918000459671 0.17911657691001892 0.5314214825630188
0.48526903986930847 0.23660489916801453 0.5461194515228271
0.46757057309150696 0.19807404279708862 0.4009406268596649
0.45161715149879456 0.3289012014865875 0.5092453956604004
0.4219508469104767 0.23923461139202118 0.4554253816604614
0.5499794483184814 0.28319796919822693 0.5104416012763977
0.43630251288414 0.21795891225337982 0.4139028489589691
0.3628832697868347 0.3271414041519165 0.4805847108364105
0.39733779430389404 0.35050395131111145 0.4077310562133789
0.40349307656288147 0.18564076721668243 0.590279221534729
0.3792359232902527 0.22905950248241425 0.5492401719093323
0.4920327663421631 0.34903764724731445 0.48914775252342224
0.5278621315956116 0.33366623520851135 0.5914164185523987
0.4133126437664032 0.21786485612392426 0.514701783657074
0.516852080821991 0.30051496624946594 0.46475037932395935
0.5378738045692444 0.31211891770362854 0.5631341338157654
0.45832934975624084 0.30709508061408997 0.44033005833625793
0.4315996766090393 0.305193156003952 0.4679347574710846
0.463227778673172 0.2642323970794678 0.4343017637729645
0.52439284324646 0.22234690189361572 0.41346192359924316
0.35324057936668396 0.26149439811706543 0.5012408494949341
0.427538126707077 0.22945545613765717 0.44442218542099
0.36066165566444397 0.25559285283088684 0.47694817185401917
0.4898218512535095 0.28780198097229004 0.4750311076641083
0.5389489531517029 0.27729758620262146 0.553124725818634
0.5406267642974854 0.33895692229270935 0.5832818150520325
0.3813655376434326 0.2776765525341034 0.5877425670623779
0.37040677666664124 0.17818138003349304 0.5947420001029968
0.47186875343322754 0.17561978101730347 0.5023950338363647
0.4962243437767029 0.3514702618122101 0.553317129611969
0.39839068055152893 0.19466474652290344 0.4957233667373657
0.45997676253318787 0.2632155120372772 0.48263806104660034
0.38407808542251587 0.27384108304977417 0.5540362000465393
0.4701874852180481 0.23006904125213623 0.5394092202186584
0.376670777797699 0.18895065784454346 0.5949422121047974
0.3907003104686737 0.31084856390953064 0.5842423439025879
0.48088008165359497 0.20987406373023987 0.5749245285987854
0.4232468008995056 0.2576283812522888 0.4012198746204376
0.4144221842288971 0.2933040261268616 0.5129064321517944
0.4705686867237091 0.24894346296787262 0.5566186308860779
0.4407721757888794 0.26342642307281494 0.5701413154602051
0.5134413242340088 0.2036076784133911 0.4728708863258362
0.49537354707717896 0.17879530787467957 0.4621732234954834
0.42060157656669617 0.30833134055137634 0.5641584396362305
0.42881444096565247 0.33547037839889526 0.5337127447128296
0.3718726933002472 0.2770424783229828 0.46728602051734924
0.4925559163093567 0.24221950769424438 0.5246294140815735
0.5074105858802795 0.32513657212257385 0.5215106010437012
0.38413572311401367 0.19257456064224243 0.430686891078949
0.5350974798202515 0.20743919909000397 0.4407077133655548
0.4098799228668213 0.278030127286911 0.5884368419647217
0.538754403591156 0.2835458815097809 0.4708239734172821
0.39825910329818726 0.19002637267112732 0.48473724722862244
0.43379783630371094 0.19853755831718445 0.4597474932670593
0.3526966869831085 0.2282286137342453 0.5293048620223999
0.3688589036464691 0.3143356144428253 0.5539248585700989
0.43726348876953125 0.26826414465904236 0.4382389783859253
0.5089283585548401 0.21457748115062714 0.5840198397636414
0.41608697175979614 0.3059220016002655 0.5401304364204407
0.433097779750824 0.28251492977142334 0.48796552419662476
0.39178231358528137 0.31670692563056946 0.5941023230552673
0.40929365158081055 0.3142039179801941 0.41535648703575134
0.4038425385951996 0.190318763256073 0.41771337389945984
0.38770097494125366 0.3450261950492859 0.44088420271873474
0.46389660239219666 0.25215810537338257 0.5962383151054382
0.496514230966568 0.2503393888473511 0.4697452187538147
0.5216842293739319 0.2026595175266266 0.47601231932640076
0.3581598401069641 0.17297467589378357 0.5046476125717163
0.4679248332977295 0.3229970633983612 0.5193977952003479
0.3502645194530487 0.19765932857990265 0.4161222279071808
0.4294898211956024 0.31876474618911743 0.5390655398368835
0.498391330242157 0.2155182659626007 0.47711196541786194
0.5029656887054443 0.18981514871120453 0.5413455367088318
0.44592350721359253 0.2267242968082428 0.46195274591445923
0.5270904898643494 0.3443519175052643 0.5851341485977173
0.5116176605224609 0.35862085223197937 0.581842303276062
0.4863898456096649 0.36916664242744446 0.46182456612586975
0.5157613158226013 0.3528832197189331 0.47541823983192444
0.48178738355636597 0.33702462911605835 0.5597718358039856
0.4553855359554291 0.3399578928947449 0.5446160435676575
0.45969158411026 0.19988903403282166 0.42444995045661926
0.42047664523124695 0.35916683077812195 0.5163707137107849
0.3502999544143677 0.20830978453159332 0.47789913415908813
0.40217384696006775 0.2722967267036438 0.5351821184158325
0.3615465760231018 0.18501697480678558 0.5227470993995667
0.44054773449897766 0.3269369304180145 0.49310335516929626
0.3754611611366272 0.2676430344581604 0.4007982313632965
0.39245104789733887 0.18378619849681854 0.5150296092033386
0.5132002830505371 0.363866925239563 0.4973118305206299
0.3779270350933075 0.2548144459724426 0.5802183151245117
0.5260174870491028 0.21765035390853882 0.4090178906917572
0.45218926668167114 0.20487456023693085 0.5106107592582703
0.5499663949012756 0.191349595785141 0.5922651886940002
0.5258772373199463 0.33057481050491333 0.40182989835739136
0.48975202441215515 0.22573821246623993 0.4661964178085327
0.5437377095222473 0.3179228901863098 0.5489102602005005
0.3571070432662964 0.18777011334896088 0.4175029695034027
0.41114866733551025 0.20606042444705963 0.4288400411605835
0.4566439986228943 0.279744416475296 0.561926007270813
0.47286272048950195 0.18816417455673218 0.5271287560462952
0.41636040806770325 0.2938905358314514 0.5460569262504578
0.49218282103538513 0.35028284788131714 0.5264270901679993
0.41675135493278503 0.17297688126564026 0.5414286255836487
0.47099706530570984 0.1884489804506302 0.5534623861312866
0.4664784073829651 0.3399147689342499 0.5041288137435913
0.4293760359287262 0.21630026400089264 0.492816686630249
0.4992710053920746 0.17829033732414246 0.5911408066749573
0.5405287146568298 0.3114449083805084 0.555118978023529
0.4814923107624054 0.24529419839382172 0.542443037033081
0.35623177886009216 0.34534740447998047 0.5947414636611938
0.5192211270332336 0.2792681157588959 0.5527786016464233
0.40507805347442627 0.23779307305812836 0.42536506056785583
0.46605008840560913 0.34064385294914246 0.5665773749351501
0.4079166054725647 0.3131936192512512 0.5714138746261597
0.5311423540115356 0.30461058020591736 0.5135340690612793
0.3736579716205597 0.1899190992116928 0.4235338568687439
0.3654527962207794 0.3157629072666168 0.43302908539772034
0.4324696660041809 0.24749889969825745 0.5073555111885071
0.4563904106616974 0.29485344886779785 0.5980024933815002
0.3966582417488098 0.3253653645515442 0.59906405210495
0.4617450535297394 0.1928531676530838 0.4779835045337677
0.49059438705444336 0.2919735014438629 0.46289440989494324
0.5249987244606018 0.3499411642551422 0.4048924744129181
0.41352203488349915 0.3563321828842163 0.4242609143257141
0.506781280040741 0.31477925181388855 0.4536283612251282
0.4461594223976135 0.33311355113983154 0.5300242304801941
0.5472202301025391 0.19932051002979279 0.40114840865135193
0.37885263562202454 0.3564731478691101 0.5363003015518188
0.45864638686180115 0.2988894581794739 0.5682870745658875
0.4731764495372772 0.2971610128879547 0.40358251333236694
0.4677256941795349 0.23793646693229675 0.5066101551055908
0.37524062395095825 0.330684095621109 0.5598345994949341
0.5319826602935791 0.27713313698768616 0.4347401559352875
0.5433205962181091 0.21534205973148346 0.5577554702758789
0.4027029275894165 0.3249508738517761 0.5561419725418091
0.5378943085670471 0.20367610454559326 0.5797353386878967
0.5215017199516296 0.2815265953540802 0.5784942507743835
0.39376428723335266 0.36317169666290283 0.5285874605178833
0.45895838737487793 0.17542681097984314 0.5202558636665344
0.5188508629798889 0.370128333568573 0.5708821415901184
0.481092244386673 0.27839404344558716 0.4377918541431427
0.4894659221172333 0.2634173333644867 0.5282108783721924
0.43167728185653687 0.3280104696750641 0.5296970009803772
0.527656078338623 0.3440146744251251 0.5409589409828186
0.39208680391311646 0.30766111612319946 0.5198846459388733
0.4984080493450165 0.25117117166519165 0.5544036626815796
0.5494024753570557 0.3554750382900238 0.5757383704185486
0.38407808542251587 0.27384108304977417 0.5540362000465393
0.4701874852180481 0.23006904125213623 0.5394092202186584
0.376670777797699 0.18895065784454346 0.5949422121047974
0.3907003104686737 0.31084856390953064 0.5842423439025879
0.36645978689193726 0.2954925000667572 0.5703345537185669
0.4888846278190613 0.21558794379234314 0.4552823305130005
0.47592905163764954 0.1749393492937088 0.48806896805763245
0.3725200295448303 0.35820040106773376 0.5567739009857178
0.4311274290084839 0.2511940598487854 0.5208393335342407
0.5260748267173767 0.3332560360431671 0.46360117197036743
0.42280828952789307 0.2949722707271576 0.5497811436653137
0.5209213495254517 0.18240825831890106 0.5484773516654968
0.5036330223083496 0.2748928368091583 0.4997957646846771
0.503962516784668 0.21124182641506195 0.42794811725616455
0.4910255968570709 0.19302473962306976 0.45621922612190247
0.3927340805530548 0.2537485659122467 0.4646416902542114
0.4968632459640503 0.18943104147911072 0.5128549933433533
0.5382823348045349 0.3467554450035095 0.5354999303817749
0.45895838737487793 0.17542681097984314 0.5202558636665344
0.5188508629798889 0.370128333568573 0.5708821415901184
0.481092244386673 0.27839404344558716 0.4377918541431427
0.4894659221172333 0.2634173333644867 0.5282108783721924
0.43167728185653687 0.3280104696750641 0.5296970009803772
0.527656078338623 0.3440146744251251 0.5409589409828186
0.39208680391311646 0.30766111612319946 0.5198846459388733
0.525898814201355 0.21665263175964355 0.5198925733566284
0.38407808542251587 0.27384108304977417 0.5540362000465393
0.4701874852180481 0.23006904125213623 0.5394092202186584
0.376670777797699 0.18895065784454346 0.5949422121047974
0.3907003104686737 0.31084856390953064 0.5842423439025879
0.48088008165359497 0.20987406373023987 0.5749245285987854
0.4535621106624603 0.21191494166851044 0.4900200664997101
0.4756799638271332 0.24497149884700775 0.5083370804786682
0.38221511244773865 0.2676260769367218 0.49040472507476807
0.4207463562488556 0.24287383258342743 0.5312198996543884
0.5260748267173767 0.3332560360431671 0.46360117197036743
0.42280828952789307 0.2949722707271576 0.5497811436653137
0.5209213495254517 0.18240825831890106 0.5484773516654968
0.5036330223083496 0.2748928368091583 0.4997957646846771
0.503962516784668 0.21124182641506195 0.42794811725616455
0.4910255968570709 0.19302473962306976 0.45621922612190247
0.40095874667167664 0.18525856733322144 0.42909231781959534
0.49682295322418213 0.33148083090782166 0.5125157833099365
0.4922010898590088 0.1858012080192566 0.44509413838386536
0.39055249094963074 0.2519807815551758 0.4659995138645172
0.4330917000770569 0.19419273734092712 0.5462124943733215
0.4216921031475067 0.348791241645813 0.5224038362503052
0.4775819182395935 0.17299491167068481 0.5055171847343445
0.4290311932563782 0.3641764521598816 0.5711703896522522
0.35387668013572693 0.17734843492507935 0.45282113552093506
0.45221757888793945 0.3672116696834564 0.5997312068939209
0.463918000459671 0.17911657691001892 0.5314214825630188
0.48526903986930847 0.23660489916801453 0.5461194515228271
0.46757057309150696 0.19807404279708862 0.4009406268596649
0.45161715149879456 0.3289012014865875 0.5092453956604004
0.4219508469104767 0.23923461139202118 0.4554253816604614
0.4494783878326416 0.35540059208869934 0.5635096430778503
0.3556201159954071 0.3363993167877197 0.578887403011322
0.3871981203556061 0.2576673626899719 0.5589741468429565
0.5052115321159363 0.1776627004146576 0.5496721267700195
0.4639977216720581 0.2938442826271057 0.41558054089546204
0.47107434272766113 0.23763087391853333 0.547971248626709
0.38059452176094055 0.2669716477394104 0.43736332654953003
0.47769516706466675 0.3241715431213379 0.45514777302742004
0.548774778842926 0.3675568997859955 0.4957329034805298
0.46690014004707336 0.20100010931491852 0.4410657286643982
0.373198926448822 0.28024306893348694 0.4901593327522278
0.5356313586235046 0.26801300048828125 0.563285231590271
0.4701692461967468 0.3066214323043823 0.47399139404296875
0.45075610280036926 0.2874376177787781 0.5196474194526672
0.4369729161262512 0.2383037656545639 0.5989192724227905
0.4170796275138855 0.30326181650161743 0.5188241004943848
0.45842719078063965 0.1752108335494995 0.5080721974372864
0.5160641670227051 0.2478068768978119 0.5205788016319275
0.45276767015457153 0.20007485151290894 0.4593507945537567
0.4340653419494629 0.3114679753780365 0.4207681715488434
0.46238887310028076 0.20385479927062988 0.4899822175502777
0.5084701180458069 0.2887645959854126 0.582798421382904
0.540946900844574 0.2836591899394989 0.4094158709049225
0.3963964283466339 0.3100121319293976 0.5150964260101318
0.5426619648933411 0.32349902391433716 0.4526744782924652
0.4087957441806793 0.2357511818408966 0.47746893763542175
0.3526966869831085 0.2282286137342453 0.5293048620223999
0.5216842293739319 0.2026595175266266 0.47601231932640076
0.3581598401069641 0.17297467589378357 0.5046476125717163
0.4679248332977295 0.3229970633983612 0.5193977952003479
0.46862488985061646 0.2872823178768158 0.40877583622932434
0.39991047978401184 0.18699271976947784 0.5389894247055054
0.429852694272995 0.21112637221813202 0.49100831151008606
0.5012378692626953 0.25272250175476074 0.5249207019805908
0.354684442281723 0.24906909465789795 0.49568819999694824
0.516555666923523 0.20683518052101135 0.5094543099403381
0.3849566876888275 0.3005545735359192 0.5776462554931641
0.48492273688316345 0.2642778158187866 0.41193854808807373
0.5100882649421692 0.36780762672424316 0.4179208278656006
0.4189983606338501 0.24180838465690613 0.571500301361084
0.5219494104385376 0.1892174482345581 0.5726048946380615
0.3872421383857727 0.32760295271873474 0.53819739818573
0.42903947830200195 0.26389122009277344 0.5133154988288879
0.3679523169994354 0.2100965827703476 0.4624537229537964
0.4551098346710205 0.25736045837402344 0.5628877282142639
0.3511549234390259 0.3412131369113922 0.4551642835140228
0.42583534121513367 0.3575061857700348 0.502511203289032
0.35387668013572693 0.17734843492507935 0.45282113552093506
0.4440223276615143 0.3679090440273285 0.4840695559978485
0.42639249563217163 0.30983683466911316 0.48591938614845276
0.501131534576416 0.29186582565307617 0.5310072898864746
0.35338136553764343 0.23660729825496674 0.503612756729126
0.47889983654022217 0.18008659780025482 0.4942821264266968
0.3521539568901062 0.1973818689584732 0.5580830574035645
0.5050725340843201 0.31470170617103577 0.48349833488464355
0.3869149386882782 0.1906898468732834 0.5131842494010925
0.5452862977981567 0.2769533693790436 0.5446385741233826
0.5060654282569885 0.28480616211891174 0.45512908697128296
0.512938916683197 0.2293250560760498 0.5566340088844299
0.463918000459671 0.17911657691001892 0.5314214825630188
0.48526903986930847 0.23660489916801453 0.5461194515228271
0.46757057309150696 0.19807404279708862 0.4009406268596649
0.45161715149879456 0.3289012014865875 0.5092453956604004
0.4219508469104767 0.23923461139202118 0.4554253816604614
0.4494783878326416 0.35540059208869934 0.5635096430778503
0.3556201159954071 0.3363993167877197 0.578887403011322
0.36875614523887634 0.3401809334754944 0.5917676091194153
0.46286168694496155 0.21661429107189178 0.5910650491714478
0.53815096616745 0.3290371298789978 0.5320080518722534
0.3941420912742615 0.1765649914741516 0.48205646872520447
0.3662700951099396 0.2393873631954193 0.5526149272918701
0.511516809463501 0.2713527977466583 0.4657535254955292
0.4145178198814392 0.26052093505859375 0.4498478174209595
0.39329999685287476 0.2376669943332672 0.4956512749195099
0.43770864605903625 0.20691156387329102 0.4322383403778076
0.37846577167510986 0.25299692153930664 0.42396730184555054
0.3577522933483124 0.23774215579032898 0.5908989906311035
0.45473575592041016 0.35595953464508057 0.5251786708831787
0.473869651556015 0.2536039650440216 0.46953245997428894
0.3569316864013672 0.3610348701477051 0.4284314513206482
0.44894009828567505 0.2212003469467163 0.525132954120636
0.3912786543369293 0.25725969672203064 0.5479729771614075
0.4145624041557312 0.3364057242870331 0.495341032743454
0.545457661151886 0.2401512861251831 0.4126589298248291
0.37731778621673584 0.31983545422554016 0.5515265464782715
0.44627341628074646 0.37219831347465515 0.4334619641304016
0.42017924785614014 0.35610777139663696 0.5649365782737732
0.5049262046813965 0.35871341824531555 0.40034568309783936
0.534135639667511 0.34795400500297546 0.4113244414329529
0.3789862394332886 0.20297600328922272 0.41857296228408813
0.488335520029068 0.2857828140258789 0.4984738826751709
0.5079448819160461 0.3661428987979889 0.4687296450138092
0.4427682161331177 0.26699280738830566 0.47444915771484375
0.463918000459671 0.17911657691001892 0.5314214825630188
0.48526903986930847 0.23660489916801453 0.5461194515228271
0.46757057309150696 0.19807404279708862 0.4009406268596649
0.45161715149879456 0.3289012014865875 0.5092453956604004
0.4219508469104767 0.23923461139202118 0.4554253816604614
0.4494783878326416 0.35540059208869934 0.5635096430778503
0.49954378604888916 0.36962053179740906 0.48284459114074707
0.4311644732952118 0.2596447169780731 0.4237704575061798
0.5454323887825012 0.2673078179359436 0.5344370603561401
0.5293131470680237 0.21212206780910492 0.563491940498352
0.5209265947341919 0.33839571475982666 0.5842843055725098
0.5004035830497742 0.2903384268283844 0.5477200150489807
0.36850982904434204 0.36634644865989685 0.5889906287193298
0.5311142206192017 0.21660321950912476 0.4174451529979706
0.39613351225852966 0.3050587475299835 0.4851931631565094
0.4979216158390045 0.3435521423816681 0.42401981353759766
0.36541932821273804 0.2302856594324112 0.5527120232582092
0.3688070476055145 0.36497852206230164 0.5984870195388794
0.45302700996398926 0.22513443231582642 0.5722677111625671
0.3548896908760071 0.2676706314086914 0.5702998042106628
0.5424696803092957 0.3582463264465332 0.4602222442626953
0.40810060501098633 0.35097700357437134 0.5322059988975525
0.46924641728401184 0.25673407316207886 0.4310271441936493
0.43099841475486755 0.35905659198760986 0.4123147428035736
0.47441452741622925 0.3195628523826599 0.5496339797973633
0.4405886232852936 0.3537920117378235 0.469241201877594
0.4814949929714203 0.24115367233753204 0.43425723910331726
0.4660429358482361 0.2261597067117691 0.5792258381843567
0.3504345417022705 0.30423134565353394 0.5281708240509033
0.38407808542251587 0.27384108304977417 0.5540362000465393
0.3927340805530548 0.2537485659122467 0.4646416902542114
0.5094018578529358 0.24958375096321106 0.5808746814727783
0.41880545020103455 0.30495119094848633 0.40320301055908203
0.5016201138496399 0.18801669776439667 0.4690172076225281
0.4707338213920593 0.18702183663845062 0.5741483569145203
0.4216921031475067 0.348791241645813 0.5224038362503052
0.44061657786369324 0.27451735734939575 0.43233972787857056
0.5119789242744446 0.2441144585609436 0.4996317923069
0.4375462830066681 0.19881358742713928 0.4341636598110199
0.4365338385105133 0.28600165247917175 0.5702597498893738
0.5383732318878174 0.27685457468032837 0.4319133162498474
0.4560092091560364 0.2786601483821869 0.4518624544143677
0.47523263096809387 0.2986705005168915 0.41374149918556213
0.4026288688182831 0.27662360668182373 0.5884974598884583
0.4152516722679138 0.3488689959049225 0.5443352460861206
0.446974515914917 0.33662229776382446 0.4480604827404022
0.47795262932777405 0.19983351230621338 0.4563753008842468
0.4484747648239136 0.3709578216075897 0.4275669455528259
0.35183626413345337 0.20219184458255768 0.5564688444137573
0.3922218978404999 0.2084166258573532 0.41943639516830444
0.5032592415809631 0.26117804646492004 0.48037177324295044
0.418676495552063 0.33086442947387695 0.5307531356811523
0.5029757022857666 0.31270262598991394 0.5328195095062256
0.5406765341758728 0.312574565410614 0.5315931439399719
0.37343743443489075 0.252101331949234 0.561033308506012
0.5314278602600098 0.3609413802623749 0.4311695694923401
0.36474186182022095 0.3098203241825104 0.45917564630508423
0.49268630146980286 0.22468729317188263 0.4645211696624756
0.5321464538574219 0.2428540140390396 0.47727465629577637
0.5198091864585876 0.2551020681858063 0.4645247757434845
0.44908449053764343 0.2646292746067047 0.5315732955932617
0.5472202301025391 0.19932051002979279 0.40114840865135193
0.4628332555294037 0.20568254590034485 0.46834316849708557
0.4317076504230499 0.2922053933143616 0.4594411849975586
0.5472317337989807 0.22174324095249176 0.45995354652404785
0.4832148849964142 0.339453786611557 0.5854906439781189
0.42342841625213623 0.3125339448451996 0.4371929466724396
0.4208613932132721 0.34389445185661316 0.5115529894828796
0.4399040639400482 0.2372245341539383 0.5505675077438354
0.37024250626564026 0.36446091532707214 0.45473524928092957
0.41218167543411255 0.36813679337501526 0.43140149116516113
0.4006381630897522 0.24084149301052094 0.5473753809928894
0.4921788275241852 0.2534748315811157 0.5092142820358276
0.38576582074165344 0.2685931622982025 0.4605165421962738
0.4725003242492676 0.27915769815444946 0.44758161902427673
0.5245628356933594 0.20192506909370422 0.5844855904579163
0.5343021154403687 0.1906208097934723 0.4799695611000061
0.3922218978404999 0.2084166258573532 0.41943639516830444
0.5032592415809631 0.26117804646492004 0.48037177324295044
0.418676495552063 0.33086442947387695 0.5307531356811523
0.5029757022857666 0.31270262598991394 0.5328195095062256
0.37343743443489075 0.252101331949234 0.561033308506012
0.5314278602600098 0.3609413802623749 0.4311695694923401
0.36474186182022095 0.3098203241825104 0.45917564630508423
0.49268630146980286 0.22468729317188263 0.4645211696624756
0.5321464538574219 0.2428540140390396 0.47727465629577637
0.46034348011016846 0.22696249186992645 0.47165021300315857
0.4437044858932495 0.19717878103256226 0.5414987206459045
0.4200451076030731 0.318503737449646 0.4897780120372772
0.3530193567276001 0.2552812099456787 0.523175835609436
0.498870313167572 0.2351209968328476 0.4763472080230713
0.48656848073005676 0.26014503836631775 0.4881775379180908
0.5006237030029297 0.19755291938781738 0.5549604296684265
0.515168309211731 0.17731069028377533 0.4378916323184967
0.4620078206062317 0.2575690746307373 0.40355998277664185
0.5285993218421936 0.2972978353500366 0.4352527856826782
0.4229602515697479 0.24756576120853424 0.4650469124317169
0.4541422128677368 0.32658252120018005 0.4637552797794342
0.36747363209724426 0.36339840292930603 0.4441218674182892
0.4808330237865448 0.3691234886646271 0.4146454632282257
0.42062944173812866 0.18199390172958374 0.5984786152839661
0.4322151839733124 0.31616097688674927 0.5635251998901367
0.5423912405967712 0.2273663878440857 0.5852322578430176
0.4879452586174011 0.3136705458164215 0.40216976404190063
0.42246609926223755 0.26625150442123413 0.5919354557991028
0.5198553204536438 0.28846272826194763 0.4706922769546509
0.5071750283241272 0.22546358406543732 0.5004773736000061
0.39423811435699463 0.2907225787639618 0.5071651339530945
0.5333331227302551 0.20436173677444458 0.4242410361766815
0.543505847454071 0.18416665494441986 0.5113239288330078
0.5293754935264587 0.34442007541656494 0.5937170386314392
0.4775956869125366 0.25670450925827026 0.583884596824646
0.5432307720184326 0.3435066044330597 0.5432246923446655
0.4785845875740051 0.3039941191673279 0.5663042664527893
0.47712329030036926 0.321138471364975 0.4803919494152069
0.4076535105705261 0.20844563841819763 0.5689607858657837
0.46233758330345154 0.2345011979341507 0.5416795611381531
0.43744710087776184 0.31019139289855957 0.5919484496116638
0.4516429305076599 0.2968916594982147 0.5857606530189514
0.46076738834381104 0.345535010099411 0.5810784697532654
0.3938004672527313 0.3525400757789612 0.5170534253120422
0.5454323887825012 0.2673078179359436 0.5344370603561401
0.5293131470680237 0.21212206780910492 0.563491940498352
0.5209265947341919 0.33839571475982666 0.5842843055725098
0.5004035830497742 0.2903384268283844 0.5477200150489807
0.3556201159954071 0.3363993167877197 0.578887403011322
0.44808557629585266 0.20980243384838104 0.4339139461517334
0.3882371187210083 0.2036450356245041 0.5879746675491333
0.49535247683525085 0.22573982179164886 0.4654671251773834
0.35141369700431824 0.35451990365982056 0.5138263702392578
0.48699691891670227 0.30393218994140625 0.4940415024757385
0.41212043166160583 0.22059887647628784 0.5192026495933533
0.37236306071281433 0.2501138150691986 0.589940071105957
0.5479557514190674 0.19605067372322083 0.49214786291122437
0.44565245509147644 0.22112822532653809 0.554546594619751
0.38640475273132324 0.20614702999591827 0.4141024947166443
0.48555827140808105 0.2688550651073456 0.5245122313499451
0.3722347021102905 0.306852787733078 0.4236045479774475
0.4504002034664154 0.22151799499988556 0.5380090475082397
0.35067471861839294 0.29249200224876404 0.5051619410514832
0.3642408847808838 0.36241862177848816 0.4388554096221924
0.4178636968135834 0.2541658580303192 0.47720885276794434
0.38704001903533936 0.28902995586395264 0.520651638507843
0.42860957980155945 0.18278387188911438 0.5367437601089478
0.4070475995540619 0.184677854180336 0.4812805950641632
0.5028175115585327 0.36244040727615356 0.444540411233902
0.39630457758903503 0.33243328332901 0.5822346210479736
0.4759133756160736 0.33468887209892273 0.4712900221347809
0.40139782428741455 0.27950987219810486 0.4518486559391022
0.5335193872451782 0.34874796867370605 0.5500354766845703
0.43139201402664185 0.1940165013074875 0.5447883605957031
0.5430986881256104 0.18304204940795898 0.4996638298034668
0.4835490584373474 0.3278805911540985 0.484877347946167
0.4716663360595703 0.306576669216156 0.42727187275886536
0.4138307273387909 0.20414504408836365 0.47858113050460815
0.4465334713459015 0.35977765917778015 0.582533061504364
0.3927541971206665 0.21172858774662018 0.5307489037513733
0.3556201159954071 0.3363993167877197 0.578887403011322
0.44624754786491394 0.20096667110919952 0.5750471353530884
0.3870856761932373 0.3250761330127716 0.5425869226455688
0.366809219121933 0.2952885925769806 0.47674039006233215
0.5482465624809265 0.3723442852497101 0.4957183003425598
0.50832200050354 0.19126226007938385 0.4288314878940582
0.44025999307632446 0.23815889656543732 0.5047198534011841
0.3815082609653473 0.19148114323616028 0.5842637419700623
0.39697685837745667 0.1738210916519165 0.5082655549049377
0.36834242939949036 0.30646824836730957 0.5677962899208069
0.5100352764129639 0.1816028505563736 0.5912941098213196
0.43040966987609863 0.27302902936935425 0.5381881594657898
0.4401671886444092 0.26127204298973083 0.47792527079582214
0.5194379687309265 0.35239535570144653 0.5655168294906616
0.40169796347618103 0.3635844588279724 0.5009020566940308
0.44411584734916687 0.2206726223230362 0.4073210656642914
0.48952731490135193 0.17927436530590057 0.4419425427913666
0.39781978726387024 0.3611266314983368 0.5386186838150024
0.41263338923454285 0.2197759747505188 0.5441271066665649
0.47626829147338867 0.27492088079452515 0.5226693749427795
0.5350844860076904 0.3156359791755676 0.5620930194854736
0.4379921555519104 0.33767879009246826 0.4687142074108124
0.4473564326763153 0.3653479218482971 0.5002889037132263
0.4193089008331299 0.32665595412254333 0.4382936358451843
0.40604639053344727 0.32124075293540955 0.4033944308757782
0.39439621567726135 0.3081914484500885 0.5231754183769226
0.38127925992012024 0.2744087874889374 0.4637843072414398
0.4713447093963623 0.3632599711418152 0.42618805170059204
0.4160754382610321 0.26912689208984375 0.5404089093208313
0.40801700949668884 0.275370717048645 0.4882620871067047
0.3591170012950897 0.2392159402370453 0.4663877487182617
0.5319980978965759 0.3196488618850708 0.42678725719451904
0.4540720582008362 0.3368990421295166 0.5183179378509521
0.40801700949668884 0.275370717048645 0.4882620871067047
0.3591170012950897 0.2392159402370453 0.4663877487182617
0.5319980978965759 0.3196488618850708 0.42678725719451904
0.4712471067905426 0.21124012768268585 0.5540605783462524
0.36246344447135925 0.3512580692768097 0.48448824882507324
0.5090453624725342 0.27877190709114075 0.4839460253715515
0.37433508038520813 0.22997844219207764 0.5917360782623291
0.3543519973754883 0.2435476928949356 0.5362774133682251
0.36115801334381104 0.2952393591403961 0.5715711712837219
0.3609508275985718 0.23150113224983215 0.5234745144844055
0.47791099548339844 0.2949245572090149 0.4424508512020111
0.5409101247787476 0.2774960398674011 0.5396659970283508
0.38385409116744995 0.17295271158218384 0.469867080450058
0.5192137360572815 0.31237170100212097 0.57123863697052
0.3881966471672058 0.20944330096244812 0.4703309237957001
0.35778385400772095 0.2608931362628937 0.4897463917732239
0.4337054193019867 0.34003815054893494 0.4529731869697571
0.38794878125190735 0.238644540309906 0.43759867548942566
0.37948131561279297 0.2803385257720947 0.4334278404712677
0.5275231599807739 0.21292227506637573 0.4173460602760315
0.5219146013259888 0.2890624403953552 0.5856051445007324
0.390429824590683 0.32240793108940125 0.5543412566184998
0.4911583960056305 0.2598855197429657 0.4105067849159241
0.40010517835617065 0.2776199281215668 0.49450090527534485
0.5358790755271912 0.3208691477775574 0.45426538586616516
0.4646792411804199 0.17968551814556122 0.5479177832603455
0.42151811718940735 0.36692410707473755 0.48215627670288086
0.4507285952568054 0.324239045381546 0.44310837984085083
0.4408128559589386 0.2776761054992676 0.536461353302002
0.5452449917793274 0.2532201409339905 0.5631916522979736
0.3698769807815552 0.3197944462299347 0.5930438041687012
0.39055249094963074 0.2519807815551758 0.4659995138645172
0.5260003209114075 0.25047698616981506 0.47397521138191223
0.40383678674697876 0.2864626348018646 0.533802330493927
0.4375433623790741 0.26250943541526794 0.5754985809326172
0.4365117847919464 0.2576434016227722 0.5023335218429565
0.44419145584106445 0.36530426144599915 0.5444973111152649
0.5200170874595642 0.34042203426361084 0.45378974080085754
0.36969903111457825 0.3531723618507385 0.4943603277206421
0.46500131487846375 0.3400653004646301 0.5898194909095764
0.48947378993034363 0.28630852699279785 0.56569504737854
0.5100721716880798 0.23443354666233063 0.5248067378997803
0.5389273166656494 0.20450884103775024 0.4946228861808777
0.36881545186042786 0.29170501232147217 0.4451468586921692
0.49173927307128906 0.18120421469211578 0.526343047618866
0.5164244174957275 0.25891217589378357 0.4535706639289856
0.427184522151947 0.29631224274635315 0.4504954218864441
0.4678729474544525 0.3074808120727539 0.5674922466278076
0.4703238606452942 0.178836852312088 0.5159847140312195
0.4282214939594269 0.17688845098018646 0.42326414585113525
0.35366538166999817 0.24226167798042297 0.5219824910163879
0.38389134407043457 0.29826152324676514 0.5976047515869141
0.44495484232902527 0.22383823990821838 0.553352952003479
0.4050581157207489 0.2528863549232483 0.58603835105896
0.432315856218338 0.3720965087413788 0.4747164249420166
0.49248722195625305 0.2503315806388855 0.48243969678878784
0.5211007595062256 0.2534501552581787 0.428737074136734
0.44793951511383057 0.2977190911769867 0.459376722574234
0.3861900568008423 0.3102385699748993 0.49707335233688354
0.38856449723243713 0.291238397359848 0.450484961271286
0.3925432562828064 0.3420153856277466 0.5864947438240051
0.4228769540786743 0.18256781995296478 0.5127542018890381
0.4671577215194702 0.3106926381587982 0.5947533845901489
0.4170796275138855 0.30326181650161743 0.5188241004943848
0.49301859736442566 0.24585790932178497 0.5584213137626648
0.49417999386787415 0.2660217583179474 0.4269132912158966
0.5230089426040649 0.17783388495445251 0.5903680920600891
0.4423004984855652 0.29417160153388977 0.4769321084022522
0.38032734394073486 0.2625606954097748 0.5516266226768494
0.4309454560279846 0.3394240140914917 0.4663877785205841
0.39889177680015564 0.2877652943134308 0.44762396812438965
0.5143685936927795 0.23237097263336182 0.5962401628494263
0.4253956079483032 0.3136805593967438 0.5655790567398071
0.40291836857795715 0.20377610623836517 0.44794994592666626
0.44808557629585266 0.20980243384838104 0.4339139461517334
0.3882371187210083 0.2036450356245041 0.5879746675491333
0.49535247683525085 0.22573982179164886 0.4654671251773834
0.35141369700431824 0.35451990365982056 0.5138263702392578
0.48699691891670227 0.30393218994140625 0.4940415024757385
0.5471240878105164 0.2840534448623657 0.43380746245384216
0.48694175481796265 0.32670971751213074 0.4503733217716217
0.42148926854133606 0.3086540102958679 0.4503387212753296
0.5010786056518555 0.2920938730239868 0.4922703802585602
0.40559515357017517 0.28172385692596436 0.5341012477874756
0.3531416952610016 0.18014715611934662 0.5970900654792786
0.48555827140808105 0.2688550651073456 0.5245122313499451
0.3722347021102905 0.306852787733078 0.4236045479774475
0.4504002034664154 0.22151799499988556 0.5380090475082397
