ply
format ascii 1.0
element vertex 831
property float x
property float y
property float z
end_header
0.796039342880249 0.28746455907821655 0.5207758545875549
0.6469542980194092 0.34967148303985596 0.46830612421035767
0.7179988026618958 0.22953294217586517 0.5488343238830566
0.714065432548523 0.3109506070613861 0.558146595954895
0.6252347826957703 0.40856990218162537 0.4693284332752228
0.7927510738372803 0.33271291851997375 0.5667139887809753
0.7874566316604614 0.29018068313598633 0.537601113319397
0.6405288577079773 0.3452220857143402 0.6086236834526062
0.6775166988372803 0.33874091506004333 0.5672950744628906
0.6273157000541687 0.20834456384181976 0.5501753687858582
0.7315975427627563 0.40265515446662903 0.412255197763443
0.702318549156189 0.20362727344036102 0.5691779851913452
0.6704851388931274 0.31428220868110657 0.6006879806518555
0.6517269015312195 0.3488321304321289 0.5907277464866638
0.7637271881103516 0.24480164051055908 0.5184944272041321
0.7658135294914246 0.2547507882118225 0.4134822487831116
0.669478178024292 0.28421345353126526 0.5002044439315796
0.669478178024292 0.28421345353126526 0.5002044439315796
0.7404693961143494 0.2075650542974472 0.5171368718147278
0.6481870412826538 0.23245011270046234 0.4451393187046051
0.7989532351493835 0.3921329081058502 0.47379088401794434
0.7710928916931152 0.2895078957080841 0.42283257842063904
0.7829825282096863 0.3096310496330261 0.50258469581604
0.6016899943351746 0.23378778994083405 0.4773477613925934
0.7932130098342896 0.2720484733581543 0.5360535979270935
0.5987532138824463 0.31921663880348206 0.4211849868297577
0.607106626033783 0.26977720856666565 0.41801342368125916
0.607106626033783 0.26977720856666565 0.41801342368125916
0.6580559611320496 0.362078458070755 0.4389474093914032
0.7195307612419128 0.35860466957092285 0.6003642082214355
0.6939584612846375 0.21164868772029877 0.5664917230606079
0.7641786932945251 0.2799086570739746 0.4085375666618347
0.6352362632751465 0.3271433115005493 0.5397462248802185
0.6133633255958557 0.37159213423728943 0.487352192401886
0.6144664287567139 0.3286970853805542 0.5463746786117554
0.6644327044487 0.3568909168243408 0.49014899134635925
0.7023833990097046 0.31143468618392944 0.5300689339637756
0.6464284658432007 0.20277157425880432 0.5062374472618103
0.6455914974212646 0.23684440553188324 0.4886622726917267
0.6737910509109497 0.313096821308136 0.5733823180198669
0.7324320673942566 0.2352428138256073 0.48635321855545044
0.783745527267456 0.2972106635570526 0.4766581058502197
0.7315975427627563 0.40265515446662903 0.412255197763443
0.7324320673942566 0.2352428138256073 0.48635321855545044
0.783745527267456 0.2972106635570526 0.4766581058502197
0.6692044734954834 0.1881607621908188 0.5555312633514404
0.796039342880249 0.28746455907821655 0.5207758545875549
0.6469542980194092 0.34967148303985596 0.46830612421035767
0.7179988026618958 0.22953294217586517 0.5488343238830566
0.714065432548523 0.3109506070613861 0.558146595954895
0.6252347826957703 0.40856990218162537 0.4693284332752228
0.7927510738372803 0.33271291851997375 0.5667139887809753
0.7874566316604614 0.29018068313598633 0.537601113319397
0.6405288577079773 0.3452220857143402 0.6086236834526062
0.6775166988372803 0.33874091506004333 0.5672950744628906
0.8037455081939697 0.38435158133506775 0.4956171214580536
0.7324651479721069 0.30737820267677307 0.49849677085876465
0.8041385412216187 0.2895925045013428 0.5234740972518921
0.7461130619049072 0.34803855419158936 0.5689931511878967
0.6692553758621216 0.33761703968048096 0.5895958542823792
0.6274107098579407 0.3620452880859375 0.5353198051452637
0.6213445663452148 0.22417591512203217 0.5303390622138977
0.6252601742744446 0.38143911957740784 0.5811223387718201
0.7040785551071167 0.270454466342926 0.5345295667648315
0.709625780582428 0.3262092173099518 0.549242377281189
0.6794794201850891 0.28289997577667236 0.4294286072254181
0.6914585828781128 0.23381710052490234 0.542006254196167
0.6760503649711609 0.33780956268310547 0.5381973385810852
0.6325979232788086 0.25019967555999756 0.4878811240196228
0.8108484745025635 0.3692767322063446 0.4814155697822571
0.7462300658226013 0.25986671447753906 0.45364946126937866
0.7894877195358276 0.3866961896419525 0.46186506748199463
0.7848053574562073 0.29125186800956726 0.5043928623199463
0.6772191524505615 0.21154415607452393 0.5731973648071289
0.6458409428596497 0.2645695209503174 0.44088730216026306
0.7023833990097046 0.31143468618392944 0.5300689339637756
0.6464284658432007 0.20277157425880432 0.5062374472618103
0.6455914974212646 0.23684440553188324 0.4886622726917267
0.6737910509109497 0.313096821308136 0.5733823180198669
0.7324320673942566 0.2352428138256073 0.48635321855545044
0.783745527267456 0.2972106635570526 0.4766581058502197
0.6692044734954834 0.1881607621908188 0.5555312633514404
0.796039342880249 0.28746455907821655 0.5207758545875549
0.6469542980194092 0.34967148303985596 0.46830612421035767
0.7179988026618958 0.22953294217586517 0.5488343238830566
0.714065432548523 0.3109506070613861 0.558146595954895
0.6252347826957703 0.40856990218162537 0.4693284332752228
0.7927510738372803 0.33271291851997375 0.5667139887809753
0.7718484401702881 0.3207989037036896 0.5569050908088684
0.6492727398872375 0.3655693829059601 0.5881174802780151
0.7684362530708313 0.26302528381347656 0.38660475611686707
0.6298159956932068 0.39979293942451477 0.4447716474533081
0.8034491539001465 0.4028085172176361 0.4119477868080139
0.730270266532898 0.19177952408790588 0.573238730430603
0.666167676448822 0.2258855104446411 0.418292760848999
0.6475917100906372 0.2289731204509735 0.4258024990558624
0.6118637323379517 0.28847312927246094 0.5661892890930176
0.7394952178001404 0.36922556161880493 0.4680720269680023
0.7081714868545532 0.33986061811447144 0.422803670167923
0.6480767130851746 0.37861868739128113 0.5618438720703125
0.7214730978012085 0.2755710482597351 0.4955402612686157
0.7754446268081665 0.35619083046913147 0.5528504252433777
0.8079766631126404 0.21067455410957336 0.5726272463798523
0.7964907884597778 0.2829466462135315 0.5363805294036865
0.7495549917221069 0.3197057843208313 0.45627930760383606
0.7556990385055542 0.37226665019989014 0.42425593733787537
0.7996804118156433 0.22330141067504883 0.5192211270332336
0.6061686873435974 0.25392916798591614 0.46618902683258057
0.7365713715553284 0.30619511008262634 0.49384936690330505
0.6775498390197754 0.3151979148387909 0.5513814687728882
0.8171568512916565 0.3233044743537903 0.5908859372138977
0.6790565848350525 0.2538921535015106 0.5680705904960632
0.6589199304580688 0.19602514803409576 0.5504527688026428
0.70319664478302 0.2912450134754181 0.5308408737182617
0.6478578448295593 0.27916157245635986 0.43281713128089905
0.7902560830116272 0.36902275681495667 0.48705676198005676
0.6765549182891846 0.32011279463768005 0.5217966437339783
0.7818465232849121 0.29350411891937256 0.47327715158462524
0.6797535419464111 0.2551440894603729 0.5465601086616516
0.6290153861045837 0.24293549358844757 0.5697540044784546
0.710824728012085 0.22444045543670654 0.4837961196899414
0.6152435541152954 0.33202463388442993 0.4876868426799774
0.6858359575271606 0.24176479876041412 0.4006323218345642
0.761091411113739 0.21285642683506012 0.5639544129371643
0.7404541969299316 0.31031936407089233 0.5769220590591431
0.7823002934455872 0.23260149359703064 0.42810624837875366
0.616631269454956 0.28353822231292725 0.6079639196395874
0.5986722707748413 0.23736758530139923 0.4509480595588684
0.8049525618553162 0.3877160847187042 0.5114011764526367
0.7515024542808533 0.21587006747722626 0.3857938349246979
0.7095640301704407 0.32418450713157654 0.5427893996238708
0.6952222585678101 0.24544161558151245 0.45827800035476685
0.614770770072937 0.2656841278076172 0.43008187413215637
0.6482411026954651 0.21523243188858032 0.5636463761329651
0.7065473794937134 0.29268506169319153 0.4841754734516144
0.7448266744613647 0.21372239291667938 0.5313236117362976
0.710696280002594 0.36183562874794006 0.51222825050354
0.7938181161880493 0.3351983428001404 0.4090489149093628
0.726934015750885 0.23297521471977234 0.4824284315109253
0.6778751015663147 0.33939066529273987 0.5652219653129578
0.6273011565208435 0.4041791558265686 0.47601598501205444
0.6442232728004456 0.2463168203830719 0.5107112526893616
0.7248408794403076 0.29315048456192017 0.3978307545185089
0.762529194355011 0.2150128036737442 0.5359358787536621
0.7639305591583252 0.22690996527671814 0.4735698401927948
0.683588981628418 0.38638952374458313 0.5678070783615112
0.7818465232849121 0.29350411891937256 0.47327715158462524
0.6483699083328247 0.38438358902931213 0.5195422172546387
0.6359861493110657 0.2768861651420593 0.5333855748176575
0.7385867834091187 0.36600854992866516 0.46838676929473877
0.7795259356498718 0.27493706345558167 0.5148771405220032
0.6258310675621033 0.19305580854415894 0.547237753868103
0.636739194393158 0.20199650526046753 0.5173521041870117
0.6365729570388794 0.19192689657211304 0.5490655899047852
0.6993938088417053 0.25556445121765137 0.5204476118087769
0.652372419834137 0.3848230540752411 0.4294567108154297
0.6495006680488586 0.28716906905174255 0.4616318345069885
0.6319962739944458 0.2572736442089081 0.5591087937355042
0.7176414728164673 0.2609098255634308 0.5896424651145935
0.8088383078575134 0.35440826416015625 0.49340736865997314
0.7378042340278625 0.23413865268230438 0.47932469844818115
0.7387682199478149 0.364429235458374 0.5693429708480835
0.6563177704811096 0.34754836559295654 0.45746296644210815
0.7976694703102112 0.23280523717403412 0.5336113572120667
0.8176937103271484 0.35437503457069397 0.5925415754318237
0.627354085445404 0.2714710831642151 0.5329872369766235
0.7103452086448669 0.3429558277130127 0.5912895202636719
0.6074787974357605 0.3330705165863037 0.5068989992141724
0.7437067627906799 0.21494098007678986 0.4002731442451477
0.7561739087104797 0.34127649664878845 0.5276389122009277
0.7794232964515686 0.2468307614326477 0.4045540392398834
0.6469542980194092 0.34967148303985596 0.46830612421035767
0.6022878885269165 0.3633904755115509 0.4576778709888458
0.7974171042442322 0.32920703291893005 0.5751091837882996
0.6069739460945129 0.2007385790348053 0.5120060443878174
0.7332631349563599 0.2711164653301239 0.43617191910743713
0.7989391684532166 0.23002688586711884 0.4531501531600952
0.7710564136505127 0.20669937133789062 0.43526995182037354
0.6639364361763 0.24844694137573242 0.47631028294563293
0.7596478462219238 0.2703274190425873 0.4402245879173279
0.8066793084144592 0.2733217775821686 0.57267826795578
0.6359861493110657 0.2768861651420593 0.5333855748176575
0.6085965037345886 0.29735004901885986 0.5215554237365723
0.6334408521652222 0.264913946390152 0.5849133133888245
0.7655868530273438 0.33959177136421204 0.5345913171768188
0.7795259356498718 0.27493706345558167 0.5148771405220032
0.6717891097068787 0.34913742542266846 0.4594494700431824
0.6258310675621033 0.19305580854415894 0.547237753868103
0.636739194393158 0.20199650526046753 0.5173521041870117
0.6365729570388794 0.19192689657211304 0.5490655899047852
0.6993938088417053 0.25556445121765137 0.5204476118087769
0.652372419834137 0.3848230540752411 0.4294567108154297
0.6495006680488586 0.28716906905174255 0.4616318345069885
0.6319962739944458 0.2572736442089081 0.5591087937355042
0.7176414728164673 0.2609098255634308 0.5896424651145935
0.8088383078575134 0.35440826416015625 0.49340736865997314
0.7378042340278625 0.23413865268230438 0.47932469844818115
0.7387682199478149 0.364429235458374 0.5693429708480835
0.6758754253387451 0.31484583020210266 0.5939041972160339
0.6344653367996216 0.2933846116065979 0.5144678354263306
0.668615996837616 0.19988693296909332 0.5145310759544373
0.6318421959877014 0.24458011984825134 0.43869248032569885
0.7755702137947083 0.3806001842021942 0.43291929364204407
0.7497309446334839 0.2612731456756592 0.4744327962398529
0.6690409779548645 0.29194578528404236 0.4550747871398926
0.8006275296211243 0.33190202713012695 0.46937334537506104
0.6323612928390503 0.3332999348640442 0.5177140831947327
0.6203799247741699 0.373108446598053 0.44566887617111206
0.7091531157493591 0.24405203759670258 0.42169761657714844
0.6335894465446472 0.3975747227668762 0.44242581725120544
0.6620727181434631 0.39749982953071594 0.538384735584259
0.6456010937690735 0.21714463829994202 0.43346571922302246
0.7740432024002075 0.3031352162361145 0.4599379599094391
0.7012474536895752 0.23383839428424835 0.46692928671836853
0.7808268666267395 0.20917926728725433 0.569320023059845
0.6981342434883118 0.19959977269172668 0.548583447933197
0.7501956224441528 0.3995831608772278 0.4728116989135742
0.6432451605796814 0.29650652408599854 0.45994147658348083
0.755316972732544 0.33544865250587463 0.43980544805526733
0.7598556876182556 0.28812116384506226 0.5265923738479614
0.6629565358161926 0.21173208951950073 0.4729689955711365
0.7387682199478149 0.364429235458374 0.5693429708480835
0.6563177704811096 0.34754836559295654 0.45746296644210815
0.7976694703102112 0.23280523717403412 0.5336113572120667
0.8176937103271484 0.35437503457069397 0.5925415754318237
0.627354085445404 0.2714710831642151 0.5329872369766235
0.7103452086448669 0.3429558277130127 0.5912895202636719
0.6074787974357605 0.3330705165863037 0.5068989992141724
0.7437067627906799 0.21494098007678986 0.4002731442451477
0.7561739087104797 0.34127649664878845 0.5276389122009277
0.6711048483848572 0.39161956310272217 0.4347513020038605
0.7430568337440491 0.33064767718315125 0.4866980016231537
0.6510838866233826 0.4101106822490692 0.4501152038574219
0.645145833492279 0.19834497570991516 0.5558415055274963
0.669478178024292 0.28421345353126526 0.5002044439315796
0.7394952178001404 0.36922556161880493 0.4680720269680023
0.6865798830986023 0.30613523721694946 0.5391272306442261
0.7717939019203186 0.3334314525127411 0.5161845088005066
0.6355252861976624 0.241911843419075 0.5085129737854004
0.7513652443885803 0.37441468238830566 0.4760493338108063
0.7742380499839783 0.33157768845558167 0.4381038546562195
0.767595648765564 0.28180983662605286 0.5081127882003784
0.6702324151992798 0.310248464345932 0.4861689805984497
0.660213053226471 0.3052939772605896 0.46444422006607056
0.6328131556510925 0.23356418311595917 0.5833033323287964
0.7808268666267395 0.20917926728725433 0.569320023059845
0.6981342434883118 0.19959977269172668 0.548583447933197
0.7830095291137695 0.2508910596370697 0.3908657133579254
0.6432451605796814 0.29650652408599854 0.45994147658348083
0.755316972732544 0.33544865250587463 0.43980544805526733
0.6790681481361389 0.38364067673683167 0.49704307317733765
0.7387682199478149 0.364429235458374 0.5693429708480835
0.6563177704811096 0.34754836559295654 0.45746296644210815
0.6967228651046753 0.31930211186408997 0.5625175833702087
0.820311963558197 0.37567728757858276 0.5743595957756042
0.7118722200393677 0.3757762610912323 0.4783509075641632
0.7586293816566467 0.36989355087280273 0.4198589324951172
0.7704287171363831 0.38039687275886536 0.5682017207145691
0.7647287845611572 0.3530528247356415 0.42338842153549194
0.720531165599823 0.35529637336730957 0.5387647151947021
0.7331893444061279 0.3636247515678406 0.4384380877017975
0.692365288734436 0.22124247252941132 0.5652055144309998
0.6441256403923035 0.32783544063568115 0.6038535833358765
0.8085194826126099 0.3427940607070923 0.5843701362609863
0.7088789939880371 0.3312801718711853 0.4927734136581421
0.6663194894790649 0.2841290235519409 0.46451154351234436
0.8106476068496704 0.2968887686729431 0.5335508584976196
0.6039170026779175 0.3005928695201874 0.48222848773002625
0.6285826563835144 0.262238085269928 0.4206709563732147
0.7356727123260498 0.26769015192985535 0.4072452485561371
0.733423113822937 0.37078747153282166 0.4855145812034607
0.6957898139953613 0.3609901964664459 0.46671226620674133
0.6741714477539062 0.30946215987205505 0.4065755605697632
0.7937621474266052 0.34515202045440674 0.41697436571121216
0.6741399168968201 0.34493857622146606 0.41401633620262146
0.8033387064933777 0.281930536031723 0.5058133006095886
0.6556006669998169 0.2946757972240448 0.5990492701530457
0.6842101812362671 0.35711759328842163 0.4163571298122406
0.6027864217758179 0.3683464229106903 0.4684597849845886
0.7702224254608154 0.3976321220397949 0.41465556621551514
0.712826132774353 0.38304242491722107 0.5072348713874817
0.6822742223739624 0.3046456277370453 0.5263291597366333
0.7117634415626526 0.33802545070648193 0.46826788783073425
0.8073604106903076 0.3771780729293823 0.4926234483718872
0.6713658571243286 0.32763952016830444 0.5287121534347534
0.7045104503631592 0.391473650932312 0.4720526337623596
0.7777692675590515 0.28932589292526245 0.40852925181388855
0.7289760708808899 0.21346694231033325 0.4935286045074463
0.6712642312049866 0.27527692914009094 0.4301436245441437
0.6414065361022949 0.3969995081424713 0.5442296862602234
0.698969841003418 0.3570845127105713 0.5820850133895874
0.7090081572532654 0.34910160303115845 0.4671355187892914
0.6243252158164978 0.30614638328552246 0.6033554673194885
0.6332978010177612 0.31177833676338196 0.44952696561813354
0.7691201567649841 0.31293702125549316 0.5627237558364868
0.7898587584495544 0.33299270272254944 0.40426090359687805
0.6845720410346985 0.20461232960224152 0.4814010560512543
0.6281148195266724 0.34234392642974854 0.5628225803375244
0.7365713715553284 0.30619511008262634 0.49384936690330505
0.616631269454956 0.28353822231292725 0.6079639196395874
0.5986722707748413 0.23736758530139923 0.4509480595588684
0.8049525618553162 0.3877160847187042 0.5114011764526367
0.7515024542808533 0.21587006747722626 0.3857938349246979
0.7095640301704407 0.32418450713157654 0.5427893996238708
0.6952222585678101 0.24544161558151245 0.45827800035476685
0.614770770072937 0.2656841278076172 0.43008187413215637
0.6482411026954651 0.21523243188858032 0.5636463761329651
0.7065473794937134 0.29268506169319153 0.4841754734516144
0.7448266744613647 0.21372239291667938 0.5313236117362976
0.710696280002594 0.36183562874794006 0.51222825050354
0.7938181161880493 0.3351983428001404 0.4090489149093628
0.7012474536895752 0.23383839428424835 0.46692928671836853
0.7808268666267395 0.20917926728725433 0.569320023059845
0.6981342434883118 0.19959977269172668 0.548583447933197
0.7830095291137695 0.2508910596370697 0.3908657133579254
0.7580618858337402 0.303294837474823 0.5281446576118469
0.7552230358123779 0.37116026878356934 0.41164615750312805
0.6918081045150757 0.20195406675338745 0.5147272944450378
0.6881019473075867 0.2585490942001343 0.423292875289917
0.6781909465789795 0.35283800959587097 0.4460313320159912
0.638451874256134 0.3154313266277313 0.5163358449935913
0.7539334297180176 0.34104958176612854 0.5001235604286194
0.6329048275947571 0.3099769055843353 0.5683609247207642
0.7588001489639282 0.32993465662002563 0.5062941312789917
0.6610215306282043 0.38732385635375977 0.48953697085380554
0.7880952954292297 0.2859582304954529 0.38418591022491455
0.6011368632316589 0.23171497881412506 0.4787079691886902
0.7394943237304688 0.3830166757106781 0.44122326374053955
0.6939619779586792 0.23452261090278625 0.5054199695587158
0.7901027798652649 0.3013688027858734 0.5008597373962402
0.7091531157493591 0.24405203759670258 0.42169761657714844
0.6127204298973083 0.37133899331092834 0.4590389132499695
0.7645249366760254 0.35944169759750366 0.5460516214370728
0.654946506023407 0.36157262325286865 0.529376745223999
0.8067998886108398 0.30678173899650574 0.5738255977630615
0.7349499464035034 0.2984568774700165 0.5091873407363892
0.8025345206260681 0.3141835927963257 0.46365025639533997
0.7470358610153198 0.2553417980670929 0.548664927482605
0.784679114818573 0.29723137617111206 0.44766172766685486
0.6972288489341736 0.30221253633499146 0.42845749855041504
0.7830115556716919 0.2609521746635437 0.5382687449455261
0.640419602394104 0.2996232807636261 0.5925971269607544
0.6463258862495422 0.38696709275245667 0.527662992477417
0.7809677124023438 0.2548740804195404 0.5084944367408752
0.6542304158210754 0.2657616436481476 0.574059784412384
0.7957006692886353 0.23155725002288818 0.4310879409313202
0.6188010573387146 0.1837605983018875 0.5630131959915161
0.783579409122467 0.34247320890426636 0.5411373376846313
0.6330218315124512 0.3334593176841736 0.452318400144577
0.6754456162452698 0.33033818006515503 0.4751499891281128
0.7425773739814758 0.29728183150291443 0.5668599009513855
0.7168939113616943 0.2684704661369324 0.4135098159313202
0.7856314778327942 0.21242846548557281 0.5368910431861877
0.7069994211196899 0.39650973677635193 0.4334796071052551
0.6642987132072449 0.3534446060657501 0.4213792383670807
0.7627189755439758 0.3543998599052429 0.5244631767272949
0.7631527781486511 0.3828045725822449 0.5036888122558594
0.6799490451812744 0.34767892956733704 0.5817469954490662
0.6730412840843201 0.28066951036453247 0.538516640663147
0.6694404482841492 0.27883341908454895 0.5386492609977722
0.696280837059021 0.3616602122783661 0.45864707231521606
0.6766504049301147 0.3658895790576935 0.4434581398963928
0.7091531157493591 0.24405203759670258 0.42169761657714844
0.6127204298973083 0.37133899331092834 0.4590389132499695
0.7645249366760254 0.35944169759750366 0.5460516214370728
0.654946506023407 0.36157262325286865 0.529376745223999
0.8067998886108398 0.30678173899650574 0.5738255977630615
0.7349499464035034 0.2984568774700165 0.5091873407363892
0.8025345206260681 0.3141835927963257 0.46365025639533997
0.7470358610153198 0.2553417980670929 0.548664927482605
0.784679114818573 0.29723137617111206 0.44766172766685486
0.6886464953422546 0.22173982858657837 0.47176727652549744
0.7045482397079468 0.22847358882427216 0.4702896773815155
0.7322912216186523 0.2646397650241852 0.4289209842681885
0.6059925556182861 0.24401533603668213 0.42181697487831116
0.6925144195556641 0.2928782105445862 0.5036839842796326
0.6414121389389038 0.23824521899223328 0.4195482134819031
0.7332475185394287 0.3827706277370453 0.4738302230834961
0.7981095910072327 0.3144291937351227 0.4304629862308502
0.6846774816513062 0.39512383937835693 0.4239679276943207
0.6995981335639954 0.2059844732284546 0.49644166231155396
0.6926777958869934 0.35533732175827026 0.53542560338974
0.8124207854270935 0.34933769702911377 0.5333253145217896
0.669903039932251 0.36841174960136414 0.4283182919025421
0.7625501751899719 0.18669098615646362 0.5605292320251465
0.7220743894577026 0.36510783433914185 0.4502882659435272
0.6947155594825745 0.3545783758163452 0.4463198184967041
0.7496652603149414 0.35229888558387756 0.5521536469459534
0.6302762031555176 0.33422747254371643 0.5668922662734985
0.6714509129524231 0.38467222452163696 0.5758071541786194
0.6765275597572327 0.20007868111133575 0.5269302725791931
0.676846981048584 0.3644828498363495 0.4948635995388031
0.6584011316299438 0.38132357597351074 0.5529277920722961
0.6173502206802368 0.2734960615634918 0.5492159128189087
0.7817837595939636 0.3185368478298187 0.48897871375083923
0.6141872406005859 0.25925412774086 0.4749201238155365
0.7230811715126038 0.20221413671970367 0.5206350088119507
0.6541000604629517 0.1974087357521057 0.5068475604057312
0.678674578666687 0.32219767570495605 0.42641881108283997
0.8062945604324341 0.30374741554260254 0.5742224454879761
0.7027245163917542 0.22828669846057892 0.5109596252441406
0.6470944881439209 0.3863326609134674 0.5344633460044861
0.6183342933654785 0.34800729155540466 0.5448743104934692
0.8011327981948853 0.2198711484670639 0.5095239877700806
0.6989768147468567 0.3607873022556305 0.49366679787635803
0.6043722629547119 0.2298044115304947 0.42062845826148987
0.7387004494667053 0.22380106151103973 0.49448657035827637
0.7217305302619934 0.34263479709625244 0.48499980568885803
0.6458530426025391 0.33654671907424927 0.47246846556663513
0.7682105302810669 0.3645283877849579 0.4515255391597748
0.7267143130302429 0.251264750957489 0.5175793766975403
0.7041565775871277 0.3566013276576996 0.5118032097816467
0.6615366339683533 0.35866424441337585 0.5384311079978943
0.7500083446502686 0.21861745417118073 0.46393129229545593
0.7951672673225403 0.36377188563346863 0.4850068986415863
0.8197068572044373 0.37076902389526367 0.5500079393386841
0.6522366404533386 0.35154855251312256 0.5855283141136169
0.704804539680481 0.2771521210670471 0.5847349762916565
0.7202966213226318 0.3145827054977417 0.5955797433853149
0.6826723217964172 0.30898332595825195 0.5717048048973083
0.7567805647850037 0.37697023153305054 0.46375101804733276
0.7792844772338867 0.28936102986335754 0.4984249472618103
0.7517337203025818 0.3049725294113159 0.4212043583393097
0.7396152019500732 0.33673495054244995 0.46982383728027344
0.6222149729728699 0.30346032977104187 0.573792040348053
0.6666427850723267 0.2815503776073456 0.5364202260971069
0.6712642312049866 0.27527692914009094 0.4301436245441437
0.6385451555252075 0.38452139496803284 0.5062925219535828
0.7308562397956848 0.3396701216697693 0.4935930371284485
0.7938737869262695 0.3563302755355835 0.47279036045074463
0.6768847107887268 0.38950106501579285 0.5737285614013672
0.633802592754364 0.25718870759010315 0.3963228166103363
0.7330502867698669 0.3125608265399933 0.5357497334480286
0.6182271838188171 0.28845760226249695 0.5638335943222046
0.7714954614639282 0.3688993752002716 0.41984906792640686
0.7396631240844727 0.2908554971218109 0.3952156603336334
0.6859142780303955 0.38096752762794495 0.6165838837623596
0.792467474937439 0.23629842698574066 0.3901206851005554
0.693989098072052 0.3913179636001587 0.4995303153991699
0.6656399369239807 0.3419934809207916 0.6022311449050903
0.6617010831832886 0.2639678418636322 0.4482610523700714
0.7407625317573547 0.20994164049625397 0.4096606373786926
0.6458530426025391 0.33654671907424927 0.47246846556663513
0.7682105302810669 0.3645283877849579 0.4515255391597748
0.7267143130302429 0.251264750957489 0.5175793766975403
0.7041565775871277 0.3566013276576996 0.5118032097816467
0.6615366339683533 0.35866424441337585 0.5384311079978943
0.7500083446502686 0.21861745417118073 0.46393129229545593
0.7951672673225403 0.36377188563346863 0.4850068986415863
0.8197068572044373 0.37076902389526367 0.5500079393386841
0.6522366404533386 0.35154855251312256 0.5855283141136169
0.704804539680481 0.2771521210670471 0.5847349762916565
0.7202966213226318 0.3145827054977417 0.5955797433853149
0.6826723217964172 0.30898332595825195 0.5717048048973083
0.7567805647850037 0.37697023153305054 0.46375101804733276
0.7792844772338867 0.28936102986335754 0.4984249472618103
0.7517337203025818 0.3049725294113159 0.4212043583393097
0.7396152019500732 0.33673495054244995 0.46982383728027344
0.6989768147468567 0.3607873022556305 0.49366679787635803
0.6615366339683533 0.35866424441337585 0.5384311079978943
0.7500083446502686 0.21861745417118073 0.46393129229545593
0.7951672673225403 0.36377188563346863 0.4850068986415863
0.8197068572044373 0.37076902389526367 0.5500079393386841
0.6522366404533386 0.35154855251312256 0.5855283141136169
0.704804539680481 0.2771521210670471 0.5847349762916565
0.7202966213226318 0.3145827054977417 0.5955797433853149
0.6826723217964172 0.30898332595825195 0.5717048048973083
0.7567805647850037 0.37697023153305054 0.46375101804733276
0.6209350824356079 0.33199599385261536 0.5958462953567505
0.7445861101150513 0.2759198248386383 0.5150159001350403
0.7664501667022705 0.3109779357910156 0.5002688765525818
0.6646196842193604 0.3713373839855194 0.49893659353256226
0.7849776744842529 0.28059110045433044 0.4764572083950043
0.6882109045982361 0.22280782461166382 0.5393736958503723
0.6939939856529236 0.22257809340953827 0.513271689414978
0.7102872133255005 0.34772616624832153 0.5813810229301453
0.6329373121261597 0.32017263770103455 0.5413431525230408
0.6819449067115784 0.3286881744861603 0.42962926626205444
0.6946138739585876 0.2263839989900589 0.4451451897621155
0.7378638982772827 0.40527260303497314 0.42869096994400024
0.6589924693107605 0.34665390849113464 0.5190063118934631
0.6359662413597107 0.38092347979545593 0.46986088156700134
0.7283681631088257 0.2243494838476181 0.5295367240905762
0.7233061790466309 0.2464444935321808 0.40351438522338867
0.7832948565483093 0.2281743884086609 0.44625958800315857
0.7781322002410889 0.23678773641586304 0.3958175778388977
0.8003937602043152 0.3613503873348236 0.5332043170928955
0.7435178756713867 0.34611183404922485 0.45182931423187256
0.6930298209190369 0.37370505928993225 0.5349952578544617
0.7646423578262329 0.3879477381706238 0.44490528106689453
0.6989768147468567 0.3607873022556305 0.49366679787635803
0.6615366339683533 0.35866424441337585 0.5384311079978943
0.7500083446502686 0.21861745417118073 0.46393129229545593
0.7951672673225403 0.36377188563346863 0.4850068986415863
0.8197068572044373 0.37076902389526367 0.5500079393386841
0.6522366404533386 0.35154855251312256 0.5855283141136169
0.704804539680481 0.2771521210670471 0.5847349762916565
0.7202966213226318 0.3145827054977417 0.5955797433853149
0.6826723217964172 0.30898332595825195 0.5717048048973083
0.7567805647850037 0.37697023153305054 0.46375101804733276
0.7792844772338867 0.28936102986335754 0.4984249472618103
0.7517337203025818 0.3049725294113159 0.4212043583393097
0.7396152019500732 0.33673495054244995 0.46982383728027344
0.6222149729728699 0.30346032977104187 0.573792040348053
0.6666427850723267 0.2815503776073456 0.5364202260971069
0.6719434857368469 0.3405269384384155 0.4849623143672943
0.7587213516235352 0.3769906759262085 0.5242403745651245
0.77483731508255 0.2116589993238449 0.5486986637115479
0.61440110206604 0.3380788266658783 0.5359392762184143
0.6329373121261597 0.32017263770103455 0.5413431525230408
0.6819449067115784 0.3286881744861603 0.42962926626205444
0.6946138739585876 0.2263839989900589 0.4451451897621155
0.7378638982772827 0.40527260303497314 0.42869096994400024
0.6589924693107605 0.34665390849113464 0.5190063118934631
0.6359662413597107 0.38092347979545593 0.46986088156700134
0.7283681631088257 0.2243494838476181 0.5295367240905762
0.7233061790466309 0.2464444935321808 0.40351438522338867
0.7781322002410889 0.23678773641586304 0.3958175778388977
0.7189271450042725 0.33138594031333923 0.4778198301792145
0.7023957967758179 0.3679877519607544 0.45599591732025146
0.7435178756713867 0.34611183404922485 0.45182931423187256
0.6930298209190369 0.37370505928993225 0.5349952578544617
0.603904664516449 0.33087366819381714 0.4315717816352844
0.7073494791984558 0.3617140054702759 0.5255082249641418
0.7777324914932251 0.24392005801200867 0.5005748867988586
0.6146023869514465 0.26710808277130127 0.474529892206192
0.6785945892333984 0.2636670172214508 0.4495791494846344
0.6988980174064636 0.2802180349826813 0.474369078874588
0.742409348487854 0.32779553532600403 0.44901353120803833
0.8049359917640686 0.3876413404941559 0.47657325863838196
0.7154993414878845 0.33843865990638733 0.46234309673309326
0.6172022819519043 0.34259676933288574 0.4662875533103943
0.6167216897010803 0.3071495592594147 0.5127267837524414
0.7048397660255432 0.3569440245628357 0.4886617958545685
0.6303423047065735 0.249828040599823 0.5211129784584045
0.6809133887290955 0.21302087604999542 0.5442908406257629
0.6209122538566589 0.3394230902194977 0.41664057970046997
0.7262029647827148 0.23402172327041626 0.4494001269340515
0.7212963700294495 0.3962348997592926 0.4621766209602356
0.7351939678192139 0.35559743642807007 0.5449116826057434
0.7349966764450073 0.3578680455684662 0.6023209691047668
0.7921871542930603 0.2853904068470001 0.4369887411594391
0.656548798084259 0.3031070828437805 0.501654863357544
0.7238750457763672 0.24499289691448212 0.4345483183860779
0.7607672810554504 0.28157392144203186 0.5495482683181763
0.7336165308952332 0.2685866355895996 0.46243202686309814
0.6832593679428101 0.3001786768436432 0.4797276258468628
0.650576651096344 0.3024207353591919 0.43621912598609924
0.7692860960960388 0.3083350658416748 0.4291519522666931
0.6863924860954285 0.35365068912506104 0.6090603470802307
0.6291555762290955 0.3912297189235687 0.5541934370994568
0.7284051775932312 0.29584285616874695 0.5100179314613342
0.7544111609458923 0.37707698345184326 0.5784520506858826
0.6642099618911743 0.22542139887809753 0.475599080324173
0.7435110211372375 0.3428577482700348 0.5453441143035889
0.7150594592094421 0.3008155822753906 0.5087864398956299
0.7474724054336548 0.2914809286594391 0.4727803170681
0.7341372966766357 0.32698071002960205 0.5228044390678406
0.6367520689964294 0.2836846709251404 0.46221545338630676
0.7278738617897034 0.2968926429748535 0.4373639225959778
0.6903707385063171 0.24250106513500214 0.5690207481384277
0.7405826449394226 0.3748387098312378 0.4155367612838745
0.7272000312805176 0.23067526519298553 0.46253907680511475
0.7027971744537354 0.25540339946746826 0.48730576038360596
0.779889702796936 0.32486340403556824 0.49975618720054626
0.7238340377807617 0.39647915959358215 0.45659521222114563
0.699905276298523 0.36737340688705444 0.5657459497451782
0.6482908725738525 0.21157997846603394 0.5606576800346375
0.6361490488052368 0.2583296298980713 0.43040111660957336
0.611659824848175 0.2629633843898773 0.5361406207084656
0.7132234573364258 0.3959537148475647 0.4928942918777466
0.7258282899856567 0.34802740812301636 0.43579643964767456
0.655242383480072 0.20005282759666443 0.5602864027023315
0.7917588353157043 0.22414889931678772 0.4623033106327057
0.7949784398078918 0.32684922218322754 0.44535472989082336
0.7616013288497925 0.21217459440231323 0.4535931348800659
0.6654798984527588 0.18920227885246277 0.5670374631881714
0.7729499340057373 0.26621389389038086 0.4345400035381317
0.6965110301971436 0.3669929504394531 0.527940034866333
0.6276606917381287 0.3615415394306183 0.5672590732574463
0.6356092691421509 0.2598136067390442 0.5266463160514832
0.7262172102928162 0.27407971024513245 0.4864215850830078
0.7437054514884949 0.21979102492332458 0.5005801916122437
0.7484311461448669 0.37312933802604675 0.413509726524353
0.6379634737968445 0.3614083230495453 0.4588751196861267
0.633568525314331 0.41443607211112976 0.47294706106185913
0.6183837056159973 0.24992306530475616 0.5899972319602966
0.6745806336402893 0.2901104986667633 0.5652307868003845
0.6993935108184814 0.26414525508880615 0.5932453274726868
0.7730599045753479 0.22767239809036255 0.48216283321380615
0.7393288612365723 0.24120283126831055 0.42016685009002686
0.6366211771965027 0.359764039516449 0.4330713748931885
0.7365856170654297 0.3339689373970032 0.4407791793346405
0.8012597560882568 0.3718196451663971 0.40676063299179077
0.6788594722747803 0.24593675136566162 0.4828782081604004
0.6049993634223938 0.37998223304748535 0.46663928031921387
0.6475493907928467 0.35832321643829346 0.46716779470443726
0.6269695162773132 0.40495565533638 0.46749407052993774
0.767188549041748 0.2659784257411957 0.4618699848651886
0.7630693912506104 0.2939574718475342 0.4559363126754761
0.7954625487327576 0.19601093232631683 0.47962135076522827
0.7064402103424072 0.31214502453804016 0.4694565534591675
0.6387466788291931 0.22875523567199707 0.5726325511932373
0.6244414448738098 0.27898433804512024 0.4809766709804535
0.7917588353157043 0.22414889931678772 0.4623033106327057
0.6674088835716248 0.3485628068447113 0.590644896030426
0.6786131858825684 0.3158358931541443 0.5717393755912781
0.613857090473175 0.21984438598155975 0.4802694022655487
0.6092112064361572 0.24519912898540497 0.43085700273513794
0.6504079103469849 0.28684574365615845 0.5448045134544373
0.6898886561393738 0.3751780390739441 0.5389691591262817
0.6641232967376709 0.38721123337745667 0.4866912364959717
0.7645133137702942 0.21825115382671356 0.5564823150634766
0.736716628074646 0.25783511996269226 0.5591505169868469
0.6565490365028381 0.27208212018013 0.43408772349357605
0.6483324766159058 0.37946999073028564 0.4817105531692505
0.7189810872077942 0.24332544207572937 0.417703241109848
0.6485926508903503 0.339586466550827 0.4356376826763153
0.7341465950012207 0.27965047955513 0.5248629450798035
0.7865212559700012 0.30093705654144287 0.44319215416908264
0.7330036759376526 0.22469377517700195 0.5649101138114929
0.6932047009468079 0.2530660927295685 0.47777411341667175
0.7741671204566956 0.29738330841064453 0.5211396813392639
0.6439023613929749 0.22393812239170074 0.4467453062534332
0.6745806336402893 0.2901104986667633 0.5652307868003845
0.6993935108184814 0.26414525508880615 0.5932453274726868
0.7730599045753479 0.22767239809036255 0.48216283321380615
0.7393288612365723 0.24120283126831055 0.42016685009002686
0.6366211771965027 0.359764039516449 0.4330713748931885
0.7365856170654297 0.3339689373970032 0.4407791793346405
0.8012597560882568 0.3718196451663971 0.40676063299179077
0.8081161975860596 0.31226664781570435 0.5739757418632507
0.7940105199813843 0.20538724958896637 0.5164163708686829
0.6049993634223938 0.37998223304748535 0.46663928031921387
0.6475493907928467 0.35832321643829346 0.46716779470443726
0.6269695162773132 0.40495565533638 0.46749407052993774
0.7022517323493958 0.3094469904899597 0.4214516282081604
0.7954625487327576 0.19601093232631683 0.47962135076522827
0.7064402103424072 0.31214502453804016 0.4694565534591675
0.7217583060264587 0.3922082781791687 0.4142475426197052
0.6674088835716248 0.3485628068447113 0.590644896030426
0.7747840881347656 0.21606609225273132 0.4556170105934143
0.613857090473175 0.21984438598155975 0.4802694022655487
0.6092112064361572 0.24519912898540497 0.43085700273513794
0.6504079103469849 0.28684574365615845 0.5448045134544373
0.6898886561393738 0.3751780390739441 0.5389691591262817
0.8093845844268799 0.3579123020172119 0.5856450200080872
0.741279125213623 0.25659164786338806 0.48972925543785095
0.736716628074646 0.25783511996269226 0.5591505169868469
0.7447358965873718 0.31352490186691284 0.5711572766304016
0.6730412840843201 0.28066951036453247 0.538516640663147
0.6600592732429504 0.2030961513519287 0.5211096405982971
0.7961118817329407 0.3665240406990051 0.4561816155910492
0.6248929500579834 0.24479319155216217 0.5083610415458679
0.7808787226676941 0.23250487446784973 0.516136109828949
0.7099854946136475 0.38864952325820923 0.5274781584739685
0.7323903441429138 0.2585098147392273 0.48957788944244385
0.7930892109870911 0.35096949338912964 0.5981447696685791
0.7177549600601196 0.3599453568458557 0.5860610008239746
0.6979361772537231 0.3240513801574707 0.5056811571121216
0.6918460726737976 0.29842716455459595 0.5544002056121826
0.7175174355506897 0.36353814601898193 0.4411112666130066
0.7280107736587524 0.31413406133651733 0.5435813069343567
0.6741209030151367 0.22036060690879822 0.4365224242210388
0.7023780941963196 0.24169501662254333 0.49947094917297363
0.709975004196167 0.31659436225891113 0.5843050479888916
0.6762542724609375 0.37250468134880066 0.49786680936813354
0.7047968506813049 0.38050827383995056 0.5266820788383484
0.7088673114776611 0.37863102555274963 0.43441781401634216
0.7987874150276184 0.236364483833313 0.43567338585853577
0.6785541772842407 0.22712469100952148 0.5329505205154419
0.7005955576896667 0.24368657171726227 0.4632359445095062
0.7073041796684265 0.32309406995773315 0.45242074131965637
0.7331397533416748 0.3181383013725281 0.567220151424408
0.7620565295219421 0.2571999132633209 0.4419828951358795
0.6611315011978149 0.19662898778915405 0.5508333444595337
0.6778850555419922 0.29880625009536743 0.47870680689811707
0.6507503986358643 0.247525155544281 0.4899905025959015
0.6007924675941467 0.23015253245830536 0.4118187129497528
0.7789095044136047 0.3549024164676666 0.4436339735984802
0.7893962860107422 0.25382372736930847 0.4228483736515045
0.7909510731697083 0.19983558356761932 0.481351763010025
0.6694404482841492 0.27883341908454895 0.5386492609977722
0.7544111609458923 0.37707698345184326 0.5784520506858826
0.6642099618911743 0.22542139887809753 0.475599080324173
0.6340479254722595 0.37582841515541077 0.5011529326438904
0.6277859807014465 0.37791547179222107 0.4357343018054962
0.671170175075531 0.3235335648059845 0.4734668731689453
0.6946833729743958 0.32053452730178833 0.4616584777832031
0.6337583065032959 0.42237308621406555 0.4356406331062317
0.6731202006340027 0.21878933906555176 0.501679539680481
0.7150594592094421 0.3008155822753906 0.5087864398956299
0.7805492877960205 0.20503021776676178 0.5547661781311035
0.7508386969566345 0.21842709183692932 0.39057016372680664
0.7655640840530396 0.2615642845630646 0.4976179599761963
0.6439023613929749 0.22393812239170074 0.4467453062534332
0.6745806336402893 0.2901104986667633 0.5652307868003845
0.6993935108184814 0.26414525508880615 0.5932453274726868
0.6674019694328308 0.22205226123332977 0.46635690331459045
0.768970787525177 0.331525593996048 0.4307793080806732
0.6768962740898132 0.25872814655303955 0.41077718138694763
0.6641586422920227 0.29796087741851807 0.4574585258960724
0.7068517208099365 0.24678513407707214 0.4344639182090759
0.7598832845687866 0.3831084668636322 0.5797927975654602
0.7205747961997986 0.34608888626098633 0.47152408957481384
0.7940105199813843 0.20538724958896637 0.5164163708686829
0.6049993634223938 0.37998223304748535 0.46663928031921387
0.6475493907928467 0.35832321643829346 0.46716779470443726
0.6269695162773132 0.40495565533638 0.46749407052993774
0.767188549041748 0.2659784257411957 0.4618699848651886
0.7630693912506104 0.2939574718475342 0.4559363126754761
0.683606743812561 0.3229513168334961 0.594758927822113
0.7342467308044434 0.21639299392700195 0.4639125466346741
0.8133266568183899 0.3617384731769562 0.5116848945617676
0.6090883612632751 0.24709442257881165 0.5011930465698242
0.7336165308952332 0.2685866355895996 0.46243202686309814
0.6832593679428101 0.3001786768436432 0.4797276258468628
0.650576651096344 0.3024207353591919 0.43621912598609924
0.7692860960960388 0.3083350658416748 0.4291519522666931
0.6863924860954285 0.35365068912506104 0.6090603470802307
0.6291555762290955 0.3912297189235687 0.5541934370994568
0.7284051775932312 0.29584285616874695 0.5100179314613342
0.7544111609458923 0.37707698345184326 0.5784520506858826
0.6642099618911743 0.22542139887809753 0.475599080324173
0.6340479254722595 0.37582841515541077 0.5011529326438904
0.6277859807014465 0.37791547179222107 0.4357343018054962
0.671170175075531 0.3235335648059845 0.4734668731689453
0.6946833729743958 0.32053452730178833 0.4616584777832031
0.6946833729743958 0.32053452730178833 0.4616584777832031
0.6337583065032959 0.42237308621406555 0.4356406331062317
0.6731202006340027 0.21878933906555176 0.501679539680481
0.7150594592094421 0.3008155822753906 0.5087864398956299
0.7474724054336548 0.2914809286594391 0.4727803170681
0.6606807112693787 0.21657636761665344 0.5710176825523376
0.7894299030303955 0.3525405824184418 0.511314332485199
0.7091922163963318 0.23486000299453735 0.4783884584903717
0.7842387557029724 0.3201756179332733 0.5779721140861511
0.6120572686195374 0.21558158099651337 0.5863147974014282
0.6293990015983582 0.3755486309528351 0.5510594844818115
0.7798656225204468 0.21873138844966888 0.3920454680919647
0.7730599045753479 0.22767239809036255 0.48216283321380615
0.7598832845687866 0.3831084668636322 0.5797927975654602
0.7205747961997986 0.34608888626098633 0.47152408957481384
0.7940105199813843 0.20538724958896637 0.5164163708686829
0.7400442957878113 0.32802072167396545 0.49124306440353394
0.7031398415565491 0.20789028704166412 0.5398741364479065
0.6958817839622498 0.23898473381996155 0.44155043363571167
0.6832593679428101 0.3001786768436432 0.4797276258468628
0.650576651096344 0.3024207353591919 0.43621912598609924
0.6642099618911743 0.22542139887809753 0.475599080324173
0.7232261300086975 0.3432920277118683 0.5430203080177307
0.7897395491600037 0.2210364192724228 0.49798479676246643
0.7380601167678833 0.21541832387447357 0.390468031167984
0.6946833729743958 0.32053452730178833 0.4616584777832031
0.6337583065032959 0.42237308621406555 0.4356406331062317
0.6731202006340027 0.21878933906555176 0.501679539680481
0.7150594592094421 0.3008155822753906 0.5087864398956299
0.7805492877960205 0.20503021776676178 0.5547661781311035
0.7508386969566345 0.21842709183692932 0.39057016372680664
0.7655640840530396 0.2615642845630646 0.4976179599761963
0.6439023613929749 0.22393812239170074 0.4467453062534332
0.6745806336402893 0.2901104986667633 0.5652307868003845
0.6993935108184814 0.26414525508880615 0.5932453274726868
0.6674019694328308 0.22205226123332977 0.46635690331459045
0.768970787525177 0.331525593996048 0.4307793080806732
0.6768962740898132 0.25872814655303955 0.41077718138694763
0.6641586422920227 0.29796087741851807 0.4574585258960724
0.7068517208099365 0.24678513407707214 0.4344639182090759
0.7598832845687866 0.3831084668636322 0.5797927975654602
0.7205747961997986 0.34608888626098633 0.47152408957481384
0.7940105199813843 0.20538724958896637 0.5164163708686829
0.7064402103424072 0.31214502453804016 0.4694565534591675
0.6213851571083069 0.1830323338508606 0.5681347250938416
0.6369345784187317 0.40867552161216736 0.5030827522277832
0.6566018462181091 0.30598869919776917 0.4552895426750183
0.7856499552726746 0.3616960346698761 0.4851783514022827
0.6396544575691223 0.3240874707698822 0.44564932584762573
0.6550499200820923 0.3651511073112488 0.4974958002567291
0.7396152019500732 0.33673495054244995 0.46982383728027344
0.6946833729743958 0.32053452730178833 0.4616584777832031
0.6337583065032959 0.42237308621406555 0.4356406331062317
0.6731202006340027 0.21878933906555176 0.501679539680481
0.7150594592094421 0.3008155822753906 0.5087864398956299
0.7805492877960205 0.20503021776676178 0.5547661781311035
0.7508386969566345 0.21842709183692932 0.39057016372680664
0.7655640840530396 0.2615642845630646 0.4976179599761963
0.6439023613929749 0.22393812239170074 0.4467453062534332
0.6745806336402893 0.2901104986667633 0.5652307868003845
0.6993935108184814 0.26414525508880615 0.5932453274726868
0.6674019694328308 0.22205226123332977 0.46635690331459045
0.768970787525177 0.331525593996048 0.4307793080806732
0.6768962740898132 0.25872814655303955 0.41077718138694763
0.6641586422920227 0.29796087741851807 0.4574585258960724
0.7068517208099365 0.24678513407707214 0.4344639182090759
0.7205747961997986 0.34608888626098633 0.47152408957481384
0.7940105199813843 0.20538724958896637 0.5164163708686829
0.6049993634223938 0.37998223304748535 0.46663928031921387
0.6475493907928467 0.35832321643829346 0.46716779470443726
0.6269695162773132 0.40495565533638 0.46749407052993774
0.767188549041748 0.2659784257411957 0.4618699848651886
0.7630693912506104 0.2939574718475342 0.4559363126754761
0.683606743812561 0.3229513168334961 0.594758927822113
0.7034098505973816 0.3515799939632416 0.5521147847175598
0.6448383927345276 0.31047093868255615 0.597324788570404
0.6251248121261597 0.3841770887374878 0.5817171931266785
0.7064402103424072 0.31214502453804016 0.4694565534591675
0.6387466788291931 0.22875523567199707 0.5726325511932373
0.6244414448738098 0.27898433804512024 0.4809766709804535
0.7012220621109009 0.2793833315372467 0.48420995473861694
0.6495327949523926 0.2046871781349182 0.5789496898651123
0.6719434857368469 0.3405269384384155 0.4849623143672943
0.6507503986358643 0.247525155544281 0.4899905025959015
0.6007924675941467 0.23015253245830536 0.4118187129497528
0.7789095044136047 0.3549024164676666 0.4436339735984802
0.7893962860107422 0.25382372736930847 0.4228483736515045
0.7909510731697083 0.19983558356761932 0.481351763010025
0.7179439663887024 0.3863082826137543 0.45530790090560913
0.6707037091255188 0.29815858602523804 0.5324776768684387
0.7641605734825134 0.20391587913036346 0.5157644152641296
0.7443919777870178 0.40132153034210205 0.4138822853565216
0.795423686504364 0.25799036026000977 0.5715482831001282
0.6255984306335449 0.3844856321811676 0.48799988627433777
0.6777713298797607 0.35915467143058777 0.5542489290237427
0.7399731874465942 0.3264075517654419 0.45321980118751526
0.7237242460250854 0.21563902497291565 0.45755642652511597
0.6575251817703247 0.26602351665496826 0.4469568729400635
0.7714975476264954 0.2112380862236023 0.563758909702301
0.6706997752189636 0.40434449911117554 0.4753008484840393
0.7897821664810181 0.18536598980426788 0.5355281233787537
0.790657103061676 0.30411818623542786 0.4773005545139313
0.6298742294311523 0.29137077927589417 0.5956741571426392
