ply
format ascii 1.0
element vertex 821
property float x
property float y
property float z
end_header
0.22219818830490112 0.25902247428894043 0.5800620317459106
0.1945386826992035 0.17671996355056763 0.5867982506752014
0.24575653672218323 0.2835676670074463 0.43270647525787354
0.2536233067512512 0.22671876847743988 0.46909183263778687
0.250993549823761 0.3462177515029907 0.5345901846885681
0.10981900244951248 0.28541645407676697 0.5784381031990051
0.22013065218925476 0.2689467966556549 0.43046364188194275
0.16635143756866455 0.34612828493118286 0.469064325094223
0.1795717030763626 0.3459697365760803 0.5792319774627686
0.2224564552307129 0.39272886514663696 0.5800632238388062
0.11901889741420746 0.3221375048160553 0.4887861907482147
0.2534776031970978 0.3467788100242615 0.6083518862724304
0.2534776031970978 0.3467788100242615 0.6083518862724304
0.1506740301847458 0.28705427050590515 0.6005954742431641
0.22674106061458588 0.38380885124206543 0.582411527633667
0.20582620799541473 0.3450762629508972 0.46558940410614014
0.253352552652359 0.35959962010383606 0.4688490033149719
0.24044343829154968 0.3242557644844055 0.4978926479816437
0.11664344370365143 0.28300002217292786 0.4580868184566498
0.2887321412563324 0.2973082959651947 0.40647923946380615
0.20332439243793488 0.23091880977153778 0.40960609912872314
0.2149432748556137 0.19423238933086395 0.42327240109443665
0.1961914598941803 0.31471505761146545 0.5040460824966431
0.1374548077583313 0.261778861284256 0.4011313021183014
0.20737949013710022 0.28872066736221313 0.4227905869483948
0.31468307971954346 0.26115158200263977 0.4103862941265106
0.27110061049461365 0.23421011865139008 0.5284619927406311
0.2324087768793106 0.2717588543891907 0.41494861245155334
0.20710720121860504 0.295254111289978 0.4320986270904541
0.17504827678203583 0.22076120972633362 0.46718400716781616
0.19576656818389893 0.2804957628250122 0.5104599595069885
0.2887321412563324 0.2973082959651947 0.40647923946380615
0.20332439243793488 0.23091880977153778 0.40960609912872314
0.2324792593717575 0.30380481481552124 0.5134405493736267
0.1343928873538971 0.33139318227767944 0.5916467905044556
0.20805662870407104 0.38220274448394775 0.5072967410087585
0.2059001326560974 0.28062039613723755 0.4052060544490814
0.2701331675052643 0.3306216597557068 0.5018430948257446
0.20681597292423248 0.25467124581336975 0.4114619791507721
0.2082190066576004 0.1877783089876175 0.4144115746021271
0.29946601390838623 0.21461331844329834 0.5473077893257141
0.20055894553661346 0.14598515629768372 0.5548009872436523
0.13916178047657013 0.29749950766563416 0.43181315064430237
0.187955841422081 0.2701365351676941 0.414286732673645
0.20431002974510193 0.21312899887561798 0.40749436616897583
0.19891482591629028 0.16095170378684998 0.4642050564289093
0.24039635062217712 0.36542317271232605 0.4208880364894867
0.16339318454265594 0.3200094997882843 0.5447189807891846
0.20768362283706665 0.2685438096523285 0.4844830334186554
0.3161807656288147 0.26501190662384033 0.5216310024261475
0.19926349818706512 0.25219565629959106 0.41687774658203125
0.12246615439653397 0.30373939871788025 0.5387675166130066
0.11351198703050613 0.2889893352985382 0.5264508128166199
0.13280156254768372 0.2754468321800232 0.5462870001792908
0.2298705130815506 0.3371272385120392 0.5637139678001404
0.22781696915626526 0.3194143772125244 0.4506743252277374
0.2191307097673416 0.2405722439289093 0.6004790663719177
0.239424929022789 0.2739420533180237 0.5887535214424133
0.22772729396820068 0.17405788600444794 0.549552857875824
0.19678640365600586 0.19748401641845703 0.5071918368339539
0.18870748579502106 0.25658664107322693 0.5472661256790161
0.1756168007850647 0.3345034420490265 0.41751301288604736
0.1731114387512207 0.299363911151886 0.49206435680389404
0.24267350137233734 0.24255016446113586 0.4950868487358093
0.23963075876235962 0.28938934206962585 0.48202186822891235
0.1463674157857895 0.25927799940109253 0.40864506363868713
0.15227991342544556 0.2317088097333908 0.48965391516685486
0.17638370394706726 0.2897314727306366 0.5736234784126282
0.1294393688440323 0.2749926745891571 0.5789843797683716
0.2900042235851288 0.21577219665050507 0.49574440717697144
0.18849696218967438 0.3115406632423401 0.5700634717941284
0.2502773106098175 0.21852441132068634 0.3998742699623108
0.2629567086696625 0.2620333731174469 0.4228077530860901
0.15117815136909485 0.3474789261817932 0.5286205410957336
0.2748085558414459 0.3324955403804779 0.5324879288673401
0.30178043246269226 0.29277095198631287 0.4759732484817505
0.14728087186813354 0.22272878885269165 0.5134508013725281
0.3266376852989197 0.2508864998817444 0.5948596596717834
0.20296792685985565 0.35239630937576294 0.4932890236377716
0.13709859549999237 0.23628361523151398 0.42036136984825134
0.12810388207435608 0.30524176359176636 0.49493399262428284
0.2169950157403946 0.3902624845504761 0.5522937774658203
0.15641853213310242 0.25229233503341675 0.5413204431533813
0.12155681848526001 0.30925697088241577 0.44830915331840515
0.18025512993335724 0.2528291642665863 0.4405074119567871
0.2818596363067627 0.24741131067276 0.49594229459762573
0.19836805760860443 0.3087894320487976 0.4329965114593506
0.11382467299699783 0.32237356901168823 0.44923433661460876
0.174375981092453 0.3478557765483856 0.5836421251296997
0.13089773058891296 0.30738258361816406 0.48996150493621826
0.2886672616004944 0.3006434142589569 0.5752686262130737
0.1456993818283081 0.31684327125549316 0.49090757966041565
0.24856756627559662 0.20014448463916779 0.5616201758384705
0.272962361574173 0.2437913417816162 0.40775227546691895
0.14719906449317932 0.33631420135498047 0.5565978288650513
0.2169950157403946 0.3902624845504761 0.5522937774658203
0.15641853213310242 0.25229233503341675 0.5413204431533813
0.21854530274868011 0.17285607755184174 0.44979622960090637
0.24862241744995117 0.27324312925338745 0.5551092028617859
0.15641853213310242 0.25229233503341675 0.5413204431533813
0.21854530274868011 0.17285607755184174 0.44979622960090637
0.24862241744995117 0.27324312925338745 0.5551092028617859
0.23403523862361908 0.34887954592704773 0.499757319688797
0.18562501668930054 0.30403363704681396 0.48512011766433716
0.2536897659301758 0.4005609452724457 0.5081186294555664
0.1683172881603241 0.3240143358707428 0.5949153900146484
0.2218356728553772 0.3695843517780304 0.43088242411613464
0.12603171169757843 0.2555214762687683 0.4876793324947357
0.174375981092453 0.3478557765483856 0.5836421251296997
0.13089773058891296 0.30738258361816406 0.48996150493621826
0.2886672616004944 0.3006434142589569 0.5752686262130737
0.1456993818283081 0.31684327125549316 0.49090757966041565
0.24856756627559662 0.20014448463916779 0.5616201758384705
0.272962361574173 0.2437913417816162 0.40775227546691895
0.16617868840694427 0.272238552570343 0.5604966878890991
0.2291792929172516 0.30699074268341064 0.5494126081466675
0.1549863964319229 0.24849240481853485 0.4809064269065857
0.20504792034626007 0.3293573260307312 0.5662254095077515
0.15601707994937897 0.3095300793647766 0.41986283659935
0.16044773161411285 0.21961116790771484 0.5118860602378845
0.33415094017982483 0.2730349600315094 0.5807775855064392
0.28413259983062744 0.2745399475097656 0.5465518236160278
0.20201215147972107 0.17540404200553894 0.4422427713871002
0.13175828754901886 0.24972958862781525 0.5439836978912354
0.25671684741973877 0.18102796375751495 0.5608925819396973
0.16600854694843292 0.18674734234809875 0.4632360637187958
0.2224564552307129 0.39272886514663696 0.5800632238388062
0.1456993818283081 0.31684327125549316 0.49090757966041565
0.24856756627559662 0.20014448463916779 0.5616201758384705
0.272962361574173 0.2437913417816162 0.40775227546691895
0.16617868840694427 0.272238552570343 0.5604966878890991
0.1682494580745697 0.20057401061058044 0.4953899383544922
0.25070545077323914 0.39401450753211975 0.4980125427246094
0.19191884994506836 0.15519006550312042 0.4518621563911438
0.2291792929172516 0.30699074268341064 0.5494126081466675
0.13557495176792145 0.24769903719425201 0.4364711344242096
0.1549863964319229 0.24849240481853485 0.4809064269065857
0.20504792034626007 0.3293573260307312 0.5662254095077515
0.15601707994937897 0.3095300793647766 0.41986283659935
0.16044773161411285 0.21961116790771484 0.5118860602378845
0.33415094017982483 0.2730349600315094 0.5807775855064392
0.28413259983062744 0.2745399475097656 0.5465518236160278
0.20201215147972107 0.17540404200553894 0.4422427713871002
0.20249323546886444 0.1764911562204361 0.4412899315357208
0.27483561635017395 0.33817335963249207 0.5533162951469421
0.15957751870155334 0.3328053653240204 0.5955994129180908
0.2781153917312622 0.33707132935523987 0.47484079003334045
0.17654192447662354 0.36040666699409485 0.5680319666862488
0.2939815819263458 0.26455554366111755 0.4044223129749298
0.15402144193649292 0.34490257501602173 0.592278242111206
0.2625439167022705 0.3402225971221924 0.5793793797492981
0.21271638572216034 0.21716620028018951 0.41055527329444885
0.19384972751140594 0.36362332105636597 0.41556888818740845
0.34942784905433655 0.25447481870651245 0.44386303424835205
0.14334598183631897 0.2629450559616089 0.5610530972480774
0.13749675452709198 0.26910877227783203 0.5359054207801819
0.16183191537857056 0.20854629576206207 0.4162472188472748
0.2652595639228821 0.3758103847503662 0.41925880312919617
0.27601030468940735 0.3201557993888855 0.47237855195999146
0.2479511946439743 0.21704179048538208 0.539871871471405
0.3112969398498535 0.2464563101530075 0.4005444645881653
0.17143845558166504 0.3518179655075073 0.4715995788574219
0.18134011328220367 0.33739790320396423 0.4248655438423157
0.15420649945735931 0.3439716696739197 0.56268709897995
0.2470303624868393 0.20458698272705078 0.5539237260818481
0.182793527841568 0.24508962035179138 0.5754095911979675
0.24213656783103943 0.24313034117221832 0.5954845547676086
0.24788573384284973 0.284511536359787 0.4425300061702728
0.2166518270969391 0.22907985746860504 0.5015402436256409
0.1784069538116455 0.3062784671783447 0.5423029661178589
0.14751026034355164 0.3091617226600647 0.5630612373352051
0.1276874542236328 0.2729082703590393 0.4949096739292145
0.30689120292663574 0.299177885055542 0.45877429842948914
0.26875025033950806 0.3870663642883301 0.41349393129348755
0.29544711112976074 0.3145619332790375 0.5505591034889221
0.18698397278785706 0.2545166611671448 0.45968765020370483
0.16014845669269562 0.3064083158969879 0.40152356028556824
0.20117251574993134 0.22942818701267242 0.5639239549636841
0.16863369941711426 0.2936262786388397 0.5651026368141174
0.2813029885292053 0.33305981755256653 0.5529912114143372
0.30634087324142456 0.27699580788612366 0.49996301531791687
0.2072129249572754 0.28444692492485046 0.567872941493988
0.21696484088897705 0.36070144176483154 0.5603036880493164
0.257575660943985 0.3160034120082855 0.5315446853637695
0.2850590944290161 0.21200792491436005 0.408743679523468
0.2962080240249634 0.26204994320869446 0.47366395592689514
0.2280040830373764 0.3185238242149353 0.6016790270805359
0.15757344663143158 0.20205911993980408 0.4241730570793152
0.19949054718017578 0.3015139698982239 0.5981976985931396
0.2339925915002823 0.2880040109157562 0.5187698602676392
0.19334152340888977 0.25241783261299133 0.4808431565761566
0.25426971912384033 0.2609911859035492 0.5593386292457581
0.25742873549461365 0.22889381647109985 0.5006791353225708
0.15026432275772095 0.19728514552116394 0.53739994764328
0.18663808703422546 0.2317640334367752 0.571837842464447
0.18582430481910706 0.29952746629714966 0.41902127861976624
0.2716462314128876 0.24805323779582977 0.5766939520835876
0.19870559871196747 0.22571325302124023 0.4990552067756653
0.2670571506023407 0.3518983721733093 0.48618876934051514
0.20536114275455475 0.29460135102272034 0.5663017630577087
0.1722351312637329 0.23356834053993225 0.4992077350616455
0.2796580493450165 0.3540959656238556 0.505218505859375
0.3288252353668213 0.2548719644546509 0.5089517831802368
0.17385202646255493 0.3088172376155853 0.4504637122154236
0.2556491792201996 0.39121317863464355 0.42468342185020447
0.16262131929397583 0.33741745352745056 0.4444819390773773
0.24083870649337769 0.30584436655044556 0.49985188245773315
0.22873860597610474 0.18624131381511688 0.5946307182312012
0.3032180368900299 0.22833582758903503 0.4624219536781311
0.24750156700611115 0.2049013078212738 0.47023287415504456
0.1846601366996765 0.21762040257453918 0.43497616052627563
0.2843610346317291 0.29605916142463684 0.5445245504379272
0.22128206491470337 0.3200555443763733 0.5326460003852844
0.21021777391433716 0.32241958379745483 0.40995919704437256
0.28395506739616394 0.23818588256835938 0.50291907787323
0.24951982498168945 0.20331138372421265 0.5394602417945862
0.21660712361335754 0.2657439112663269 0.5757735371589661
0.23310720920562744 0.28309786319732666 0.42165082693099976
0.17875921726226807 0.22332781553268433 0.49982625246047974
0.2596456706523895 0.18452715873718262 0.5806313157081604
0.27044808864593506 0.3759188652038574 0.4482996165752411
0.19014506042003632 0.2098337560892105 0.5601116418838501
0.20278890430927277 0.17505842447280884 0.5046442747116089
0.2571066915988922 0.28601571917533875 0.5921337008476257
0.1979132443666458 0.16776734590530396 0.4663485586643219
0.1387099176645279 0.29123055934906006 0.47543931007385254
0.24330605566501617 0.24650289118289948 0.4700232446193695
0.12428121268749237 0.2759506404399872 0.5476429462432861
0.32439520955085754 0.25300779938697815 0.401391863822937
0.3478747308254242 0.24127347767353058 0.5154857635498047
0.2695070207118988 0.25144162774086 0.5986385345458984
0.2796580493450165 0.3540959656238556 0.505218505859375
0.3288252353668213 0.2548719644546509 0.5089517831802368
0.17385202646255493 0.3088172376155853 0.4504637122154236
0.2556491792201996 0.39121317863464355 0.42468342185020447
0.16262131929397583 0.33741745352745056 0.4444819390773773
0.16262131929397583 0.33741745352745056 0.4444819390773773
0.24083870649337769 0.30584436655044556 0.49985188245773315
0.22873860597610474 0.18624131381511688 0.5946307182312012
0.3032180368900299 0.22833582758903503 0.4624219536781311
0.24750156700611115 0.2049013078212738 0.47023287415504456
0.2647172510623932 0.30089500546455383 0.5348880887031555
0.2843610346317291 0.29605916142463684 0.5445245504379272
0.22128206491470337 0.3200555443763733 0.5326460003852844
0.21021777391433716 0.32241958379745483 0.40995919704437256
0.2673599123954773 0.20979909598827362 0.5493664741516113
0.21780242025852203 0.27237990498542786 0.45425504446029663
0.12804721295833588 0.3087979555130005 0.5830843448638916
0.35135138034820557 0.25174540281295776 0.4761613607406616
0.11455248296260834 0.2920289933681488 0.5777631402015686
0.26741674542427063 0.3079373836517334 0.5032658576965332
0.22486872971057892 0.18322135508060455 0.4456178843975067
0.34352752566337585 0.23785053193569183 0.5932260155677795
0.2197723537683487 0.23734711110591888 0.44584137201309204
0.23526149988174438 0.3736211359500885 0.5422790050506592
0.2962080240249634 0.26204994320869446 0.47366395592689514
0.10924471914768219 0.310799777507782 0.5642397999763489
0.25473538041114807 0.33984997868537903 0.43444785475730896
0.28276026248931885 0.28279250860214233 0.568264365196228
0.18589270114898682 0.29737237095832825 0.5985895991325378
0.32668474316596985 0.25781702995300293 0.4874057471752167
0.25391921401023865 0.21380968391895294 0.4016788601875305
0.2587878704071045 0.23652707040309906 0.5732942223548889
0.23157714307308197 0.33018165826797485 0.5532633662223816
0.1419222205877304 0.23703734576702118 0.5570740699768066
0.1702001541852951 0.29361915588378906 0.5136547684669495
0.1950950026512146 0.34938183426856995 0.5794121623039246
0.30268216133117676 0.31803447008132935 0.561522901058197
0.21925193071365356 0.25491783022880554 0.4825565218925476
0.29694104194641113 0.32944393157958984 0.42780613899230957
0.12422531098127365 0.27282676100730896 0.5592645406723022
0.11844654381275177 0.3147990107536316 0.4952261745929718
0.24451789259910583 0.2776128649711609 0.49886587262153625
0.19828693568706512 0.28212448954582214 0.42600736021995544
0.22540225088596344 0.30213528871536255 0.5708074569702148
0.3291011452674866 0.25387853384017944 0.5011125802993774
0.29572662711143494 0.23435936868190765 0.4588485658168793
0.15226368606090546 0.3266526460647583 0.4268955588340759
0.1930423080921173 0.24813437461853027 0.5389178395271301
0.20922832190990448 0.3061806857585907 0.5753825306892395
0.27290746569633484 0.24493728578090668 0.4631098210811615
0.2571066915988922 0.28601571917533875 0.5921337008476257
0.1979132443666458 0.16776734590530396 0.4663485586643219
0.1387099176645279 0.29123055934906006 0.47543931007385254
0.29554659128189087 0.2690000534057617 0.5969922542572021
0.34158357977867126 0.25104546546936035 0.42371365427970886
0.23526149988174438 0.3736211359500885 0.5422790050506592
0.19807195663452148 0.2781778573989868 0.4172767698764801
0.1866065263748169 0.2821190655231476 0.4985013008117676
0.26164722442626953 0.35538604855537415 0.5128655433654785
0.19206391274929047 0.3621443808078766 0.569204568862915
0.22156566381454468 0.2504414916038513 0.40556275844573975
0.22022885084152222 0.16629858314990997 0.5491993427276611
0.28734126687049866 0.3386004865169525 0.5318365097045898
0.19397909939289093 0.16656456887722015 0.5322223901748657
0.1840297281742096 0.1587236225605011 0.559705376625061
0.20582880079746246 0.3041888475418091 0.5776363611221313
0.19341443479061127 0.24459873139858246 0.5909741520881653
0.25858980417251587 0.377977192401886 0.4837889075279236
0.14652840793132782 0.2515208125114441 0.5539178252220154
0.18112413585186005 0.35939911007881165 0.5746535062789917
0.19939367473125458 0.17082908749580383 0.5826094746589661
0.35583406686782837 0.253039687871933 0.48078030347824097
0.1927877962589264 0.2904777526855469 0.4043685495853424
0.20856212079524994 0.2822955846786499 0.510521650314331
0.2673599123954773 0.20979909598827362 0.5493664741516113
0.21780242025852203 0.27237990498542786 0.45425504446029663
0.12804721295833588 0.3087979555130005 0.5830843448638916
0.35135138034820557 0.25174540281295776 0.4761613607406616
0.11455248296260834 0.2920289933681488 0.5777631402015686
0.26741674542427063 0.3079373836517334 0.5032658576965332
0.22486872971057892 0.18322135508060455 0.4456178843975067
0.34352752566337585 0.23785053193569183 0.5932260155677795
0.2197723537683487 0.23734711110591888 0.44584137201309204
0.2818121314048767 0.21679630875587463 0.5018697381019592
0.3230589032173157 0.25910714268684387 0.540798008441925
0.22622954845428467 0.30674901604652405 0.4694839417934418
0.22192806005477905 0.3756280541419983 0.4436637759208679
0.3289032280445099 0.252828985452652 0.42652302980422974
0.1387099176645279 0.29123055934906006 0.47543931007385254
0.24330605566501617 0.24650289118289948 0.4700232446193695
0.19571281969547272 0.2893811762332916 0.5752794146537781
0.32768726348876953 0.2523665130138397 0.4019521474838257
0.28878653049468994 0.34877490997314453 0.425306111574173
0.23430395126342773 0.2786307632923126 0.5884645581245422
0.1722351312637329 0.23356834053993225 0.4992077350616455
0.2796580493450165 0.3540959656238556 0.505218505859375
0.3288252353668213 0.2548719644546509 0.5089517831802368
0.17385202646255493 0.3088172376155853 0.4504637122154236
0.24054919183254242 0.3058798611164093 0.47693073749542236
0.23785161972045898 0.31856435537338257 0.5831581950187683
0.16262131929397583 0.33741745352745056 0.4444819390773773
0.24083870649337769 0.30584436655044556 0.49985188245773315
0.22873860597610474 0.18624131381511688 0.5946307182312012
0.3032180368900299 0.22833582758903503 0.4624219536781311
0.24750156700611115 0.2049013078212738 0.47023287415504456
0.1846601366996765 0.21762040257453918 0.43497616052627563
0.2843610346317291 0.29605916142463684 0.5445245504379272
0.2843610346317291 0.29605916142463684 0.5445245504379272
0.22128206491470337 0.3200555443763733 0.5326460003852844
0.20726299285888672 0.23804059624671936 0.5665998458862305
0.2673599123954773 0.20979909598827362 0.5493664741516113
0.21780242025852203 0.27237990498542786 0.45425504446029663
0.12804721295833588 0.3087979555130005 0.5830843448638916
0.35135138034820557 0.25174540281295776 0.4761613607406616
0.11455248296260834 0.2920289933681488 0.5777631402015686
0.26741674542427063 0.3079373836517334 0.5032658576965332
0.22486872971057892 0.18322135508060455 0.4456178843975067
0.34352752566337585 0.23785053193569183 0.5932260155677795
0.2197723537683487 0.23734711110591888 0.44584137201309204
0.12246615439653397 0.30373939871788025 0.5387675166130066
0.21925193071365356 0.25491783022880554 0.4825565218925476
0.29694104194641113 0.32944393157958984 0.42780613899230957
0.12422531098127365 0.27282676100730896 0.5592645406723022
0.11844654381275177 0.3147990107536316 0.4952261745929718
0.19828693568706512 0.28212448954582214 0.42600736021995544
0.22540225088596344 0.30213528871536255 0.5708074569702148
0.3291011452674866 0.25387853384017944 0.5011125802993774
0.29572662711143494 0.23435936868190765 0.4588485658168793
0.15226368606090546 0.3266526460647583 0.4268955588340759
0.1930423080921173 0.24813437461853027 0.5389178395271301
0.20922832190990448 0.3061806857585907 0.5753825306892395
0.2571066915988922 0.28601571917533875 0.5921337008476257
0.23359733819961548 0.31625011563301086 0.5854612588882446
0.21161745488643646 0.33428439497947693 0.48772168159484863
0.2385411262512207 0.23455768823623657 0.5249669551849365
0.3101773262023926 0.22040671110153198 0.49673429131507874
0.1442326158285141 0.28613200783729553 0.5739835500717163
0.3078387975692749 0.26929330825805664 0.59745192527771
0.15802380442619324 0.3411663770675659 0.4902259409427643
0.11167468875646591 0.29837697744369507 0.48051777482032776
0.27957212924957275 0.2112031728029251 0.44642460346221924
0.13187502324581146 0.3320568799972534 0.5910316109657288
0.2449934482574463 0.19901423156261444 0.4337160587310791
0.2498115748167038 0.3066330552101135 0.4120938777923584
0.24461856484413147 0.1920764446258545 0.41482824087142944
0.2866106927394867 0.2714873254299164 0.541283369064331
0.18036215007305145 0.24355804920196533 0.5292622447013855
0.180539071559906 0.23385637998580933 0.5728033185005188
0.2855567932128906 0.27503034472465515 0.5724959969520569
0.2790650427341461 0.19547148048877716 0.5999882817268372
0.2837675213813782 0.24158743023872375 0.42895805835723877
0.3198961913585663 0.23264998197555542 0.47331055998802185
0.14185188710689545 0.2757251262664795 0.55558180809021
0.17132939398288727 0.3077213764190674 0.5173258185386658
0.28112825751304626 0.3017880916595459 0.4168074131011963
0.14281506836414337 0.28136900067329407 0.5959763526916504
0.17947779595851898 0.2795093357563019 0.5024948120117188
0.17693465948104858 0.27625149488449097 0.5782662630081177
0.2866225838661194 0.22943273186683655 0.41782909631729126
0.18035957217216492 0.2618420720100403 0.5838820934295654
0.21284346282482147 0.2702661156654358 0.5453965067863464
0.2238718867301941 0.22724708914756775 0.45636677742004395
0.31414029002189636 0.26373517513275146 0.527712881565094
0.17047259211540222 0.2404060810804367 0.45760947465896606
0.30076926946640015 0.26579147577285767 0.40351012349128723
0.18574225902557373 0.2569471597671509 0.545137345790863
0.19163495302200317 0.33713293075561523 0.5552223920822144
0.1336720883846283 0.3251831829547882 0.41249990463256836
0.20561978220939636 0.23186954855918884 0.40002018213272095
0.26703235507011414 0.26515671610832214 0.4350486397743225
0.1827217936515808 0.26325252652168274 0.42692941427230835
0.22294357419013977 0.19588902592658997 0.48289525508880615
0.23256267607212067 0.31243667006492615 0.5089989304542542
0.196808859705925 0.2788435220718384 0.41379061341285706
0.21529167890548706 0.3789122402667999 0.5060718655586243
0.1811828464269638 0.35278648138046265 0.6025139689445496
0.19353285431861877 0.2789945900440216 0.5545075535774231
0.32410556077957153 0.25066059827804565 0.491838663816452
0.11809852719306946 0.32496121525764465 0.4875636100769043
0.2421482801437378 0.2997925579547882 0.5735514163970947
0.275456964969635 0.27743014693260193 0.4117610454559326
0.22700384259223938 0.25247782468795776 0.509335994720459
0.2727283835411072 0.3400707542896271 0.4361180067062378
0.1682494580745697 0.20057401061058044 0.4953899383544922
0.35135138034820557 0.25174540281295776 0.4761613607406616
0.11455248296260834 0.2920289933681488 0.5777631402015686
0.26741674542427063 0.3079373836517334 0.5032658576965332
0.22486872971057892 0.18322135508060455 0.4456178843975067
0.34352752566337585 0.23785053193569183 0.5932260155677795
0.2197723537683487 0.23734711110591888 0.44584137201309204
0.2818121314048767 0.21679630875587463 0.5018697381019592
0.3230589032173157 0.25910714268684387 0.540798008441925
0.22622954845428467 0.30674901604652405 0.4694839417934418
0.22192806005477905 0.3756280541419983 0.4436637759208679
0.24375884234905243 0.2669425308704376 0.4937160611152649
0.23350821435451508 0.22704190015792847 0.542485773563385
0.18385916948318481 0.26488712430000305 0.5840537548065186
0.2570491135120392 0.3789004683494568 0.5485603213310242
0.2057163268327713 0.28191232681274414 0.4879019558429718
0.22563785314559937 0.22322461009025574 0.50018709897995
0.27705052495002747 0.37265247106552124 0.500598669052124
0.16500329971313477 0.24597792327404022 0.4698350131511688
0.22284336388111115 0.21335318684577942 0.571368932723999
0.20785853266716003 0.37294888496398926 0.4144670069217682
0.2516160309314728 0.3465525209903717 0.5189129114151001
0.21207059919834137 0.19814397394657135 0.46735700964927673
0.2651882469654083 0.32853183150291443 0.45904967188835144
0.1535276621580124 0.2537679076194763 0.49822163581848145
0.24379393458366394 0.35200223326683044 0.5139976143836975
0.2905724346637726 0.30258604884147644 0.5450196266174316
0.14185188710689545 0.2757251262664795 0.55558180809021
0.17132939398288727 0.3077213764190674 0.5173258185386658
0.28112825751304626 0.3017880916595459 0.4168074131011963
0.14281506836414337 0.28136900067329407 0.5959763526916504
0.17947779595851898 0.2795093357563019 0.5024948120117188
0.3098084330558777 0.2959216237068176 0.5422747731208801
0.19353285431861877 0.2789945900440216 0.5545075535774231
0.32410556077957153 0.25066059827804565 0.491838663816452
0.11809852719306946 0.32496121525764465 0.4875636100769043
0.2421482801437378 0.2997925579547882 0.5735514163970947
0.22700384259223938 0.25247782468795776 0.509335994720459
0.2095966637134552 0.16488508880138397 0.48069363832473755
0.2727283835411072 0.3400707542896271 0.4361180067062378
0.14065851271152496 0.2719956636428833 0.5594874620437622
0.30682680010795593 0.22982186079025269 0.5546200275421143
0.11477847397327423 0.28085610270500183 0.4707931876182556
0.19938263297080994 0.1826162040233612 0.5424590706825256
0.3235609233379364 0.24971142411231995 0.42886728048324585
0.25967246294021606 0.20384469628334045 0.41062918305397034
0.3025033175945282 0.2961493730545044 0.5618731379508972
0.23350299894809723 0.38924577832221985 0.45626628398895264
0.2504115402698517 0.26667162775993347 0.4495444595813751
0.128437802195549 0.2625359296798706 0.41188353300094604
0.1386125385761261 0.2887960970401764 0.4495789408683777
0.17336289584636688 0.21136176586151123 0.5874229073524475
0.18207576870918274 0.32895374298095703 0.5070570707321167
0.15248441696166992 0.2584528625011444 0.4154810309410095
0.31587764620780945 0.2702668309211731 0.5752000212669373
0.24461856484413147 0.1920764446258545 0.41482824087142944
0.2866106927394867 0.2714873254299164 0.541283369064331
0.18036215007305145 0.24355804920196533 0.5292622447013855
0.180539071559906 0.23385637998580933 0.5728033185005188
0.2855567932128906 0.27503034472465515 0.5724959969520569
0.2790650427341461 0.19547148048877716 0.5999882817268372
0.1386634260416031 0.29392826557159424 0.5392171144485474
0.26989081501960754 0.22004035115242004 0.5097350478172302
0.19532234966754913 0.2550753355026245 0.4340621531009674
0.14641514420509338 0.21234527230262756 0.45397499203681946
0.25967246294021606 0.20384469628334045 0.41062918305397034
0.3025033175945282 0.2961493730545044 0.5618731379508972
0.23350299894809723 0.38924577832221985 0.45626628398895264
0.2504115402698517 0.26667162775993347 0.4495444595813751
0.128437802195549 0.2625359296798706 0.41188353300094604
0.1386125385761261 0.2887960970401764 0.4495789408683777
0.17336289584636688 0.21136176586151123 0.5874229073524475
0.18207576870918274 0.32895374298095703 0.5070570707321167
0.15248441696166992 0.2584528625011444 0.4154810309410095
0.31587764620780945 0.2702668309211731 0.5752000212669373
0.1290062814950943 0.33501163125038147 0.4850243031978607
0.32161030173301697 0.2421000450849533 0.4228155016899109
0.3356480598449707 0.24991072714328766 0.5870394110679626
0.1321602463722229 0.3174038529396057 0.4460988938808441
0.1470727026462555 0.32127273082733154 0.5868806838989258
0.3140132427215576 0.2908686101436615 0.5533450245857239
0.19876138865947723 0.29336050152778625 0.5043492317199707
0.18131165206432343 0.2722194194793701 0.49159136414527893
0.16779427230358124 0.3234359323978424 0.42677831649780273
0.23764568567276 0.18397438526153564 0.5059632658958435
0.2544845938682556 0.18707619607448578 0.478674978017807
0.24537350237369537 0.38495105504989624 0.45857149362564087
0.18380607664585114 0.2718064486980438 0.505595326423645
0.19477905333042145 0.19177700579166412 0.4667894244194031
0.12894447147846222 0.324972540140152 0.4663539230823517
0.22869262099266052 0.2063087821006775 0.5406689047813416
0.24257341027259827 0.20194149017333984 0.5647091269493103
0.1621595025062561 0.3524349331855774 0.5682883858680725
0.25296908617019653 0.40931183099746704 0.4205136299133301
0.1743469536304474 0.28037962317466736 0.45892539620399475
0.29600298404693604 0.3332459032535553 0.5489440560340881
0.18636655807495117 0.3258848190307617 0.5790812373161316
0.14419198036193848 0.3419424593448639 0.48380181193351746
0.25198984146118164 0.3010154068470001 0.5372300744056702
0.20732617378234863 0.3751339614391327 0.42059004306793213
0.28832578659057617 0.32672154903411865 0.44532445073127747
0.18154026567935944 0.16259974241256714 0.5439953207969666
0.13611052930355072 0.33497676253318787 0.48500916361808777
0.24805660545825958 0.33420655131340027 0.47066351771354675
0.1240423247218132 0.26581263542175293 0.5083118677139282
0.24710094928741455 0.3374745845794678 0.4981004297733307
0.2325577586889267 0.1936665177345276 0.40498626232147217
0.20092685520648956 0.345428466796875 0.5673840641975403
0.2897597849369049 0.3010890483856201 0.5030390620231628
0.17477519810199738 0.29535675048828125 0.49482908844947815
0.21910667419433594 0.22186043858528137 0.5706597566604614
0.2221839278936386 0.1681317687034607 0.5032156705856323
0.19993160665035248 0.1577950417995453 0.5044945478439331
0.2589413821697235 0.18740566074848175 0.5898973941802979
0.16349467635154724 0.20835617184638977 0.4079066216945648
0.10904597491025925 0.2998659610748291 0.6036854386329651
0.24631226062774658 0.23072819411754608 0.5603678226470947
0.2609412968158722 0.25017049908638 0.4538208544254303
0.21960482001304626 0.3302508294582367 0.46596696972846985
0.19733278453350067 0.1526683121919632 0.3981495201587677
0.18531861901283264 0.3623794615268707 0.4433455467224121
0.3202798068523407 0.2734687924385071 0.43182122707366943
0.19248461723327637 0.2697395384311676 0.5727936029434204
0.2320784479379654 0.19533124566078186 0.5024632215499878
0.22373008728027344 0.33555978536605835 0.47963666915893555
0.14972802996635437 0.3094730079174042 0.4801207184791565
0.26059770584106445 0.3272847831249237 0.4739420413970947
0.2076846808195114 0.3825039267539978 0.5118818879127502
0.23157714307308197 0.33018165826797485 0.5532633662223816
0.12291574478149414 0.3041703701019287 0.5358746647834778
0.1821717917919159 0.23249615728855133 0.48680832982063293
0.19085587561130524 0.22418130934238434 0.5836313366889954
0.21897543966770172 0.3903197646141052 0.45434531569480896
0.22948694229125977 0.3015902042388916 0.5637615919113159
0.26470106840133667 0.3491155505180359 0.5157334804534912
0.2289225310087204 0.21731072664260864 0.5759662985801697
0.19823281466960907 0.36549508571624756 0.5382679104804993
0.14879587292671204 0.286152184009552 0.5115781426429749
0.23375773429870605 0.2079402208328247 0.5449223518371582
0.15933407843112946 0.3567543625831604 0.40394076704978943
0.22652079164981842 0.18042345345020294 0.49112468957901
0.2580815553665161 0.22726444900035858 0.5029243230819702
0.16542015969753265 0.3286988437175751 0.5589617490768433
0.1889384686946869 0.30671924352645874 0.48885175585746765
0.2797999680042267 0.24289971590042114 0.49764034152030945
0.21590933203697205 0.1801236867904663 0.5298095345497131
0.21760505437850952 0.21913306415081024 0.5908744931221008
0.1729377806186676 0.3197350800037384 0.47027018666267395
0.16839607059955597 0.3344113826751709 0.5659096240997314
0.31123635172843933 0.2907449007034302 0.5275363326072693
0.22803853452205658 0.3781190812587738 0.48472023010253906
0.27964696288108826 0.373005211353302 0.4461682140827179
0.1592140644788742 0.21822179853916168 0.4489540755748749
0.24476376175880432 0.2001296430826187 0.5072946548461914
0.1744454950094223 0.35147103667259216 0.4924224615097046
0.16302737593650818 0.26800820231437683 0.5778111219406128
0.2491750717163086 0.22462782263755798 0.4386078119277954
0.2505190372467041 0.32343974709510803 0.44357582926750183
0.1864122450351715 0.3564873933792114 0.5096050500869751
0.30777958035469055 0.3097264766693115 0.4910062551498413
0.3078387975692749 0.26929330825805664 0.59745192527771
0.15551280975341797 0.25120341777801514 0.42044389247894287
0.17180992662906647 0.35026514530181885 0.5766213536262512
0.24198788404464722 0.3788585066795349 0.5450679063796997
0.24681085348129272 0.37043944001197815 0.46302923560142517
0.22713087499141693 0.16757367551326752 0.42274779081344604
0.19799478352069855 0.3501681387424469 0.5436854362487793
0.2428855150938034 0.38980647921562195 0.5839986205101013
0.1379673182964325 0.21860675513744354 0.5132870078086853
0.20227102935314178 0.3720385432243347 0.5227818489074707
0.1451210081577301 0.20232819020748138 0.583180844783783
0.2870599925518036 0.3043474555015564 0.5545709133148193
0.22434313595294952 0.1736457347869873 0.5479303002357483
0.14477916061878204 0.262611448764801 0.5768219828605652
0.28681614995002747 0.3420974314212799 0.5475024580955505
0.16212621331214905 0.23190751671791077 0.5406544804573059
0.24521273374557495 0.2740246057510376 0.5990962982177734
0.2293063998222351 0.36334794759750366 0.5457016825675964
0.2467644363641739 0.23358839750289917 0.5585371851921082
0.30829504132270813 0.2781253755092621 0.5853155851364136
0.2040502429008484 0.19748713076114655 0.5941749215126038
0.2907903492450714 0.2716900706291199 0.4340335428714752
0.2674793004989624 0.20907096564769745 0.5346091985702515
0.33888834714889526 0.24454480409622192 0.5402477383613586
0.19305463135242462 0.26166921854019165 0.45315971970558167
0.2592424154281616 0.23483866453170776 0.43417227268218994
0.20277033746242523 0.33807244896888733 0.5961506962776184
0.16288946568965912 0.3401312232017517 0.5710346102714539
0.2103109210729599 0.2735406458377838 0.4888651669025421
0.3082691729068756 0.30176305770874023 0.5713775157928467
0.20456871390342712 0.38674965500831604 0.43376001715660095
0.13224509358406067 0.29613208770751953 0.47143909335136414
0.2197723537683487 0.23734711110591888 0.44584137201309204
0.303791344165802 0.27540189027786255 0.48921021819114685
0.25886380672454834 0.2516227960586548 0.5044353604316711
0.19429391622543335 0.27697890996932983 0.5330033898353577
0.17983178794384003 0.20951730012893677 0.48892104625701904
0.27779749035835266 0.21166546642780304 0.433663934469223
0.23557902872562408 0.3361205756664276 0.49942129850387573
0.3000369369983673 0.2236962616443634 0.45139235258102417
0.2463834583759308 0.23411411046981812 0.5643112063407898
0.13536669313907623 0.2688888609409332 0.5874267816543579
0.26518234610557556 0.3644811511039734 0.5734979510307312
0.20183804631233215 0.15328143537044525 0.47192826867103577
0.32643771171569824 0.2715296745300293 0.5840821862220764
0.13510000705718994 0.32046058773994446 0.5790552496910095
0.2837531566619873 0.23863834142684937 0.5210679769515991
0.22102920711040497 0.2610398530960083 0.52460116147995
0.22102920711040497 0.2610398530960083 0.52460116147995
0.1250826120376587 0.2958487272262573 0.41249486804008484
0.15390905737876892 0.1882861852645874 0.5771124362945557
0.2609410881996155 0.333884060382843 0.5761293768882751
0.15477941930294037 0.3060346245765686 0.5784193277359009
0.18887411057949066 0.33483874797821045 0.5464271903038025
0.23056310415267944 0.19770607352256775 0.5161070227622986
0.324655681848526 0.27060461044311523 0.5704318284988403
0.13127470016479492 0.31847479939460754 0.5974195599555969
0.31122997403144836 0.2956194579601288 0.5808172225952148
0.3109363913536072 0.2303319126367569 0.5241257548332214
0.12792187929153442 0.32774868607521057 0.5979061126708984
0.24339382350444794 0.23465503752231598 0.47551673650741577
0.19124092161655426 0.2891480326652527 0.42157021164894104
0.17301663756370544 0.19680778682231903 0.568537712097168
0.2113456428050995 0.22162353992462158 0.5520452857017517
0.22622954845428467 0.30674901604652405 0.4694839417934418
0.13536669313907623 0.2688888609409332 0.5874267816543579
0.26518234610557556 0.3644811511039734 0.5734979510307312
0.20183804631233215 0.15328143537044525 0.47192826867103577
0.32643771171569824 0.2715296745300293 0.5840821862220764
0.13510000705718994 0.32046058773994446 0.5790552496910095
0.13510000705718994 0.32046058773994446 0.5790552496910095
0.2837531566619873 0.23863834142684937 0.5210679769515991
0.22102920711040497 0.2610398530960083 0.52460116147995
0.1250826120376587 0.2958487272262573 0.41249486804008484
0.15390905737876892 0.1882861852645874 0.5771124362945557
0.26179221272468567 0.3623366951942444 0.5668643712997437
0.14419198036193848 0.3419424593448639 0.48380181193351746
0.23370887339115143 0.2291262149810791 0.5693774223327637
0.1469479352235794 0.2137402892112732 0.5723938941955566
0.22115600109100342 0.17757634818553925 0.509689211845398
0.1451210081577301 0.20232819020748138 0.583180844783783
0.2870599925518036 0.3043474555015564 0.5545709133148193
0.21567443013191223 0.37234628200531006 0.5018540620803833
0.3369758427143097 0.26000499725341797 0.5240426063537598
0.2128409594297409 0.3054688274860382 0.4201129078865051
0.21198147535324097 0.3001050353050232 0.5986019372940063
0.30829504132270813 0.2781253755092621 0.5853155851364136
0.2040502429008484 0.19748713076114655 0.5941749215126038
0.2907903492450714 0.2716900706291199 0.4340335428714752
0.20747338235378265 0.2883172631263733 0.4435972273349762
0.2400464415550232 0.2365541160106659 0.5066945552825928
0.19248461723327637 0.2697395384311676 0.5727936029434204
0.2320784479379654 0.19533124566078186 0.5024632215499878
0.22373008728027344 0.33555978536605835 0.47963666915893555
0.14972802996635437 0.3094730079174042 0.4801207184791565
0.26059770584106445 0.3272847831249237 0.4739420413970947
0.22622954845428467 0.30674901604652405 0.4694839417934418
0.20183804631233215 0.15328143537044525 0.47192826867103577
0.13510000705718994 0.32046058773994446 0.5790552496910095
0.13510000705718994 0.32046058773994446 0.5790552496910095
0.2837531566619873 0.23863834142684937 0.5210679769515991
0.22102920711040497 0.2610398530960083 0.52460116147995
0.1250826120376587 0.2958487272262573 0.41249486804008484
0.17239701747894287 0.2011997103691101 0.5919855237007141
0.26179221272468567 0.3623366951942444 0.5668643712997437
0.14419198036193848 0.3419424593448639 0.48380181193351746
0.25198984146118164 0.3010154068470001 0.5372300744056702
0.20732617378234863 0.3751339614391327 0.42059004306793213
0.28832578659057617 0.32672154903411865 0.44532445073127747
0.18154026567935944 0.16259974241256714 0.5439953207969666
0.1451210081577301 0.20232819020748138 0.583180844783783
0.2870599925518036 0.3043474555015564 0.5545709133148193
0.21567443013191223 0.37234628200531006 0.5018540620803833
0.3369758427143097 0.26000499725341797 0.5240426063537598
0.2128409594297409 0.3054688274860382 0.4201129078865051
0.2293063998222351 0.36334794759750366 0.5457016825675964
0.2467644363641739 0.23358839750289917 0.5585371851921082
0.30829504132270813 0.2781253755092621 0.5853155851364136
0.2040502429008484 0.19748713076114655 0.5941749215126038
0.2907903492450714 0.2716900706291199 0.4340335428714752
0.2674793004989624 0.20907096564769745 0.5346091985702515
0.3376189172267914 0.25339391827583313 0.5502803921699524
0.2381778359413147 0.31297221779823303 0.47413545846939087
0.19248461723327637 0.2697395384311676 0.5727936029434204
0.2320784479379654 0.19533124566078186 0.5024632215499878
0.22373008728027344 0.33555978536605835 0.47963666915893555
0.14972802996635437 0.3094730079174042 0.4801207184791565
0.26059770584106445 0.3272847831249237 0.4739420413970947
0.23350821435451508 0.22704190015792847 0.542485773563385
0.2629125118255615 0.4097788631916046 0.4195869565010071
0.210103839635849 0.21675550937652588 0.49884697794914246
0.19770650565624237 0.1807757169008255 0.5741524696350098
0.30498597025871277 0.32697927951812744 0.4983941614627838
0.18111486732959747 0.28429335355758667 0.5881513357162476
0.11881684511899948 0.28054332733154297 0.44747206568717957
0.18794949352741241 0.24517793953418732 0.5570681095123291
0.19471320509910583 0.17739377915859222 0.5932808518409729
0.1626151204109192 0.27309027314186096 0.5804100632667542
0.2474879026412964 0.24549518525600433 0.45923569798469543
0.2258336842060089 0.19882513582706451 0.4420725405216217
0.23840907216072083 0.39041924476623535 0.5224018096923828
0.12030857056379318 0.313215970993042 0.5325995683670044
0.24749845266342163 0.39105579257011414 0.5996306538581848
0.3004601001739502 0.2423393577337265 0.5698546171188354
0.2651471495628357 0.3579552471637726 0.5233749747276306
0.29722851514816284 0.24982516467571259 0.5046644806861877
0.23247669637203217 0.28359255194664 0.5333479642868042
0.14350110292434692 0.2527426481246948 0.5561538338661194
0.25205811858177185 0.38514748215675354 0.4889541566371918
0.13003362715244293 0.2569664418697357 0.4069875180721283
0.17232997715473175 0.2585991322994232 0.48356592655181885
0.23267720639705658 0.3245132863521576 0.4836485683917999
0.3089558184146881 0.2798934578895569 0.4910508692264557
0.3080168068408966 0.238708958029747 0.4037679135799408
0.18532676994800568 0.24340654909610748 0.45155900716781616
0.2618860900402069 0.21310074627399445 0.5651042461395264
0.22612512111663818 0.21543806791305542 0.5790877342224121
0.318846195936203 0.25267380475997925 0.5452229380607605
0.18987710773944855 0.3713354468345642 0.5064452886581421
0.1739468276500702 0.29002469778060913 0.5632324814796448
0.18035957217216492 0.2618420720100403 0.5838820934295654
0.14582611620426178 0.25194239616394043 0.5367560982704163
0.28338703513145447 0.20813992619514465 0.4632854759693146
0.16882123053073883 0.19860997796058655 0.47278261184692383
0.26129525899887085 0.3039804995059967 0.4932011663913727
0.2854173183441162 0.25630196928977966 0.4035784602165222
0.18949225544929504 0.3768409192562103 0.475644052028656
0.28884032368659973 0.2283799648284912 0.4537862539291382
0.17828194797039032 0.3317868411540985 0.5942704081535339
0.2580909729003906 0.275360643863678 0.4580784738063812
0.2855250835418701 0.27929818630218506 0.4617525041103363
0.12258407473564148 0.26471370458602905 0.5413371920585632
0.1661680042743683 0.3051856458187103 0.41406556963920593
0.28113600611686707 0.3181266188621521 0.5223989486694336
0.3534756600856781 0.2539176940917969 0.44318750500679016
0.26804348826408386 0.38518989086151123 0.4334614872932434
0.2571738362312317 0.3170272409915924 0.44924309849739075
0.12086821347475052 0.27682435512542725 0.5238847136497498
0.2392789125442505 0.2986702024936676 0.5500456094741821
0.16064363718032837 0.2332628220319748 0.4969436824321747
0.2022855579853058 0.26290637254714966 0.4243660271167755
0.2626306116580963 0.4038850963115692 0.46885859966278076
0.23379798233509064 0.3849219083786011 0.5213240385055542
0.16273394227027893 0.2206755429506302 0.4159928560256958
0.1666378229856491 0.30224552750587463 0.5087653994560242
0.2367061823606491 0.3247561752796173 0.5417643189430237
0.17757920920848846 0.22895547747612 0.5697280764579773
0.20053613185882568 0.20049217343330383 0.4615446925163269
0.24364039301872253 0.29824408888816833 0.44088315963745117
0.18527641892433167 0.28311222791671753 0.4791891276836395
0.15126143395900726 0.27470195293426514 0.5590649247169495
0.12032980471849442 0.3252033293247223 0.4152109622955322
0.29567164182662964 0.2267666459083557 0.5857180953025818
0.1626891940832138 0.26972121000289917 0.5096810460090637
0.23544254899024963 0.3637080788612366 0.5543579459190369
0.2477794587612152 0.4099441468715668 0.4840754568576813
0.13719744980335236 0.24059142172336578 0.5703437328338623
0.2552255392074585 0.4181852638721466 0.4188194274902344
0.33417078852653503 0.24239718914031982 0.5130434632301331
0.19497378170490265 0.34408023953437805 0.4940808117389679
0.12901955842971802 0.32552459836006165 0.4275643825531006
0.16122597455978394 0.24290823936462402 0.41738805174827576
0.18945659697055817 0.32450389862060547 0.41568130254745483
0.19224819540977478 0.14776991307735443 0.4540434181690216
0.26743870973587036 0.18806934356689453 0.5448037385940552
0.3396194577217102 0.27411916851997375 0.44912150502204895
0.30241528153419495 0.25767219066619873 0.5061909556388855
0.21272791922092438 0.2485877126455307 0.592613697052002
0.22019226849079132 0.2491934895515442 0.44874781370162964
0.12845973670482635 0.3258185088634491 0.46537721157073975
0.1480051428079605 0.2479003518819809 0.44000306725502014
0.2357797622680664 0.28261616826057434 0.5414518713951111
0.23720286786556244 0.30983278155326843 0.41354134678840637
0.20241984724998474 0.3023748993873596 0.4509950578212738
0.19635559618473053 0.2730688750743866 0.47890985012054443
0.19176052510738373 0.2442196160554886 0.571363091468811
0.20487001538276672 0.36146482825279236 0.49667197465896606
0.1804676204919815 0.18447251617908478 0.42249804735183716
0.23006051778793335 0.171441450715065 0.4675147533416748
0.19816890358924866 0.2757781744003296 0.4378873407840729
0.2879180312156677 0.2282388061285019 0.40165215730667114
0.15349236130714417 0.2477070540189743 0.5986310839653015
0.27170172333717346 0.2947550415992737 0.4141164720058441
0.22728919982910156 0.270047664642334 0.4428282082080841
0.26989081501960754 0.22004035115242004 0.5097350478172302
0.3202798068523407 0.2734687924385071 0.43182122707366943
0.19248461723327637 0.2697395384311676 0.5727936029434204
0.2320784479379654 0.19533124566078186 0.5024632215499878
0.22373008728027344 0.33555978536605835 0.47963666915893555
0.14972802996635437 0.3094730079174042 0.4801207184791565
0.26059770584106445 0.3272847831249237 0.4739420413970947
0.2076846808195114 0.3825039267539978 0.5118818879127502
0.16234250366687775 0.23322543501853943 0.5358250737190247
0.19874443113803864 0.15864095091819763 0.4782235622406006
0.2842083275318146 0.2750757932662964 0.5253697037696838
0.2756030857563019 0.31850436329841614 0.43580716848373413
0.3309175968170166 0.27332958579063416 0.505214512348175
0.15643221139907837 0.2631506621837616 0.5191384553909302
0.15325118601322174 0.19952704012393951 0.5454326868057251
0.2708525061607361 0.3053572475910187 0.4514673054218292
0.1290062814950943 0.33501163125038147 0.4850243031978607
0.25964659452438354 0.30010518431663513 0.5742471814155579
0.14602327346801758 0.31085044145584106 0.4317517578601837
0.2354629635810852 0.2819887697696686 0.5057510733604431
0.21596723794937134 0.29370707273483276 0.5811349749565125
0.16611722111701965 0.2033306062221527 0.4438215494155884
0.27426135540008545 0.26056912541389465 0.5311681032180786
