ply
format ascii 1.0
element vertex 832
property float x
property float y
property float z
end_header
0.6514443159103394 0.267083078622818 0.4386588931083679
0.7605102062225342 0.26950424909591675 0.4090268611907959
0.7359866499900818 0.38025107979774475 0.43550094962120056
0.8086280822753906 0.37439796328544617 0.5728225111961365
0.8050336837768555 0.3635912537574768 0.5857052803039551
0.6760733127593994 0.39972761273384094 0.5079405307769775
0.7098069190979004 0.2404979020357132 0.5652329921722412
0.8204544186592102 0.26972687244415283 0.4289429485797882
0.7779300212860107 0.35234472155570984 0.5391560196876526
0.8130543828010559 0.2613377869129181 0.4148586094379425
0.6645094752311707 0.27004897594451904 0.41895073652267456
0.8043979406356812 0.21467241644859314 0.5701022148132324
0.6540933847427368 0.23536142706871033 0.45081427693367004
0.671490490436554 0.31556835770606995 0.481727659702301
0.7178503274917603 0.23409341275691986 0.4945600628852844
0.8065941333770752 0.3680405616760254 0.4251335561275482
0.7829203605651855 0.22836604714393616 0.4156906306743622
0.6897671222686768 0.40182292461395264 0.5022244453430176
0.7472522854804993 0.29692089557647705 0.5436081886291504
0.6670308709144592 0.19988086819648743 0.5219470858573914
0.7520291805267334 0.31385689973831177 0.3986181318759918
0.822221577167511 0.37946900725364685 0.5054059028625488
0.8224349617958069 0.3941773474216461 0.5283584594726562
0.7832885980606079 0.38606908917427063 0.4535892605781555
0.7701976895332336 0.38046231865882874 0.471942663192749
0.8130543828010559 0.2613377869129181 0.4148586094379425
0.6645094752311707 0.27004897594451904 0.41895073652267456
0.8043979406356812 0.21467241644859314 0.5701022148132324
0.7820318341255188 0.2750624418258667 0.5096555948257446
0.6540933847427368 0.23536142706871033 0.45081427693367004
0.671490490436554 0.31556835770606995 0.481727659702301
0.8248383402824402 0.36099761724472046 0.46819165349006653
0.7149456739425659 0.34073731303215027 0.4491737484931946
0.6987862586975098 0.2024925798177719 0.5045962929725647
0.8247939944267273 0.2677007019519806 0.42582106590270996
0.7633703947067261 0.2887623906135559 0.5868588089942932
0.8161109685897827 0.2046099454164505 0.5535839200019836
0.6518806219100952 0.3600095808506012 0.5227599143981934
0.7456948757171631 0.3499327301979065 0.5561254620552063
0.7209963202476501 0.25984200835227966 0.5682666897773743
0.8381986021995544 0.2517506182193756 0.5192006230354309
0.8384619355201721 0.30980679392814636 0.534697413444519
0.8068177700042725 0.3841964304447174 0.4652446508407593
0.7679069638252258 0.37815186381340027 0.5440016984939575
0.7686473727226257 0.40592819452285767 0.44422024488449097
0.778917133808136 0.22608599066734314 0.48969754576683044
0.6937419772148132 0.21854834258556366 0.5790233612060547
0.8153377771377563 0.25267982482910156 0.46850746870040894
0.7389545440673828 0.3291013836860657 0.4440810978412628
0.6931107044219971 0.21623288094997406 0.449791818857193
0.7641317248344421 0.3329387903213501 0.5580437779426575
0.8169906735420227 0.24556386470794678 0.44452086091041565
0.7921948432922363 0.2505047917366028 0.45231959223747253
0.7996964454650879 0.22697050869464874 0.44883114099502563
0.6583089232444763 0.24885091185569763 0.4354761242866516
0.7002163529396057 0.36417272686958313 0.5159682631492615
0.7415403723716736 0.24718497693538666 0.42657142877578735
0.7747392654418945 0.4014568626880646 0.5168750286102295
0.714283287525177 0.26323601603507996 0.5830559730529785
0.6889099478721619 0.34098199009895325 0.5825393199920654
0.7740420699119568 0.345005065202713 0.5069794654846191
0.7927473187446594 0.2564023733139038 0.5325556993484497
0.7215871214866638 0.2648625671863556 0.5355587005615234
0.751682698726654 0.2663058042526245 0.49271973967552185
0.8254284262657166 0.23086947202682495 0.4688693881034851
0.6938937306404114 0.20547007024288177 0.5575578808784485
0.7597029209136963 0.2430073469877243 0.3921425938606262
0.7348771691322327 0.24899092316627502 0.5633082389831543
0.6811049580574036 0.3574933111667633 0.44988560676574707
0.7788454294204712 0.39568573236465454 0.4599181115627289
0.6697549819946289 0.198846235871315 0.5165265798568726
0.723656415939331 0.40483400225639343 0.4344601631164551
0.8514137268066406 0.22154411673545837 0.5350847840309143
0.6405209898948669 0.36595311760902405 0.46432510018348694
0.6977429986000061 0.19802382588386536 0.5541008114814758
0.7298728823661804 0.3075354993343353 0.3980293869972229
0.8091144561767578 0.25220245122909546 0.4367653429508209
0.728563666343689 0.27567049860954285 0.40555816888809204
0.7434921264648438 0.21782313287258148 0.4597979784011841
0.822221577167511 0.37946900725364685 0.5054059028625488
0.6783248782157898 0.37963029742240906 0.5918567776679993
0.7566293478012085 0.24701236188411713 0.5017261505126953
0.6771643757820129 0.2055886834859848 0.4574962556362152
0.8334245085716248 0.24978600442409515 0.549882709980011
0.8136470913887024 0.31942683458328247 0.47627055644989014
0.7845903635025024 0.409370481967926 0.4679517149925232
0.7894866466522217 0.2539016306400299 0.44384536147117615
0.7934566140174866 0.2478925585746765 0.46335914731025696
0.8091000318527222 0.3183671236038208 0.4015957713127136
0.7471465468406677 0.36949288845062256 0.4317578375339508
0.7086173892021179 0.3929237425327301 0.4326855540275574
0.6946735978126526 0.3458656072616577 0.5242255926132202
0.7633703947067261 0.2887623906135559 0.5868588089942932
0.8161109685897827 0.2046099454164505 0.5535839200019836
0.6518806219100952 0.3600095808506012 0.5227599143981934
0.7456948757171631 0.3499327301979065 0.5561254620552063
0.7209963202476501 0.25984200835227966 0.5682666897773743
0.8381986021995544 0.2517506182193756 0.5192006230354309
0.8384619355201721 0.30980679392814636 0.534697413444519
0.8068177700042725 0.3841964304447174 0.4652446508407593
0.7552706003189087 0.3675173819065094 0.5297081470489502
0.731995165348053 0.3867380917072296 0.42484891414642334
0.703821063041687 0.2292165756225586 0.5032821893692017
0.7174904346466064 0.3136064112186432 0.42098891735076904
0.6496454477310181 0.37926456332206726 0.5730733275413513
0.8169506192207336 0.2766786813735962 0.5060707330703735
0.783971905708313 0.2877720594406128 0.5634541511535645
0.7652730941772461 0.35134896636009216 0.43788865208625793
0.7801896333694458 0.3311048150062561 0.464400053024292
0.8171053528785706 0.23057693243026733 0.43126434087753296
0.8153377771377563 0.25267982482910156 0.46850746870040894
0.7389545440673828 0.3291013836860657 0.4440810978412628
0.6931107044219971 0.21623288094997406 0.449791818857193
0.7641317248344421 0.3329387903213501 0.5580437779426575
0.8169906735420227 0.24556386470794678 0.44452086091041565
0.7921948432922363 0.2505047917366028 0.45231959223747253
0.7996964454650879 0.22697050869464874 0.44883114099502563
0.6892868280410767 0.25524431467056274 0.5815170407295227
0.7655814290046692 0.28706055879592896 0.5433791875839233
0.82228022813797 0.232427179813385 0.5028859376907349
0.7108456492424011 0.19941046833992004 0.5784773230552673
0.6766749024391174 0.24494914710521698 0.43164941668510437
0.6859863996505737 0.2737504243850708 0.5262587070465088
0.732907772064209 0.26649215817451477 0.5371828675270081
0.6907097101211548 0.2894449830055237 0.5397452712059021
0.7689626812934875 0.25718954205513 0.41989487409591675
0.6495761871337891 0.3841070830821991 0.4379274249076843
0.668559193611145 0.2888728380203247 0.588910698890686
0.7843392491340637 0.3928990662097931 0.5616708397865295
0.7370708584785461 0.341218501329422 0.5095852613449097
0.7348771691322327 0.24899092316627502 0.5633082389831543
0.702785313129425 0.35623860359191895 0.5445897579193115
0.6805511116981506 0.3568853735923767 0.45056405663490295
0.769908607006073 0.3868514597415924 0.49500414729118347
0.70803302526474 0.24526147544384003 0.39879706501960754
0.8242750763893127 0.3287724554538727 0.4581131935119629
0.7220396399497986 0.23093447089195251 0.410116970539093
0.7563405632972717 0.31024447083473206 0.5797335505485535
0.695188045501709 0.3569943606853485 0.5405886769294739
0.7015999555587769 0.3183811902999878 0.41807276010513306
0.8184919953346252 0.4021168649196625 0.5171412229537964
0.7509995698928833 0.407278835773468 0.4535667598247528
0.8153377771377563 0.25267982482910156 0.46850746870040894
0.7597029209136963 0.2430073469877243 0.3921425938606262
0.7415643334388733 0.3313419818878174 0.48354169726371765
0.7034220099449158 0.192267507314682 0.557627260684967
0.7384383678436279 0.3261813819408417 0.579666793346405
0.8314360976219177 0.24588404595851898 0.47799280285835266
0.6847400665283203 0.27188578248023987 0.5066373348236084
0.7059149146080017 0.26851093769073486 0.4711662828922272
0.7734527587890625 0.33742332458496094 0.5494306683540344
0.6715719103813171 0.2629792094230652 0.5038970708847046
0.729965090751648 0.33608368039131165 0.5255572199821472
0.807183027267456 0.3574811816215515 0.5092349648475647
0.7865115404129028 0.35768750309944153 0.41516703367233276
0.6794745922088623 0.4062691330909729 0.4633978009223938
0.723284900188446 0.25600314140319824 0.5469016432762146
0.7337859272956848 0.385765016078949 0.5192252993583679
0.7808629274368286 0.33665403723716736 0.48647403717041016
0.7133985161781311 0.2967175543308258 0.562940776348114
0.674982488155365 0.3109833002090454 0.5435725450515747
0.7764727473258972 0.2796986997127533 0.5830198526382446
0.6904855370521545 0.22369465231895447 0.5723272562026978
0.8176416158676147 0.25380539894104004 0.423669695854187
0.6937660574913025 0.24893030524253845 0.4476197361946106
0.7107114791870117 0.2795521914958954 0.591798722743988
0.8217041492462158 0.281978040933609 0.4237978458404541
0.6961771249771118 0.22405168414115906 0.5827786326408386
0.8150448799133301 0.38016968965530396 0.4927467703819275
0.7971010804176331 0.2361866980791092 0.4659600555896759
0.8367782235145569 0.22094108164310455 0.5253663659095764
0.7784714698791504 0.3561386168003082 0.5484455227851868
0.6898334622383118 0.4148123264312744 0.45575883984565735
0.6389616131782532 0.3623369038105011 0.46945062279701233
0.7359866499900818 0.38025107979774475 0.43550094962120056
0.6898546814918518 0.41227880120277405 0.441118448972702
0.7623910307884216 0.4036791920661926 0.4296785295009613
0.6713110208511353 0.28807973861694336 0.5176511406898499
0.7017282247543335 0.3785647749900818 0.4711607098579407
0.7978684902191162 0.29526397585868835 0.3981822729110718
0.8339347839355469 0.24469171464443207 0.5282447934150696
0.8165720701217651 0.27810171246528625 0.5459678173065186
0.6906857490539551 0.3234785795211792 0.4110976457595825
0.8416427373886108 0.24811024963855743 0.5295232534408569
0.7692704796791077 0.23591017723083496 0.5334845185279846
0.6854488253593445 0.3394283056259155 0.5254433751106262
0.719336211681366 0.3227202892303467 0.5274571776390076
0.8164050579071045 0.281342476606369 0.44682398438453674
0.7553006410598755 0.23245373368263245 0.4498017132282257
0.6825137138366699 0.36120107769966125 0.5827687382698059
0.6558982729911804 0.37005844712257385 0.5310611724853516
0.7922319173812866 0.32153749465942383 0.44168078899383545
0.7282657027244568 0.37112846970558167 0.4373829960823059
0.7796583771705627 0.2665776312351227 0.5129005908966064
0.7932435870170593 0.38321420550346375 0.49171170592308044
0.6788641810417175 0.2866581976413727 0.4788358211517334
0.6802592873573303 0.22418595850467682 0.46543535590171814
0.7635747790336609 0.23770272731781006 0.42334723472595215
0.6785083413124084 0.25098222494125366 0.5521088242530823
0.7160155773162842 0.36798158288002014 0.5305452346801758
0.7903559803962708 0.20368818938732147 0.5579313039779663
0.7070721387863159 0.37712863087654114 0.4499755799770355
0.774088978767395 0.24269522726535797 0.5515379309654236
0.7584900259971619 0.4031641483306885 0.48784953355789185
0.7539327144622803 0.36540329456329346 0.4370182752609253
0.6860038042068481 0.3405027985572815 0.6089935302734375
0.7138152122497559 0.20034459233283997 0.5278123617172241
0.7703266143798828 0.3309463858604431 0.4839033782482147
0.7431434392929077 0.31748196482658386 0.49498796463012695
0.6836882829666138 0.2655874788761139 0.5442177057266235
0.7850825786590576 0.4035950303077698 0.46270158886909485
0.7697028517723083 0.2700965702533722 0.5205451250076294
0.7081857323646545 0.40723586082458496 0.45102164149284363
0.7320505380630493 0.41212743520736694 0.43019160628318787
0.8125849366188049 0.3829660713672638 0.4178558886051178
0.8333446979522705 0.29593703150749207 0.42830923199653625
0.7066854238510132 0.26136404275894165 0.42331328988075256
0.7553828954696655 0.20228245854377747 0.5283286571502686
0.7395009398460388 0.30109548568725586 0.4955408275127411
0.7196279764175415 0.28288552165031433 0.4281705617904663
0.6884552836418152 0.37365594506263733 0.49145591259002686
0.751973032951355 0.2867308557033539 0.5506065487861633
0.7707377672195435 0.39580345153808594 0.49034255743026733
0.7220744490623474 0.2735699713230133 0.40535521507263184
0.7067756056785583 0.37734490633010864 0.432437002658844
0.7584102749824524 0.3854949474334717 0.44005826115608215
0.8228006958961487 0.3144994378089905 0.5521628260612488
0.6889050006866455 0.2294750064611435 0.39765647053718567
0.7300357222557068 0.3826829493045807 0.6091874241828918
0.7545953392982483 0.22926932573318481 0.4166223704814911
0.7276234030723572 0.3029634654521942 0.5720040798187256
0.8367548584938049 0.25536033511161804 0.4611944556236267
0.6755728721618652 0.3137541115283966 0.4452243745326996
0.7693793177604675 0.33694055676460266 0.591463565826416
0.7635526657104492 0.38306093215942383 0.5305647253990173
0.8113004565238953 0.3165105879306793 0.4080654978752136
0.8066525459289551 0.32225796580314636 0.3972584009170532
0.6854244470596313 0.35518795251846313 0.49986961483955383
0.6555024981498718 0.39407896995544434 0.4921850860118866
0.751682698726654 0.2663058042526245 0.49271973967552185
0.8254284262657166 0.23086947202682495 0.4688693881034851
0.6938937306404114 0.20547007024288177 0.5575578808784485
0.7387778759002686 0.2550085186958313 0.5583801865577698
0.7057186365127563 0.3539460003376007 0.5459950566291809
0.6898270845413208 0.3529353737831116 0.48329830169677734
0.7703266143798828 0.3309463858604431 0.4839033782482147
0.7431434392929077 0.31748196482658386 0.49498796463012695
0.7375349402427673 0.27685922384262085 0.49957045912742615
0.8089965581893921 0.2368534654378891 0.42261403799057007
0.7070837616920471 0.23744839429855347 0.43338513374328613
0.7932698130607605 0.23801898956298828 0.5633167028427124
0.7096532583236694 0.3729947507381439 0.43104493618011475
0.679669976234436 0.3747408390045166 0.5410940051078796
0.8196703791618347 0.2829764783382416 0.4353898763656616
0.7414554357528687 0.33184191584587097 0.5062541365623474
0.7984806895256042 0.24447566270828247 0.5698849558830261
0.811622679233551 0.2392677515745163 0.41843634843826294
0.7367953062057495 0.20664699375629425 0.5020768642425537
0.7369451522827148 0.23657579720020294 0.38509678840637207
0.6817211508750916 0.38086408376693726 0.5437451004981995
0.8098481297492981 0.26811039447784424 0.49624359607696533
0.6996465921401978 0.2044280469417572 0.5447774529457092
0.7165765762329102 0.3757564127445221 0.5742174983024597
0.6531772017478943 0.33586031198501587 0.48775890469551086
0.7268267273902893 0.24308213591575623 0.5693068504333496
0.7804492115974426 0.3244841694831848 0.5262836217880249
0.8251956105232239 0.3877831697463989 0.5154990553855896
0.6907024383544922 0.21032051742076874 0.5129733085632324
0.8135101795196533 0.3794728219509125 0.4171259105205536
0.7043360471725464 0.26057347655296326 0.5078425407409668
0.7805880904197693 0.24646112322807312 0.42153483629226685
0.7222821116447449 0.2632434368133545 0.40101954340934753
0.8330029249191284 0.22548839449882507 0.527626097202301
0.706616997718811 0.31296873092651367 0.4813559651374817
0.7256237268447876 0.31206831336021423 0.5400198101997375
0.7912588119506836 0.3891036808490753 0.47324246168136597
0.6716644763946533 0.3639926016330719 0.46964749693870544
0.6894486546516418 0.3040770888328552 0.5088976621627808
0.7730995416641235 0.34999987483024597 0.4736112058162689
0.7883830666542053 0.3301506042480469 0.537868082523346
0.7525361776351929 0.3485787808895111 0.5180404782295227
0.7922948598861694 0.3920304775238037 0.4532049596309662
0.7040136456489563 0.3490918278694153 0.608566164970398
0.8416427373886108 0.24811024963855743 0.5295232534408569
0.8142950534820557 0.3316170275211334 0.4850536584854126
0.7668325901031494 0.2082471400499344 0.5598547458648682
0.8191950917243958 0.3596429228782654 0.5672959685325623
0.6889182329177856 0.271312952041626 0.40869811177253723
0.7195515036582947 0.2557500898838043 0.4140318036079407
0.7053112983703613 0.3166999816894531 0.5489908456802368
0.7785422801971436 0.3315989375114441 0.42095646262168884
0.7827699780464172 0.38313138484954834 0.4595581293106079
0.6561720371246338 0.31690075993537903 0.43119052052497864
0.7433717846870422 0.27181944251060486 0.5301847457885742
0.7157343029975891 0.36327898502349854 0.48949146270751953
0.8187935948371887 0.29307129979133606 0.5524543523788452
0.6595162153244019 0.21350499987602234 0.4301130175590515
0.6658939123153687 0.35047784447669983 0.6121448874473572
0.7451758980751038 0.2790586054325104 0.4819093644618988
0.7237173318862915 0.3566858470439911 0.5637127161026001
0.6730670928955078 0.34680238366127014 0.5543500185012817
0.7334731221199036 0.31534886360168457 0.4124707281589508
0.7302485704421997 0.22805097699165344 0.4795174300670624
0.6569859981536865 0.37778398394584656 0.6157035231590271
0.8182446360588074 0.25277334451675415 0.5200452208518982
0.7911054491996765 0.3733046352863312 0.605089008808136
0.7839308381080627 0.39055776596069336 0.5478692054748535
0.7792410850524902 0.22179891169071198 0.4820087254047394
0.831656813621521 0.291922003030777 0.5158714056015015
0.8107314109802246 0.3788102865219116 0.4925743043422699
0.7872944474220276 0.22295981645584106 0.507688581943512
0.7264730334281921 0.3682602345943451 0.560297429561615
0.6526280641555786 0.4007364809513092 0.4702052175998688
0.7794005274772644 0.24218244850635529 0.4196259081363678
0.7004911303520203 0.22969114780426025 0.456975519657135
0.6595176458358765 0.31060653924942017 0.5347974300384521
0.6460258364677429 0.3990318775177002 0.5107638835906982
0.6994416117668152 0.32312706112861633 0.44722551107406616
0.7632508277893066 0.2722167372703552 0.5819422602653503
0.7592805624008179 0.4081839323043823 0.46061965823173523
0.7258189916610718 0.32387658953666687 0.5731580257415771
0.7627518177032471 0.2639675736427307 0.490687757730484
0.7936912178993225 0.22295626997947693 0.5172618627548218
0.6868621706962585 0.3967393636703491 0.5381205677986145
0.7037814259529114 0.27296096086502075 0.5057545304298401
0.7234570384025574 0.24432891607284546 0.527679443359375
0.8179643154144287 0.23720866441726685 0.4896744191646576
0.7888051271438599 0.36517995595932007 0.5673916935920715
0.7539327144622803 0.36540329456329346 0.4370182752609253
0.6965504288673401 0.35551977157592773 0.5993553400039673
0.6882889866828918 0.291594535112381 0.5917283296585083
0.660652220249176 0.27294984459877014 0.4602445363998413
0.7642505764961243 0.29733869433403015 0.5368709564208984
0.8175561428070068 0.2798609733581543 0.5364468693733215
0.7570978403091431 0.2249682992696762 0.5376375317573547
0.6898546814918518 0.41227880120277405 0.441118448972702
0.7623910307884216 0.4036791920661926 0.4296785295009613
0.6713110208511353 0.28807973861694336 0.5176511406898499
0.7017282247543335 0.3785647749900818 0.4711607098579407
0.7978684902191162 0.29526397585868835 0.3981822729110718
0.6637037396430969 0.4077319800853729 0.4760040044784546
0.6977417469024658 0.30591654777526855 0.4951362609863281
0.7692704796791077 0.23591017723083496 0.5334845185279846
0.6854488253593445 0.3394283056259155 0.5254433751106262
0.719336211681366 0.3227202892303467 0.5274571776390076
0.6953849196434021 0.2882297933101654 0.5972938537597656
0.6825137138366699 0.36120107769966125 0.5827687382698059
0.6558982729911804 0.37005844712257385 0.5310611724853516
0.7922319173812866 0.32153749465942383 0.44168078899383545
0.7282657027244568 0.37112846970558167 0.4373829960823059
0.7796583771705627 0.2665776312351227 0.5129005908966064
0.7932435870170593 0.38321420550346375 0.49171170592308044
0.6788641810417175 0.2866581976413727 0.4788358211517334
0.6802592873573303 0.22418595850467682 0.46543535590171814
0.7635747790336609 0.23770272731781006 0.42334723472595215
0.7745609879493713 0.354719340801239 0.500891387462616
0.6631221175193787 0.2897120714187622 0.5537899732589722
0.7610814571380615 0.40090441703796387 0.4888330101966858
0.6785417199134827 0.35460707545280457 0.4883692264556885
0.774088978767395 0.24269522726535797 0.5515379309654236
0.6989240050315857 0.2602379322052002 0.5839651823043823
0.7888051271438599 0.36517995595932007 0.5673916935920715
0.8346093893051147 0.23585140705108643 0.4445657432079315
0.7700336575508118 0.29052984714508057 0.5910892486572266
0.808903694152832 0.3545583486557007 0.47867685556411743
0.8392882943153381 0.25928449630737305 0.44325506687164307
0.6859863996505737 0.2737504243850708 0.5262587070465088
0.7226433157920837 0.34171292185783386 0.4336308240890503
0.8054962158203125 0.21728962659835815 0.48220911622047424
0.7596482038497925 0.2368265986442566 0.5081548094749451
0.7928974628448486 0.24595309793949127 0.5062025785446167
0.811497688293457 0.23984678089618683 0.4337885081768036
0.7860984206199646 0.25158604979515076 0.4808768630027771
0.8044788241386414 0.28550103306770325 0.43783366680145264
0.7407373785972595 0.2399187833070755 0.40310004353523254
0.7517138719558716 0.3877081573009491 0.4598679840564728
0.7996437549591064 0.24157601594924927 0.44977882504463196
0.6597154140472412 0.38225507736206055 0.4875117242336273
0.7328583002090454 0.3009415566921234 0.5647385120391846
0.834438145160675 0.31583690643310547 0.5335139632225037
0.761990487575531 0.3800179958343506 0.5340762734413147
0.690236508846283 0.2723286747932434 0.572242021560669
0.6690495014190674 0.3189343214035034 0.5454055070877075
0.7070399522781372 0.3643430471420288 0.5308096408843994
0.7974472045898438 0.20321869850158691 0.5195690393447876
0.7253081202507019 0.2482808381319046 0.3863619565963745
0.6753140687942505 0.2677798569202423 0.4573056697845459
0.7763683795928955 0.3602812588214874 0.4948538839817047
0.7611709237098694 0.27667325735092163 0.4144856333732605
0.7779192924499512 0.3758925795555115 0.453544557094574
0.7621743679046631 0.28309911489486694 0.5767241716384888
0.7305285930633545 0.21678811311721802 0.4899502098560333
0.6588929295539856 0.25610068440437317 0.4020467698574066
0.7612782120704651 0.2297593504190445 0.547886073589325
0.7831801176071167 0.34822484850883484 0.5706652402877808
0.7077507972717285 0.23733507096767426 0.5058529376983643
0.8006287813186646 0.3956369459629059 0.4761676788330078
0.7791688442230225 0.3326434791088104 0.45414963364601135
0.771719217300415 0.2923385202884674 0.42686477303504944
0.7981362342834473 0.4101543128490448 0.4398300051689148
0.821557343006134 0.296745628118515 0.5606705546379089
0.680584192276001 0.321695476770401 0.42549368739128113
0.6621224284172058 0.2869141101837158 0.47758975625038147
0.7286028861999512 0.2545965313911438 0.39910146594047546
0.6699463725090027 0.30383235216140747 0.6001195311546326
0.7595483064651489 0.29356077313423157 0.4727588891983032
0.7001469135284424 0.21093054115772247 0.5042981505393982
0.7626050710678101 0.20441995561122894 0.5627259016036987
0.7178476452827454 0.26306524872779846 0.5098355412483215
0.8319053649902344 0.345306396484375 0.5119897127151489
0.6388833522796631 0.4030081033706665 0.44291171431541443
0.7998298406600952 0.301223486661911 0.5847527384757996
0.6683993339538574 0.30291202664375305 0.5046065449714661
0.6859862208366394 0.30871474742889404 0.5023899674415588
0.73108971118927 0.37543025612831116 0.46563825011253357
0.789165198802948 0.2992219030857086 0.4496382176876068
0.703228771686554 0.2564683258533478 0.4806388318538666
0.683102011680603 0.3016781210899353 0.4527777433395386
0.8009725213050842 0.3594706952571869 0.5714061856269836
0.8239438533782959 0.3970586955547333 0.43976089358329773
0.8301181197166443 0.32948270440101624 0.4065045714378357
0.7036301493644714 0.2567775845527649 0.5516635775566101
0.7371132969856262 0.21434840559959412 0.5352840423583984
0.7157239317893982 0.4047738313674927 0.48245999217033386
0.6634194254875183 0.3872610926628113 0.4480435252189636
0.7851941585540771 0.20796535909175873 0.5376376509666443
0.6558327078819275 0.30822548270225525 0.472961962223053
0.7887669801712036 0.35702356696128845 0.5483064651489258
0.7924259901046753 0.3119305670261383 0.5868362188339233
0.7359077334403992 0.37447690963745117 0.5588628053665161
0.7484087347984314 0.26024776697158813 0.5129339098930359
0.8213664889335632 0.26295989751815796 0.5611267685890198
0.8097502589225769 0.3514159321784973 0.5102077722549438
0.6898546814918518 0.41227880120277405 0.441118448972702
0.8056719303131104 0.36064934730529785 0.46930992603302
0.7369871735572815 0.2441815286874771 0.5516324043273926
0.679972767829895 0.30098089575767517 0.40964823961257935
0.799363911151886 0.42611783742904663 0.4341925382614136
0.6883979439735413 0.22069452702999115 0.5413739085197449
0.7595483064651489 0.29356077313423157 0.4727588891983032
0.7001469135284424 0.21093054115772247 0.5042981505393982
0.7626050710678101 0.20441995561122894 0.5627259016036987
0.7178476452827454 0.26306524872779846 0.5098355412483215
0.8319053649902344 0.345306396484375 0.5119897127151489
0.6920711398124695 0.3519187569618225 0.4819076657295227
0.7474304437637329 0.29604673385620117 0.4182361364364624
0.7418559193611145 0.35321107506752014 0.5765583515167236
0.7410129308700562 0.2855378985404968 0.463817298412323
0.6497198939323425 0.3477877676486969 0.5431672930717468
0.7202438712120056 0.25063571333885193 0.5704699158668518
0.7550719976425171 0.41059520840644836 0.48011472821235657
0.7974100708961487 0.37677308917045593 0.5963427424430847
0.6975424885749817 0.3706948459148407 0.5266105532646179
0.6984239816665649 0.2372661828994751 0.4997265040874481
0.775727391242981 0.3949909806251526 0.46686121821403503
0.7084050178527832 0.21938830614089966 0.5532919764518738
0.7003641128540039 0.19750812649726868 0.5259096026420593
0.6668868660926819 0.383208304643631 0.5554628372192383
0.8311161994934082 0.27793067693710327 0.40077435970306396
0.7801087498664856 0.337897926568985 0.4317767918109894
0.7716699242591858 0.3847586512565613 0.6105483174324036
0.7975718975067139 0.353029727935791 0.4888780415058136
0.8213664889335632 0.26295989751815796 0.5611267685890198
0.8097502589225769 0.3514159321784973 0.5102077722549438
0.6898546814918518 0.41227880120277405 0.441118448972702
0.7623910307884216 0.4036791920661926 0.4296785295009613
0.6713110208511353 0.28807973861694336 0.5176511406898499
0.7017282247543335 0.3785647749900818 0.4711607098579407
0.7978684902191162 0.29526397585868835 0.3981822729110718
0.8339347839355469 0.24469171464443207 0.5282447934150696
0.8165720701217651 0.27810171246528625 0.5459678173065186
0.6906857490539551 0.3234785795211792 0.4110976457595825
0.8196490406990051 0.3063211441040039 0.5067093372344971
0.7034336924552917 0.2340579628944397 0.5268415808677673
0.7959082722663879 0.3451589047908783 0.534308135509491
0.711012601852417 0.3296377956867218 0.4668603837490082
0.7418559193611145 0.35321107506752014 0.5765583515167236
0.7410129308700562 0.2855378985404968 0.463817298412323
0.7062522172927856 0.29313692450523376 0.5746456384658813
0.6698562502861023 0.22416727244853973 0.5010920166969299
0.7787080407142639 0.3748580515384674 0.5014126300811768
0.8210775256156921 0.35461878776550293 0.5573068857192993
0.7314535975456238 0.3872583210468292 0.5885977745056152
0.677290678024292 0.22531379759311676 0.5197778940200806
0.7688935995101929 0.36727726459503174 0.49155229330062866
0.7298302054405212 0.19330720603466034 0.5768758654594421
0.6866278648376465 0.25183823704719543 0.5630294680595398
0.7937531471252441 0.2955061197280884 0.49287453293800354
0.6878668069839478 0.39860257506370544 0.4227837026119232
0.837734043598175 0.2512267231941223 0.5646100640296936
0.7970424890518188 0.41381359100341797 0.49990400671958923
0.7745768427848816 0.3461782932281494 0.5072595477104187
0.7582861185073853 0.3099517822265625 0.4369698464870453
0.808500349521637 0.33722174167633057 0.40467706322669983
0.6699463725090027 0.30383235216140747 0.6001195311546326
0.8319053649902344 0.345306396484375 0.5119897127151489
0.6920711398124695 0.3519187569618225 0.4819076657295227
0.7474304437637329 0.29604673385620117 0.4182361364364624
0.7418559193611145 0.35321107506752014 0.5765583515167236
0.7410129308700562 0.2855378985404968 0.463817298412323
0.6497198939323425 0.3477877676486969 0.5431672930717468
0.7202438712120056 0.25063571333885193 0.5704699158668518
0.7550719976425171 0.41059520840644836 0.48011472821235657
0.7974100708961487 0.37677308917045593 0.5963427424430847
0.6975424885749817 0.3706948459148407 0.5266105532646179
0.6984239816665649 0.2372661828994751 0.4997265040874481
0.775727391242981 0.3949909806251526 0.46686121821403503
0.7084050178527832 0.21938830614089966 0.5532919764518738
0.7003641128540039 0.19750812649726868 0.5259096026420593
0.6668868660926819 0.383208304643631 0.5554628372192383
0.8311161994934082 0.27793067693710327 0.40077435970306396
0.7801087498664856 0.337897926568985 0.4317767918109894
0.7716699242591858 0.3847586512565613 0.6105483174324036
0.7975718975067139 0.353029727935791 0.4888780415058136
0.6900849342346191 0.3705487549304962 0.4221525192260742
0.6808875203132629 0.31561508774757385 0.4997228980064392
0.7268930077552795 0.4255619943141937 0.43076127767562866
0.7365449070930481 0.22406893968582153 0.5413773059844971
0.7814035415649414 0.22145569324493408 0.4715428054332733
0.7060093283653259 0.26684945821762085 0.4978254437446594
0.7859085202217102 0.3267916142940521 0.5436471700668335
0.6997992992401123 0.29769444465637207 0.58240807056427
0.6660521030426025 0.293207585811615 0.4782206118106842
0.7436472773551941 0.33287835121154785 0.5198665857315063
0.7530461549758911 0.36655259132385254 0.4256247282028198
0.7520373463630676 0.2797316908836365 0.47793686389923096
0.7433717846870422 0.27181944251060486 0.5301847457885742
0.7700392007827759 0.3970165550708771 0.44210392236709595
0.7904065251350403 0.34096381068229675 0.5448839664459229
0.8184027671813965 0.3440309166908264 0.5075690150260925
0.7232509851455688 0.24523288011550903 0.5122460126876831
0.6929730772972107 0.3962348997592926 0.5464836359024048
0.6806801557540894 0.30547642707824707 0.4787989556789398
0.7068403363227844 0.277225136756897 0.49525192379951477
0.7056393623352051 0.2713523805141449 0.46455854177474976
0.6698935031890869 0.2502928376197815 0.531808078289032
0.7308145761489868 0.32299625873565674 0.5082151293754578
0.8128056526184082 0.36355769634246826 0.5829735994338989
0.6644355058670044 0.3039783537387848 0.5073666572570801
0.6389549970626831 0.38166579604148865 0.44728919863700867
0.7035509943962097 0.24626339972019196 0.5838053822517395
0.7672014236450195 0.2693646252155304 0.4339403808116913
0.6988921165466309 0.3988091051578522 0.5242946743965149
0.6930657029151917 0.22055238485336304 0.43998613953590393
0.7741267681121826 0.3214851915836334 0.4301190972328186
0.8333689570426941 0.23725108802318573 0.42030438780784607
0.8123949766159058 0.3815266788005829 0.4489971399307251
0.7513396739959717 0.32078754901885986 0.4893934726715088
0.7184470295906067 0.3735978305339813 0.448922723531723
0.7932016253471375 0.29135218262672424 0.46177375316619873
0.8089796304702759 0.2357558161020279 0.5245558023452759
0.6907646656036377 0.31869789958000183 0.4149661362171173
0.7238950729370117 0.3839613199234009 0.49890610575675964
0.7018259763717651 0.22679618000984192 0.4293285012245178
0.693310022354126 0.39197278022766113 0.47408461570739746
0.7763736844062805 0.35106611251831055 0.47782015800476074
0.7199428677558899 0.23894686996936798 0.5603929162025452
0.7240134477615356 0.3193998336791992 0.4676492512226105
0.7592805624008179 0.4081839323043823 0.46061965823173523
0.7933038473129272 0.25546619296073914 0.3845272362232208
0.8341158032417297 0.25077733397483826 0.5654469132423401
0.677596390247345 0.4087974429130554 0.4591447412967682
0.7162883877754211 0.26254698634147644 0.5019255876541138
0.7719374299049377 0.28635552525520325 0.5705198049545288
0.747424840927124 0.3085496127605438 0.52489173412323
0.653620719909668 0.27002304792404175 0.4578063189983368
0.6792696118354797 0.2689867615699768 0.4944934844970703
0.7974626421928406 0.31726184487342834 0.4703306257724762
0.808903694152832 0.3545583486557007 0.47867685556411743
0.8392882943153381 0.25928449630737305 0.44325506687164307
0.6613324880599976 0.267241507768631 0.4367337226867676
0.672620415687561 0.40849992632865906 0.4463576078414917
0.7465638518333435 0.2591283321380615 0.5854658484458923
0.7859075665473938 0.35195690393447876 0.489236980676651
0.6980825066566467 0.3868161141872406 0.5799727439880371
0.80548095703125 0.23564720153808594 0.416897714138031
0.7459549307823181 0.42073383927345276 0.4489402770996094
0.7382436990737915 0.40040460228919983 0.46430477499961853
0.8058237433433533 0.23576198518276215 0.43799304962158203
0.6928201913833618 0.3805133104324341 0.548815906047821
0.7049780488014221 0.3646371066570282 0.4239906668663025
0.7295999526977539 0.19483624398708344 0.548457682132721
0.7824392318725586 0.3008642792701721 0.49596330523490906
0.6906603574752808 0.24886058270931244 0.3927423655986786
0.8098334074020386 0.29412809014320374 0.5496265888214111
0.8218786716461182 0.24135562777519226 0.5555914640426636
0.8115991950035095 0.3532053530216217 0.5113842487335205
0.7504393458366394 0.3488353490829468 0.5219715237617493
0.6688668131828308 0.3490632176399231 0.41649481654167175
0.7818295359611511 0.3174668252468109 0.5508056282997131
0.7416935563087463 0.3502168357372284 0.4458658695220947
0.7895962595939636 0.33066800236701965 0.41055119037628174
0.7552534937858582 0.38366803526878357 0.5614812970161438
0.6546556353569031 0.31042948365211487 0.4444635808467865
0.8171365857124329 0.32691773772239685 0.4837574064731598
0.8227019309997559 0.2958858609199524 0.5773720741271973
0.8115487098693848 0.412198543548584 0.417620450258255
0.6868656277656555 0.3120037615299225 0.5345119833946228
0.8199576139450073 0.3236761689186096 0.4421563744544983
0.6926038861274719 0.2974822223186493 0.5950765013694763
0.8216464519500732 0.3077468276023865 0.5644296407699585
0.7029505968093872 0.3579849302768707 0.4570643901824951
0.7193007469177246 0.26953208446502686 0.5487554669380188
0.8340755701065063 0.23674803972244263 0.47399452328681946
0.793488621711731 0.34933531284332275 0.49867215752601624
0.6706576943397522 0.35745516419410706 0.5637152791023254
0.6768534779548645 0.3806149661540985 0.5281369686126709
0.7723307013511658 0.31931525468826294 0.5057134032249451
0.7996382713317871 0.26447799801826477 0.42532894015312195
0.7456095218658447 0.33262670040130615 0.5322011709213257
0.7545018196105957 0.35908621549606323 0.419929176568985
0.7446144819259644 0.2676083743572235 0.5096468925476074
0.8269557952880859 0.3507166802883148 0.41416481137275696
0.7695214748382568 0.21345645189285278 0.5091200470924377
0.81541907787323 0.2693157494068146 0.5152947306632996
0.7124634385108948 0.34593895077705383 0.5331245064735413
0.6621085405349731 0.23860742151737213 0.4963311553001404
0.7673423886299133 0.3993740677833557 0.4181995093822479
0.728337824344635 0.2856847941875458 0.580786406993866
0.811036229133606 0.2154967337846756 0.5073428153991699
0.6705108880996704 0.2387673556804657 0.4923642873764038
0.6775575280189514 0.37082210183143616 0.4508276581764221
0.808903694152832 0.3545583486557007 0.47867685556411743
0.719959020614624 0.2680942118167877 0.502115786075592
0.7819020748138428 0.3096827566623688 0.41108423471450806
0.677534818649292 0.3842366337776184 0.5547006130218506
0.7545561194419861 0.2182515561580658 0.4389194846153259
0.6558079123497009 0.2598689794540405 0.45476093888282776
0.7443525195121765 0.33802172541618347 0.5880253314971924
0.8282887935638428 0.3123832941055298 0.39958617091178894
0.6880273222923279 0.38537701964378357 0.5936686396598816
0.6625299453735352 0.3554776906967163 0.45148783922195435
0.8102602958679199 0.2902589440345764 0.5466712117195129
0.6787516474723816 0.2512827217578888 0.4240199327468872
0.7609199285507202 0.38279110193252563 0.5247610807418823
0.7609199285507202 0.38279110193252563 0.5247610807418823
0.7596477270126343 0.35474830865859985 0.5793078541755676
0.8199535012245178 0.32878512144088745 0.4466599225997925
0.7507972717285156 0.32780876755714417 0.4198201596736908
0.6919201612472534 0.22235795855522156 0.501457691192627
0.7631176710128784 0.23660150170326233 0.4845746159553528
0.7085405588150024 0.2159239947795868 0.5254716873168945
0.6467602252960205 0.2808375954627991 0.43810272216796875
0.8245107531547546 0.3105444014072418 0.4328624904155731
0.6590254902839661 0.40100497007369995 0.5044581890106201
0.7881690263748169 0.39707574248313904 0.5142901539802551
0.7192082405090332 0.24387696385383606 0.5747920274734497
0.6805161833763123 0.36584198474884033 0.5630946159362793
0.6902968883514404 0.39338067173957825 0.4760294258594513
0.737630307674408 0.3443221151828766 0.481821209192276
0.8086605072021484 0.34097427129745483 0.5248505473136902
0.800628662109375 0.3893740475177765 0.5587174296379089
0.7063319087028503 0.3159506916999817 0.46324819326400757
0.8192847371101379 0.2764454483985901 0.584266722202301
0.808500349521637 0.33722174167633057 0.40467706322669983
0.8282887935638428 0.3123832941055298 0.39958617091178894
0.6880273222923279 0.38537701964378357 0.5936686396598816
0.6625299453735352 0.3554776906967163 0.45148783922195435
0.8102602958679199 0.2902589440345764 0.5466712117195129
0.6787516474723816 0.2512827217578888 0.4240199327468872
0.7609199285507202 0.38279110193252563 0.5247610807418823
0.8318300247192383 0.33872225880622864 0.5464761853218079
0.7617154121398926 0.28155824542045593 0.5187747478485107
0.7735363841056824 0.3769959509372711 0.5494630932807922
0.6977100968360901 0.35699474811553955 0.49026909470558167
0.7489440441131592 0.31205421686172485 0.591393768787384
0.7933288812637329 0.2425750195980072 0.5080636739730835
0.7972846627235413 0.3109612762928009 0.5161766409873962
0.6778189539909363 0.2110818475484848 0.5357832908630371
0.8086605072021484 0.34097427129745483 0.5248505473136902
0.800628662109375 0.3893740475177765 0.5587174296379089
0.7032250165939331 0.32992011308670044 0.4690548777580261
0.7895962595939636 0.33066800236701965 0.41055119037628174
0.7552534937858582 0.38366803526878357 0.5614812970161438
0.6546556353569031 0.31042948365211487 0.4444635808467865
0.8171365857124329 0.32691773772239685 0.4837574064731598
0.8227019309997559 0.2958858609199524 0.5773720741271973
0.8115487098693848 0.412198543548584 0.417620450258255
0.6868656277656555 0.3120037615299225 0.5345119833946228
0.8199576139450073 0.3236761689186096 0.4421563744544983
0.6926038861274719 0.2974822223186493 0.5950765013694763
0.8216464519500732 0.3077468276023865 0.5644296407699585
0.7029505968093872 0.3579849302768707 0.4570643901824951
0.7193007469177246 0.26953208446502686 0.5487554669380188
0.8340755701065063 0.23674803972244263 0.47399452328681946
0.793488621711731 0.34933531284332275 0.49867215752601624
0.6801649928092957 0.23742029070854187 0.44734635949134827
0.8218786716461182 0.24135562777519226 0.5555914640426636
0.8115991950035095 0.3532053530216217 0.5113842487335205
0.7504393458366394 0.3488353490829468 0.5219715237617493
0.6688668131828308 0.3490632176399231 0.41649481654167175
0.7461625337600708 0.2204987108707428 0.5047147870063782
0.7783374190330505 0.3638404309749603 0.49078691005706787
0.7248457074165344 0.3128714859485626 0.4406077563762665
0.6689696907997131 0.2558223009109497 0.4501879811286926
0.6799906492233276 0.31166955828666687 0.5635085701942444
0.6854416131973267 0.20293231308460236 0.4952506422996521
0.6623687148094177 0.2794443964958191 0.48870447278022766
0.8083081841468811 0.3130617141723633 0.49759340286254883
0.7937682867050171 0.29559919238090515 0.4171811640262604
0.8348131775856018 0.30992838740348816 0.46066609025001526
0.6700224876403809 0.24910372495651245 0.5503838062286377
0.7003573179244995 0.31398138403892517 0.4314574897289276
0.6911722421646118 0.24066764116287231 0.5273669958114624
0.7115668654441833 0.25577235221862793 0.5532214045524597
0.7242293953895569 0.30663102865219116 0.4404168128967285
0.690585732460022 0.37154191732406616 0.5726551413536072
0.6654748916625977 0.2815290093421936 0.43766769766807556
0.8434369564056396 0.241422638297081 0.5306909084320068
0.6666748523712158 0.3422774076461792 0.6072377562522888
0.8322097063064575 0.20308668911457062 0.5398026704788208
0.8359041810035706 0.29127153754234314 0.43852463364601135
0.7214818596839905 0.29695776104927063 0.5054010152816772
0.6702832579612732 0.39432477951049805 0.46271654963493347
0.7276878356933594 0.28330349922180176 0.5945966243743896
0.7139183282852173 0.24104835093021393 0.5597215294837952
0.6802898645401001 0.27160513401031494 0.4243912398815155
0.8395101428031921 0.31035253405570984 0.48796898126602173
0.8311161994934082 0.27793067693710327 0.40077435970306396
0.719959020614624 0.2680942118167877 0.502115786075592
0.7819020748138428 0.3096827566623688 0.41108423471450806
0.6848511695861816 0.3717694878578186 0.5579572916030884
0.7408122420310974 0.2442564070224762 0.4067962169647217
0.7443525195121765 0.33802172541618347 0.5880253314971924
0.8282887935638428 0.3123832941055298 0.39958617091178894
0.6880273222923279 0.38537701964378357 0.5936686396598816
0.8334892392158508 0.28903821110725403 0.5678818225860596
0.6730746626853943 0.19878070056438446 0.5282592177391052
0.6603325009346008 0.33337539434432983 0.6016064286231995
0.6707412600517273 0.33136242628097534 0.46170130372047424
0.7151079177856445 0.3414210081100464 0.43016254901885986
0.651124119758606 0.39592522382736206 0.4741204082965851
0.7085405588150024 0.2159239947795868 0.5254716873168945
0.7392712831497192 0.2997763156890869 0.5777096748352051
0.7038297057151794 0.24274955689907074 0.5315361022949219
0.7972846627235413 0.3109612762928009 0.5161766409873962
0.6778189539909363 0.2110818475484848 0.5357832908630371
0.8086605072021484 0.34097427129745483 0.5248505473136902
0.800628662109375 0.3893740475177765 0.5587174296379089
0.7032250165939331 0.32992011308670044 0.4690548777580261
0.7895962595939636 0.33066800236701965 0.41055119037628174
0.7552534937858582 0.38366803526878357 0.5614812970161438
0.6546556353569031 0.31042948365211487 0.4444635808467865
0.8171365857124329 0.32691773772239685 0.4837574064731598
0.8227019309997559 0.2958858609199524 0.5773720741271973
0.8115487098693848 0.412198543548584 0.417620450258255
0.7130624651908875 0.37244635820388794 0.5838922262191772
0.7607783675193787 0.34588566422462463 0.5959856510162354
0.7915065884590149 0.41254204511642456 0.441985160112381
0.775517463684082 0.24715574085712433 0.5182601809501648
0.8128056526184082 0.36355769634246826 0.5829735994338989
0.8340755701065063 0.23674803972244263 0.47399452328681946
0.793488621711731 0.34933531284332275 0.49867215752601624
0.7029505968093872 0.3579849302768707 0.4570643901824951
0.7193007469177246 0.26953208446502686 0.5487554669380188
0.8340755701065063 0.23674803972244263 0.47399452328681946
0.7193007469177246 0.26953208446502686 0.5487554669380188
0.8340755701065063 0.23674803972244263 0.47399452328681946
0.793488621711731 0.34933531284332275 0.49867215752601624
0.793488621711731 0.34933531284332275 0.49867215752601624
0.6706576943397522 0.35745516419410706 0.5637152791023254
0.6768534779548645 0.3806149661540985 0.5281369686126709
0.7723307013511658 0.31931525468826294 0.5057134032249451
0.7723307013511658 0.31931525468826294 0.5057134032249451
0.7996382713317871 0.26447799801826477 0.42532894015312195
0.7456095218658447 0.33262670040130615 0.5322011709213257
0.7124634385108948 0.34593895077705383 0.5331245064735413
0.6621085405349731 0.23860742151737213 0.4963311553001404
0.803099513053894 0.2950393855571747 0.41213110089302063
0.8157318830490112 0.3479782044887543 0.532384991645813
0.767920196056366 0.22313039004802704 0.41683679819107056
0.8283019661903381 0.3740655183792114 0.5592992901802063
0.7032248377799988 0.3678341507911682 0.5660554766654968
0.7964242696762085 0.37351152300834656 0.46981796622276306
0.6498470902442932 0.3589053452014923 0.4718421399593353
0.7624655961990356 0.22397035360336304 0.4749506413936615
0.8215541839599609 0.2603438198566437 0.39194920659065247
0.805722713470459 0.24521251022815704 0.4202762544155121
0.7925776243209839 0.22417263686656952 0.4847885072231293
0.8356125950813293 0.31188467144966125 0.49019816517829895
0.7727256417274475 0.3405052125453949 0.4732819199562073
0.7017355561256409 0.3158019781112671 0.5687820911407471
0.7371447086334229 0.40400898456573486 0.4577502906322479
0.7723307013511658 0.31931525468826294 0.5057134032249451
0.7996382713317871 0.26447799801826477 0.42532894015312195
0.7456095218658447 0.33262670040130615 0.5322011709213257
0.7545018196105957 0.35908621549606323 0.419929176568985
0.7446144819259644 0.2676083743572235 0.5096468925476074
0.8269557952880859 0.3507166802883148 0.41416481137275696
0.7695214748382568 0.21345645189285278 0.5091200470924377
0.81541907787323 0.2693157494068146 0.5152947306632996
0.7124634385108948 0.34593895077705383 0.5331245064735413
0.6621085405349731 0.23860742151737213 0.4963311553001404
0.7673423886299133 0.3993740677833557 0.4181995093822479
0.728337824344635 0.2856847941875458 0.580786406993866
0.811036229133606 0.2154967337846756 0.5073428153991699
0.6705108880996704 0.2387673556804657 0.4923642873764038
0.6775575280189514 0.37082210183143616 0.4508276581764221
0.6936339735984802 0.26631850004196167 0.44516652822494507
0.8281825184822083 0.21402505040168762 0.552655041217804
0.7727256417274475 0.3405052125453949 0.4732819199562073
0.7017355561256409 0.3158019781112671 0.5687820911407471
0.8210698962211609 0.3010639548301697 0.42913877964019775
0.7517431378364563 0.23416249454021454 0.5646317005157471
0.8023661375045776 0.41161203384399414 0.4910091161727905
0.7103441953659058 0.398955374956131 0.46470701694488525
0.763385534286499 0.27941930294036865 0.4449346661567688
0.8330585956573486 0.38611459732055664 0.5256891250610352
0.7927992939949036 0.3155525028705597 0.43344414234161377
0.7473639249801636 0.23777633905410767 0.48961979150772095
0.6852664351463318 0.33969733119010925 0.45036235451698303
0.6993825435638428 0.25776898860931396 0.5495175123214722
0.677873969078064 0.29099854826927185 0.5627507567405701
0.6608198881149292 0.3824288845062256 0.5886927247047424
0.7599284052848816 0.3237348794937134 0.4683736264705658
0.7368159890174866 0.21252764761447906 0.5369047522544861
0.7122604846954346 0.3508650064468384 0.5455521941184998
0.7723307013511658 0.31931525468826294 0.5057134032249451
0.7996382713317871 0.26447799801826477 0.42532894015312195
0.7456095218658447 0.33262670040130615 0.5322011709213257
0.7545018196105957 0.35908621549606323 0.419929176568985
0.7446144819259644 0.2676083743572235 0.5096468925476074
0.8269557952880859 0.3507166802883148 0.41416481137275696
0.7695214748382568 0.21345645189285278 0.5091200470924377
0.81541907787323 0.2693157494068146 0.5152947306632996
0.7030159831047058 0.3662641942501068 0.4463560879230499
0.7535262703895569 0.25442445278167725 0.4924306571483612
0.6739969849586487 0.36858367919921875 0.5552892684936523
0.6488540768623352 0.2986292839050293 0.4427509307861328
0.8034681081771851 0.349090576171875 0.5012797713279724
0.6510316133499146 0.3929310441017151 0.5240885615348816
0.674534797668457 0.2663549780845642 0.4133053123950958
