ply
format ascii 1.0
element vertex 823
property float x
property float y
property float z
end_header
0.24094440042972565 0.19005607068538666 0.5131712555885315
0.3040483295917511 0.37058064341545105 0.5456627607345581
0.20054711401462555 0.28856730461120605 0.46084651350975037
0.27020689845085144 0.19428129494190216 0.6014243364334106
0.1796930432319641 0.21848341822624207 0.591413140296936
0.30060574412345886 0.40287837386131287 0.41977885365486145
0.23855604231357574 0.2193765640258789 0.49651429057121277
0.22884705662727356 0.31959497928619385 0.5291531085968018
0.33603838086128235 0.2823474407196045 0.4157907962799072
0.24568742513656616 0.23339831829071045 0.47199249267578125
0.28194817900657654 0.3250121772289276 0.44095578789711
0.2304706871509552 0.3566620349884033 0.5933571457862854
0.17668089270591736 0.3381313979625702 0.4042314291000366
0.19933129847049713 0.34384748339653015 0.43738657236099243
0.2643149197101593 0.38984012603759766 0.44521093368530273
0.29590559005737305 0.3199072480201721 0.4770089387893677
0.1898743361234665 0.2579990327358246 0.5073832869529724
0.27905741333961487 0.24217712879180908 0.5045124292373657
0.19199733436107635 0.23438072204589844 0.5368711948394775
0.25278428196907043 0.32453012466430664 0.425972044467926
0.18468278646469116 0.3013765215873718 0.5257721543312073
0.17843705415725708 0.29490429162979126 0.5579114556312561
0.25002121925354004 0.24527664482593536 0.582522451877594
0.3333592712879181 0.2773796021938324 0.502528190612793
0.22006197273731232 0.30766794085502625 0.48640909790992737
0.32390984892845154 0.23399119079113007 0.47329092025756836
0.22994185984134674 0.2207755148410797 0.41926825046539307
0.2917919158935547 0.4125666618347168 0.4494240880012512
0.36127912998199463 0.28874117136001587 0.45272621512413025
0.2513364553451538 0.34692585468292236 0.5403903126716614
0.2661536633968353 0.33556318283081055 0.4087292551994324
0.2599930465221405 0.30183082818984985 0.43576234579086304
0.19154059886932373 0.21779264509677887 0.530094563961029
0.3341655731201172 0.3277645409107208 0.5301612019538879
0.23498092591762543 0.18023386597633362 0.41936376690864563
0.30694344639778137 0.33765894174575806 0.42270201444625854
0.14923597872257233 0.33454254269599915 0.4781130254268646
0.14606183767318726 0.31250229477882385 0.4411972463130951
0.31729650497436523 0.26415184140205383 0.4420865476131439
0.32855573296546936 0.3045646548271179 0.41598033905029297
0.2519952952861786 0.35565751791000366 0.4994768798351288
0.2668749690055847 0.3489217460155487 0.5962139368057251
0.1874973028898239 0.3039272725582123 0.42988333106040955
0.2967182993888855 0.3335781991481781 0.48806309700012207
0.18875755369663239 0.29238349199295044 0.5393710136413574
0.3558604121208191 0.2500317692756653 0.596042811870575
0.20360644161701202 0.21403497457504272 0.46690675616264343
0.26710954308509827 0.34165647625923157 0.48306727409362793
0.25006550550460815 0.1768559068441391 0.49861952662467957
0.2832007110118866 0.22289851307868958 0.5135716199874878
0.2926979064941406 0.2568749487400055 0.5802017450332642
0.2780541479587555 0.33613255620002747 0.602132260799408
0.26227042078971863 0.37999865412712097 0.5523908734321594
0.3072631061077118 0.3183707892894745 0.528340220451355
0.16972339153289795 0.3207470774650574 0.5141549706459045
0.2764062285423279 0.3625347912311554 0.6016632318496704
0.25909972190856934 0.26028206944465637 0.5451285243034363
0.2763574719429016 0.3978622257709503 0.5932143926620483
0.25643670558929443 0.36290812492370605 0.4408901631832123
0.16555112600326538 0.2748936414718628 0.5753394365310669
0.1444540023803711 0.3237742483615875 0.5697535276412964
0.25252765417099 0.3324391841888428 0.5740824341773987
0.3577629029750824 0.24709951877593994 0.46421414613723755
0.19239750504493713 0.27575603127479553 0.4610045552253723
0.233115553855896 0.2752359211444855 0.543171226978302
0.282133549451828 0.34781506657600403 0.5871188044548035
0.2601534128189087 0.4102258086204529 0.4942677319049835
0.2963317930698395 0.3065204322338104 0.44030076265335083
0.15889404714107513 0.2983899414539337 0.4012261927127838
0.21514613926410675 0.32422372698783875 0.48234906792640686
0.22235676646232605 0.3171200156211853 0.4699965715408325
0.3595910370349884 0.30311229825019836 0.514646589756012
0.23611369729042053 0.23298795521259308 0.5936870574951172
0.2386774718761444 0.264686644077301 0.574779212474823
0.22697414457798004 0.36410757899284363 0.42228928208351135
0.2661536633968353 0.33556318283081055 0.4087292551994324
0.2599930465221405 0.30183082818984985 0.43576234579086304
0.19154059886932373 0.21779264509677887 0.530094563961029
0.3341655731201172 0.3277645409107208 0.5301612019538879
0.23498092591762543 0.18023386597633362 0.41936376690864563
0.29422810673713684 0.3736931383609772 0.4374806582927704
0.14923597872257233 0.33454254269599915 0.4781130254268646
0.14606183767318726 0.31250229477882385 0.4411972463130951
0.31729650497436523 0.26415184140205383 0.4420865476131439
0.32855573296546936 0.3045646548271179 0.41598033905029297
0.2519952952861786 0.35565751791000366 0.4994768798351288
0.2668749690055847 0.3489217460155487 0.5962139368057251
0.1874973028898239 0.3039272725582123 0.42988333106040955
0.2967182993888855 0.3335781991481781 0.48806309700012207
0.18875755369663239 0.29238349199295044 0.5393710136413574
0.3558604121208191 0.2500317692756653 0.596042811870575
0.20360644161701202 0.21403497457504272 0.46690675616264343
0.26710954308509827 0.34165647625923157 0.48306727409362793
0.2354249656200409 0.3178807199001312 0.592348575592041
0.25009685754776 0.37520483136177063 0.5344482064247131
0.19907860457897186 0.3152530789375305 0.470259428024292
0.17046408355236053 0.32691308856010437 0.5918031334877014
0.3121437728404999 0.23967264592647552 0.4210006296634674
0.2842724621295929 0.2565600872039795 0.4141485095024109
0.28882738947868347 0.2430020421743393 0.5830966234207153
0.26927998661994934 0.29374444484710693 0.509384036064148
0.14773236215114594 0.30072563886642456 0.4591754972934723
0.2623269259929657 0.28424572944641113 0.582096517086029
0.18222257494926453 0.3075889050960541 0.5271169543266296
0.2600082755088806 0.26059746742248535 0.4732404947280884
0.17121441662311554 0.3175932466983795 0.4753253161907196
0.1589246690273285 0.31673580408096313 0.5488382577896118
0.16690820455551147 0.2788531482219696 0.5599621534347534
0.23862046003341675 0.37184420228004456 0.5946695804595947
0.25279557704925537 0.20798006653785706 0.5192005634307861
0.2523745596408844 0.39967358112335205 0.5278899669647217
0.16394531726837158 0.3179723918437958 0.5495644807815552
0.20432524383068085 0.21942774951457977 0.41903913021087646
0.3024022579193115 0.32265374064445496 0.46543237566947937
0.299902081489563 0.3087535500526428 0.5488829016685486
0.24195928871631622 0.3530370593070984 0.5815660357475281
0.28300532698631287 0.4100494980812073 0.5097726583480835
0.28871122002601624 0.19859062135219574 0.5584949851036072
0.18468278646469116 0.3013765215873718 0.5257721543312073
0.17843705415725708 0.29490429162979126 0.5579114556312561
0.25002121925354004 0.24527664482593536 0.582522451877594
0.3333592712879181 0.2773796021938324 0.502528190612793
0.22006197273731232 0.30766794085502625 0.48640909790992737
0.32390984892845154 0.23399119079113007 0.47329092025756836
0.22994185984134674 0.2207755148410797 0.41926825046539307
0.3148219883441925 0.2218071073293686 0.5665561556816101
0.23820699751377106 0.3488607108592987 0.5954211950302124
0.2843286395072937 0.2937852442264557 0.5341245532035828
0.19877195358276367 0.3320010006427765 0.5568755865097046
0.28324779868125916 0.28358107805252075 0.4338509738445282
0.1595510095357895 0.2846117317676544 0.5502969026565552
0.22434984147548676 0.21029777824878693 0.4129272699356079
0.21161486208438873 0.37755557894706726 0.518633246421814
0.2371872514486313 0.26616352796554565 0.5373330116271973
0.1950395554304123 0.22336770594120026 0.4290766417980194
0.19365017116069794 0.32521530985832214 0.5247525572776794
0.3492012619972229 0.26892054080963135 0.4275974929332733
0.20553342998027802 0.3021153211593628 0.4426376223564148
0.2642240524291992 0.24427588284015656 0.480844646692276
0.1796169877052307 0.26768597960472107 0.5276113748550415
0.2907102704048157 0.34922489523887634 0.5223025679588318
0.2814895808696747 0.2794908285140991 0.4031045436859131
0.19910253584384918 0.3085927963256836 0.5846248269081116
0.16703298687934875 0.2716924250125885 0.4728102684020996
0.2931041717529297 0.23928256332874298 0.4450664818286896
0.1790366768836975 0.30330100655555725 0.5070881843566895
0.24562925100326538 0.18284405767917633 0.5323508381843567
0.3574076294898987 0.27109333872795105 0.549978494644165
0.17965887486934662 0.27741166949272156 0.5365790128707886
0.2237306833267212 0.35751697421073914 0.43184345960617065
0.2815254330635071 0.22522176802158356 0.4411903917789459
0.28220099210739136 0.33424702286720276 0.605771541595459
0.2335827350616455 0.35806551575660706 0.45950645208358765
0.26885223388671875 0.2557509243488312 0.4153437614440918
0.2351863980293274 0.22435396909713745 0.4148549735546112
0.33846554160118103 0.31066733598709106 0.5180553793907166
0.18740536272525787 0.30564528703689575 0.5957764387130737
0.2440781146287918 0.2978692352771759 0.5406407117843628
0.17347657680511475 0.33284199237823486 0.5026350617408752
0.21282944083213806 0.2750084698200226 0.4184970557689667
0.20343492925167084 0.28719788789749146 0.5101407766342163
0.2606726884841919 0.3670255243778229 0.5074905157089233
0.2299109548330307 0.23596984148025513 0.5525205135345459
0.12200941890478134 0.3157546818256378 0.478952020406723
0.20960953831672668 0.3839326500892639 0.4822544455528259
0.2483116090297699 0.23526839911937714 0.5267321467399597
0.1788269430398941 0.23943234980106354 0.527966320514679
0.27213647961616516 0.4188190698623657 0.4240289628505707
0.23771780729293823 0.33355292677879333 0.44210124015808105
0.23686914145946503 0.3199249505996704 0.4384469985961914
0.16804087162017822 0.27642345428466797 0.4760418236255646
0.37768983840942383 0.27156028151512146 0.45541784167289734
0.29609063267707825 0.20355293154716492 0.47454169392585754
0.19652123749256134 0.3244217038154602 0.47872236371040344
0.18212930858135223 0.3725125193595886 0.45449432730674744
0.15484513342380524 0.3115531802177429 0.5221377611160278
0.23300810158252716 0.3640914559364319 0.48849016427993774
0.24112574756145477 0.23177288472652435 0.4028971791267395
0.19282755255699158 0.20739319920539856 0.5604937076568604
0.2869700789451599 0.4151604175567627 0.5252487659454346
0.20486478507518768 0.33233994245529175 0.5011232495307922
0.2900293171405792 0.34840941429138184 0.4155958294868469
0.3155566155910492 0.34509310126304626 0.4614522457122803
0.2817431092262268 0.37376275658607483 0.5661775469779968
0.16096241772174835 0.3021714687347412 0.41415393352508545
0.17401161789894104 0.31922289729118347 0.5861613154411316
0.37035536766052246 0.2541525661945343 0.4256313145160675
0.37276342511177063 0.2925712764263153 0.4433949291706085
0.17772814631462097 0.3448064923286438 0.5822463631629944
0.18093980848789215 0.21984007954597473 0.5926947593688965
0.19154059886932373 0.21779264509677887 0.530094563961029
0.3341655731201172 0.3277645409107208 0.5301612019538879
0.23498092591762543 0.18023386597633362 0.41936376690864563
0.30694344639778137 0.33765894174575806 0.42270201444625854
0.14923597872257233 0.33454254269599915 0.4781130254268646
0.14606183767318726 0.31250229477882385 0.4411972463130951
0.31729650497436523 0.26415184140205383 0.4420865476131439
0.32855573296546936 0.3045646548271179 0.41598033905029297
0.2519952952861786 0.35565751791000366 0.4994768798351288
0.2668749690055847 0.3489217460155487 0.5962139368057251
0.1874973028898239 0.3039272725582123 0.42988333106040955
0.1874973028898239 0.3039272725582123 0.42988333106040955
0.2967182993888855 0.3335781991481781 0.48806309700012207
0.18875755369663239 0.29238349199295044 0.5393710136413574
0.3558604121208191 0.2500317692756653 0.596042811870575
0.20360644161701202 0.21403497457504272 0.46690675616264343
0.26710954308509827 0.34165647625923157 0.48306727409362793
0.25006550550460815 0.1768559068441391 0.49861952662467957
0.2832007110118866 0.22289851307868958 0.5135716199874878
0.2926979064941406 0.2568749487400055 0.5802017450332642
0.21822720766067505 0.37915530800819397 0.5789098143577576
0.2521516680717468 0.3442745506763458 0.5847310423851013
0.2780541479587555 0.33613255620002747 0.602132260799408
0.26227042078971863 0.37999865412712097 0.5523908734321594
0.3072631061077118 0.3183707892894745 0.528340220451355
0.16972339153289795 0.3207470774650574 0.5141549706459045
0.2764062285423279 0.3625347912311554 0.6016632318496704
0.25909972190856934 0.26028206944465637 0.5451285243034363
0.2763574719429016 0.3978622257709503 0.5932143926620483
0.23429171741008759 0.1979571431875229 0.3972887694835663
0.23392590880393982 0.22231657803058624 0.5343546867370605
0.1979985386133194 0.2641511559486389 0.4706795811653137
0.25909972190856934 0.26028206944465637 0.5451285243034363
0.2763574719429016 0.3978622257709503 0.5932143926620483
0.23429171741008759 0.1979571431875229 0.3972887694835663
0.23392590880393982 0.22231657803058624 0.5343546867370605
0.2571192681789398 0.20781663060188293 0.4730015695095062
0.23820699751377106 0.3488607108592987 0.5954211950302124
0.2843286395072937 0.2937852442264557 0.5341245532035828
0.19877195358276367 0.3320010006427765 0.5568755865097046
0.28324779868125916 0.28358107805252075 0.4338509738445282
0.1595510095357895 0.2846117317676544 0.5502969026565552
0.22434984147548676 0.21029777824878693 0.4129272699356079
0.2593856751918793 0.23174920678138733 0.569644033908844
0.1940518319606781 0.24213866889476776 0.5366436243057251
0.2773798406124115 0.42614272236824036 0.41552668809890747
0.25009685754776 0.37520483136177063 0.5344482064247131
0.19907860457897186 0.3152530789375305 0.470259428024292
0.31326112151145935 0.23351627588272095 0.4078478515148163
0.27119290828704834 0.2521606981754303 0.4901009500026703
0.31051546335220337 0.25368982553482056 0.6023313403129578
0.29141470789909363 0.3389691710472107 0.42001014947891235
0.22916994988918304 0.39636269211769104 0.43968987464904785
0.20535799860954285 0.32078224420547485 0.48304295539855957
0.2407989352941513 0.2073785811662674 0.4168143570423126
0.19507837295532227 0.3405231237411499 0.4126792252063751
0.26876065135002136 0.39548829197883606 0.5095255970954895
0.1929682344198227 0.24107763171195984 0.5236399173736572
0.1943647414445877 0.33282551169395447 0.41731470823287964
0.25740110874176025 0.3510400354862213 0.4800969958305359
0.2614274024963379 0.3158479630947113 0.5350276827812195
0.3110623359680176 0.26317042112350464 0.42380595207214355
0.2373441457748413 0.35778316855430603 0.5047826170921326
0.23392590880393982 0.22231657803058624 0.5343546867370605
0.2843286395072937 0.2937852442264557 0.5341245532035828
0.19877195358276367 0.3320010006427765 0.5568755865097046
0.28324779868125916 0.28358107805252075 0.4338509738445282
0.1595510095357895 0.2846117317676544 0.5502969026565552
0.22434984147548676 0.21029777824878693 0.4129272699356079
0.2593856751918793 0.23174920678138733 0.569644033908844
0.26670509576797485 0.3387052118778229 0.48093292117118835
0.22147639095783234 0.2244933694601059 0.43706679344177246
0.36983630061149597 0.26888230443000793 0.5443921685218811
0.2466905117034912 0.19784019887447357 0.42414209246635437
0.18648235499858856 0.23473882675170898 0.5265515446662903
0.3553849458694458 0.2708103358745575 0.5105162262916565
0.20522302389144897 0.24958793818950653 0.569678544998169
0.36191698908805847 0.2854107916355133 0.5221954584121704
0.3059437870979309 0.2807328701019287 0.4852043092250824
0.2431788593530655 0.2031480371952057 0.41773197054862976
0.2024611383676529 0.22782835364341736 0.4815666973590851
0.15128569304943085 0.32769617438316345 0.5216339826583862
0.26665326952934265 0.3547112047672272 0.4147493243217468
0.28074461221694946 0.35712119936943054 0.5166179537773132
0.2143670618534088 0.34729233384132385 0.5252222418785095
0.3287038505077362 0.287081778049469 0.46446213126182556
0.2179209142923355 0.30640843510627747 0.5450212955474854
0.31395524740219116 0.3053567111492157 0.5137179493904114
0.23615461587905884 0.2420179545879364 0.4390748143196106
0.15903614461421967 0.2913605868816376 0.5858013033866882
0.1909051239490509 0.30662548542022705 0.4481588304042816
0.24415430426597595 0.1900293529033661 0.44110020995140076
0.32111236453056335 0.3098740875720978 0.5403826236724854
0.34215402603149414 0.2866273522377014 0.5623389482498169
0.2711435854434967 0.2286536693572998 0.4016249179840088
0.2571192681789398 0.20781663060188293 0.4730015695095062
0.23820699751377106 0.3488607108592987 0.5954211950302124
0.2843286395072937 0.2937852442264557 0.5341245532035828
0.19877195358276367 0.3320010006427765 0.5568755865097046
0.28324779868125916 0.28358107805252075 0.4338509738445282
0.1595510095357895 0.2846117317676544 0.5502969026565552
0.17347657680511475 0.33284199237823486 0.5026350617408752
0.36365807056427 0.2546670138835907 0.4045383036136627
0.2049962878227234 0.298079252243042 0.5157884955406189
0.2802128791809082 0.2179381549358368 0.4963913857936859
0.18344879150390625 0.3180467486381531 0.5360704660415649
0.1716403216123581 0.2952621579170227 0.5540567636489868
0.2455805540084839 0.37212494015693665 0.5090683698654175
0.23432883620262146 0.21234263479709625 0.5980746150016785
0.2690581977367401 0.3232467472553253 0.4754958152770996
0.22564905881881714 0.32622554898262024 0.4378260672092438
0.2858518958091736 0.2848524749279022 0.5084378719329834
0.22555296123027802 0.2915952801704407 0.40629908442497253
0.27972137928009033 0.2019289880990982 0.45564061403274536
0.144713893532753 0.31395211815834045 0.4065134525299072
0.21396504342556 0.3269895315170288 0.48691511154174805
0.32431837916374207 0.2699471414089203 0.482283353805542
0.36096686124801636 0.2922835052013397 0.4856092631816864
0.28274258971214294 0.2893017530441284 0.49524998664855957
0.3012987971305847 0.27568045258522034 0.5180990695953369
0.289158433675766 0.24052369594573975 0.4587397277355194
0.21173450350761414 0.22002117335796356 0.5769103169441223
0.18255610764026642 0.2673029601573944 0.5128079056739807
0.16096241772174835 0.3021714687347412 0.41415393352508545
0.3218216896057129 0.2642907202243805 0.5793824195861816
0.3618442714214325 0.2841118574142456 0.45470157265663147
0.16336806118488312 0.35122424364089966 0.5302594900131226
0.2513032555580139 0.2881331443786621 0.5779984593391418
0.28194817900657654 0.3250121772289276 0.44095578789711
0.2304706871509552 0.3566620349884033 0.5933571457862854
0.17668089270591736 0.3381313979625702 0.4042314291000366
0.19933129847049713 0.34384748339653015 0.43738657236099243
0.2643149197101593 0.38984012603759766 0.44521093368530273
0.29590559005737305 0.3199072480201721 0.4770089387893677
0.1898743361234665 0.2579990327358246 0.5073832869529724
0.27905741333961487 0.24217712879180908 0.5045124292373657
0.27864566445350647 0.39334869384765625 0.41947823762893677
0.30982938408851624 0.2850119471549988 0.5101760625839233
0.28055235743522644 0.36010655760765076 0.5884031653404236
0.18075358867645264 0.32071465253829956 0.4447781443595886
0.2199857383966446 0.23894083499908447 0.44286778569221497
0.3803565204143524 0.2728736400604248 0.4603957235813141
0.24599574506282806 0.3263872265815735 0.5011061429977417
0.2761238217353821 0.2900506258010864 0.5626730918884277
0.16096241772174835 0.3021714687347412 0.41415393352508545
0.17401161789894104 0.31922289729118347 0.5861613154411316
0.37035536766052246 0.2541525661945343 0.4256313145160675
0.16060058772563934 0.3356868624687195 0.40664246678352356
0.13956983387470245 0.3129737377166748 0.5719332098960876
0.31524398922920227 0.3092917799949646 0.47708660364151
0.22592845559120178 0.2496931254863739 0.5970341563224792
0.2150205373764038 0.3276604115962982 0.5152808427810669
0.19319254159927368 0.26144641637802124 0.4828224778175354
0.2667117118835449 0.3425160348415375 0.4106532037258148
0.26398181915283203 0.22010795772075653 0.4401094615459442
0.3617103695869446 0.2519998848438263 0.47340306639671326
0.2591473460197449 0.3388660252094269 0.4168601632118225
0.19661326706409454 0.2682805359363556 0.47194960713386536
0.3001665771007538 0.2429019808769226 0.5343707203865051
0.15232208371162415 0.31403571367263794 0.4075283408164978
0.3186955153942108 0.283903032541275 0.4682864844799042
0.24451157450675964 0.31502848863601685 0.4572623670101166
0.33612513542175293 0.2778521776199341 0.44956284761428833
0.30459102988243103 0.29483628273010254 0.43763577938079834
0.30365872383117676 0.26763299107551575 0.44137799739837646
0.14118629693984985 0.3415183424949646 0.439506858587265
0.1881088763475418 0.2565862536430359 0.4775177538394928
0.1435481607913971 0.3159821331501007 0.4786730408668518
0.21949321031570435 0.1777731478214264 0.509820282459259
0.20551110804080963 0.30315157771110535 0.5317088961601257
0.1484820544719696 0.30936098098754883 0.42398640513420105
0.24575787782669067 0.3666660189628601 0.553080677986145
0.32288384437561035 0.36094847321510315 0.4366035759449005
0.3525364398956299 0.2844173312187195 0.5600729584693909
0.2582535147666931 0.32486623525619507 0.4954627454280853
0.2737778425216675 0.192215234041214 0.4342876970767975
0.1921156495809555 0.268614262342453 0.463540643453598
0.3001665771007538 0.2429019808769226 0.5343707203865051
0.30368921160697937 0.34790217876434326 0.577924907207489
0.15991327166557312 0.2857898771762848 0.4409623444080353
0.2867184579372406 0.2828744351863861 0.48602697253227234
0.28255248069763184 0.32239672541618347 0.5442141890525818
0.2506393492221832 0.30008551478385925 0.48372021317481995
0.338583767414093 0.3076683282852173 0.4534434378147125
0.21124820411205292 0.2405022829771042 0.43233510851860046
0.15081337094306946 0.2790723741054535 0.549047589302063
0.20372535288333893 0.37879347801208496 0.5985782742500305
0.22284121811389923 0.301900178194046 0.5397424697875977
0.29787445068359375 0.3793177604675293 0.5620206594467163
0.21192659437656403 0.37367308139801025 0.5851868987083435
0.24644583463668823 0.25074952840805054 0.4917299449443817
0.23975861072540283 0.3432784378528595 0.48140981793403625
0.30544090270996094 0.2842499315738678 0.46157586574554443
0.3803471624851227 0.27104222774505615 0.6057485342025757
0.2917919158935547 0.4125666618347168 0.4494240880012512
0.36127912998199463 0.28874117136001587 0.45272621512413025
0.3763776421546936 0.26903581619262695 0.45176053047180176
0.26765209436416626 0.28469687700271606 0.5266651511192322
0.25150614976882935 0.38247182965278625 0.46254676580429077
0.26027584075927734 0.400869756937027 0.43367040157318115
0.22233250737190247 0.2573401927947998 0.592424213886261
0.29912757873535156 0.364057719707489 0.44830167293548584
0.20359563827514648 0.20955440402030945 0.5850993990898132
0.19730234146118164 0.2985914945602417 0.43702206015586853
0.14822062849998474 0.28604185581207275 0.5586762428283691
0.36856117844581604 0.27820348739624023 0.4871457815170288
0.13240237534046173 0.33817020058631897 0.448901504278183
0.22090062499046326 0.30367469787597656 0.5230564475059509
0.25886794924736023 0.3210946321487427 0.5104156732559204
0.32031798362731934 0.22546625137329102 0.43886640667915344
0.27258291840553284 0.38089296221733093 0.44313180446624756
0.3013812303543091 0.3667929768562317 0.5374793410301208
0.31355395913124084 0.2810712158679962 0.46289321780204773
0.2957927882671356 0.26894626021385193 0.49675315618515015
0.2341015338897705 0.3152371942996979 0.4105197787284851
0.1699105203151703 0.32338106632232666 0.5076891779899597
0.23741023242473602 0.29127949476242065 0.5732144117355347
0.2553262710571289 0.27774208784103394 0.5189220309257507
0.16019870340824127 0.35702913999557495 0.5422884821891785
0.24584943056106567 0.40485289692878723 0.4478799104690552
0.24101683497428894 0.30792316794395447 0.5927789807319641
0.190739244222641 0.3538748025894165 0.4761660397052765
0.2536051273345947 0.3935377895832062 0.5502722263336182
0.36127912998199463 0.28874117136001587 0.45272621512413025
0.20346160233020782 0.31963446736335754 0.5137083530426025
0.17587052285671234 0.32288479804992676 0.44906651973724365
0.3171873986721039 0.2793411910533905 0.450723260641098
0.15753154456615448 0.271731436252594 0.4729571044445038
0.20579315721988678 0.26604214310646057 0.5128657221794128
0.2909104526042938 0.2369672954082489 0.5734959840774536
0.3140750229358673 0.3229183554649353 0.5702918171882629
0.26590287685394287 0.29018476605415344 0.4763966500759125
0.2581692934036255 0.3439946174621582 0.4232196509838104
0.3530523478984833 0.2883532643318176 0.5883293747901917
0.27633580565452576 0.1911260336637497 0.48535048961639404
0.20305104553699493 0.2410995215177536 0.4260619580745697
0.13580191135406494 0.32591214776039124 0.41912510991096497
0.3202269673347473 0.25458917021751404 0.47982582449913025
0.33389174938201904 0.24446381628513336 0.5234296321868896
0.31871742010116577 0.3470112383365631 0.4494188129901886
0.2379957139492035 0.19748547673225403 0.4286428391933441
0.15991327166557312 0.2857898771762848 0.4409623444080353
0.2536051273345947 0.3935377895832062 0.5502722263336182
0.2506393492221832 0.30008551478385925 0.48372021317481995
0.338583767414093 0.3076683282852173 0.4534434378147125
0.21124820411205292 0.2405022829771042 0.43233510851860046
0.15081337094306946 0.2790723741054535 0.549047589302063
0.1950034201145172 0.27998170256614685 0.5501605868339539
0.28244614601135254 0.3368011713027954 0.4128893315792084
0.22790484130382538 0.25574272871017456 0.5407552719116211
0.19690215587615967 0.2297457605600357 0.5193337202072144
0.22120267152786255 0.36932387948036194 0.519266664981842
0.3823956549167633 0.27086442708969116 0.41528940200805664
0.29650869965553284 0.26940277218818665 0.40940675139427185
0.1669663041830063 0.31200549006462097 0.4210742712020874
0.22084978222846985 0.2008073925971985 0.554033100605011
0.14822062849998474 0.28604185581207275 0.5586762428283691
0.36856117844581604 0.27820348739624023 0.4871457815170288
0.13240237534046173 0.33817020058631897 0.448901504278183
0.22090062499046326 0.30367469787597656 0.5230564475059509
0.25886794924736023 0.3210946321487427 0.5104156732559204
0.32031798362731934 0.22546625137329102 0.43886640667915344
0.27258291840553284 0.38089296221733093 0.44313180446624756
0.3013812303543091 0.3667929768562317 0.5374793410301208
0.31355395913124084 0.2810712158679962 0.46289321780204773
0.3513683080673218 0.2682335078716278 0.43216657638549805
0.25132983922958374 0.18035991489887238 0.5193442106246948
0.22836937010288239 0.281196266412735 0.5041108727455139
0.23922522366046906 0.1829255074262619 0.571216881275177
0.18753966689109802 0.3437649607658386 0.49959564208984375
0.2124575972557068 0.30391862988471985 0.5081512331962585
0.20656049251556396 0.3807881772518158 0.5030269026756287
0.29453790187835693 0.24557381868362427 0.44061824679374695
0.22167383134365082 0.36318936944007874 0.5862981081008911
0.263204425573349 0.25809594988822937 0.41932225227355957
0.2681809663772583 0.31991150975227356 0.4460983872413635
0.16959254443645477 0.2678002715110779 0.514585018157959
0.34625330567359924 0.25739285349845886 0.4703562259674072
0.2998281419277191 0.30755704641342163 0.4560416042804718
0.32065680623054504 0.3192625939846039 0.5098041892051697
0.2848660349845886 0.39706867933273315 0.5120649933815002
0.30696338415145874 0.2675955295562744 0.5065760016441345
0.19916342198848724 0.37750276923179626 0.5013535022735596
0.22127822041511536 0.22445060312747955 0.40471169352531433
0.23739409446716309 0.22128929197788239 0.5689226388931274
0.15835881233215332 0.35770702362060547 0.4743146002292633
0.3096093535423279 0.3620937764644623 0.595944344997406
0.36127912998199463 0.28874117136001587 0.45272621512413025
0.14822062849998474 0.28604185581207275 0.5586762428283691
0.36856117844581604 0.27820348739624023 0.4871457815170288
0.13240237534046173 0.33817020058631897 0.448901504278183
0.22090062499046326 0.30367469787597656 0.5230564475059509
0.25886794924736023 0.3210946321487427 0.5104156732559204
0.32031798362731934 0.22546625137329102 0.43886640667915344
0.27258291840553284 0.38089296221733093 0.44313180446624756
0.3013812303543091 0.3667929768562317 0.5374793410301208
0.31355395913124084 0.2810712158679962 0.46289321780204773
0.2957927882671356 0.26894626021385193 0.49675315618515015
0.2341015338897705 0.3152371942996979 0.4105197787284851
0.1699105203151703 0.32338106632232666 0.5076891779899597
0.23741023242473602 0.29127949476242065 0.5732144117355347
0.2553262710571289 0.27774208784103394 0.5189220309257507
0.16019870340824127 0.35702913999557495 0.5422884821891785
0.24584943056106567 0.40485289692878723 0.4478799104690552
0.24101683497428894 0.30792316794395447 0.5927789807319641
0.190739244222641 0.3538748025894165 0.4761660397052765
0.2536051273345947 0.3935377895832062 0.5502722263336182
0.2506393492221832 0.30008551478385925 0.48372021317481995
0.338583767414093 0.3076683282852173 0.4534434378147125
0.21124820411205292 0.2405022829771042 0.43233510851860046
0.15081337094306946 0.2790723741054535 0.549047589302063
0.1950034201145172 0.27998170256614685 0.5501605868339539
0.28244614601135254 0.3368011713027954 0.4128893315792084
0.22790484130382538 0.25574272871017456 0.5407552719116211
0.2808166742324829 0.21343934535980225 0.5862170457839966
0.28772786259651184 0.36731991171836853 0.5707411170005798
0.3024126887321472 0.3120308518409729 0.5353700518608093
0.18778100609779358 0.2473367303609848 0.4402347803115845
0.25526493787765503 0.40528616309165955 0.5036695003509521
0.2507598400115967 0.23624137043952942 0.5943253040313721
0.14822062849998474 0.28604185581207275 0.5586762428283691
0.2087630182504654 0.3062096834182739 0.5006328821182251
0.12931522727012634 0.31370851397514343 0.4186595380306244
0.13720521330833435 0.34540286660194397 0.4110889136791229
0.1733378767967224 0.3039768934249878 0.5379572510719299
0.2495863288640976 0.3969804644584656 0.5602900385856628
0.248843252658844 0.17527203261852264 0.5588456988334656
0.24997730553150177 0.17447195947170258 0.5558043718338013
0.3504931628704071 0.25993612408638 0.43651145696640015
0.2710873484611511 0.31395038962364197 0.6026301980018616
0.2745550274848938 0.4240874648094177 0.4396699368953705
0.14944306015968323 0.3256157636642456 0.4405679404735565
0.29280418157577515 0.25615236163139343 0.42388805747032166
0.2756466269493103 0.22072669863700867 0.4847160875797272
0.24646125733852386 0.3462471067905426 0.48249271512031555
0.20225244760513306 0.2246226966381073 0.5138977766036987
0.3128584921360016 0.2329186052083969 0.4891909062862396
0.23159824311733246 0.22251859307289124 0.5037974715232849
0.20372535288333893 0.37879347801208496 0.5985782742500305
0.14923861622810364 0.27197322249412537 0.49851715564727783
0.33912187814712524 0.32959699630737305 0.4253065884113312
0.27134421467781067 0.3536057472229004 0.4172062575817108
0.19028162956237793 0.23190510272979736 0.4243662357330322
0.19466248154640198 0.36763158440589905 0.45790383219718933
0.18785567581653595 0.31008467078208923 0.4130009710788727
0.24894997477531433 0.3270869553089142 0.4976121783256531
0.23204919695854187 0.23286926746368408 0.4170990288257599
0.27998074889183044 0.3307558596134186 0.47643688321113586
0.2698010802268982 0.23737125098705292 0.536587655544281
0.24959979951381683 0.36646100878715515 0.5138686895370483
0.28006240725517273 0.22442299127578735 0.5041939616203308
0.25150614976882935 0.38247182965278625 0.46254676580429077
0.2390693724155426 0.40222233533859253 0.4449250400066376
0.25270572304725647 0.2974343001842499 0.40998759865760803
0.22057944536209106 0.30779266357421875 0.4980151355266571
0.18627530336380005 0.27963003516197205 0.4427400529384613
0.2610390782356262 0.27130213379859924 0.4738224744796753
0.1448555886745453 0.3454125225543976 0.4243977665901184
0.24346865713596344 0.17835840582847595 0.4557133913040161
0.2555542290210724 0.28988876938819885 0.5696781873703003
0.22634652256965637 0.28449612855911255 0.5313234925270081
0.23209437727928162 0.2925620377063751 0.5460297465324402
0.2874918580055237 0.318993479013443 0.4595872163772583
0.2671082317829132 0.21622416377067566 0.4614454507827759
0.28944993019104004 0.2428157776594162 0.5573909878730774
0.27664923667907715 0.30895283818244934 0.5962313413619995
0.1442462056875229 0.3271811008453369 0.5189025402069092
0.2647935748100281 0.2338758111000061 0.5233075022697449
0.3498940169811249 0.256133496761322 0.49492618441581726
0.28665339946746826 0.19729895889759064 0.5256532430648804
0.224554181098938 0.33911922574043274 0.5888435244560242
0.2743399441242218 0.3906193971633911 0.5469984412193298
0.251882940530777 0.22550076246261597 0.4443572759628296
0.18174414336681366 0.30691564083099365 0.41061702370643616
0.19478629529476166 0.3359081447124481 0.4095800817012787
0.24232789874076843 0.34453368186950684 0.507297158241272
0.3460268974304199 0.29043442010879517 0.4366288483142853
0.32255879044532776 0.24293266236782074 0.5886810421943665
0.19825810194015503 0.23432020843029022 0.582840621471405
0.2722987234592438 0.21609988808631897 0.4970797300338745
0.29347798228263855 0.28186047077178955 0.48373112082481384
0.2652629613876343 0.39073511958122253 0.5446173548698425
0.13068373501300812 0.3350118398666382 0.46358853578567505
0.18255610764026642 0.2673029601573944 0.5128079056739807
0.30178579688072205 0.36418357491493225 0.5211527347564697
0.14793436229228973 0.266708642244339 0.5938514471054077
0.27452734112739563 0.3467291593551636 0.4524470865726471
0.2550426125526428 0.2766339182853699 0.5030539035797119
0.19188763201236725 0.3491840660572052 0.5688433647155762
0.30039331316947937 0.22244447469711304 0.5342183113098145
0.3559017777442932 0.2794160544872284 0.43958401679992676
0.22722144424915314 0.2383365035057068 0.5215972065925598
0.24071776866912842 0.3445044159889221 0.5642268657684326
0.21533536911010742 0.3743871748447418 0.5687316060066223
0.30691200494766235 0.35931533575057983 0.5641188025474548
0.30853474140167236 0.3042832314968109 0.45397457480430603
0.2923867404460907 0.38245734572410583 0.4598129987716675
0.1276305466890335 0.3285154104232788 0.450011670589447
0.29979416728019714 0.22547248005867004 0.4513497054576874
0.30673858523368835 0.35646378993988037 0.4567309319972992
0.30497077107429504 0.3548315167427063 0.5699004530906677
0.256112277507782 0.18502548336982727 0.39873093366622925
0.2742287516593933 0.23959606885910034 0.5487115979194641
0.23196685314178467 0.3800692558288574 0.5726326107978821
0.19858501851558685 0.2290327548980713 0.5639805197715759
0.22528214752674103 0.3964775800704956 0.44780880212783813
0.2090543955564499 0.3052925765514374 0.4918844997882843
0.3696293234825134 0.28780969977378845 0.553134024143219
0.2784145772457123 0.353010356426239 0.5354607105255127
0.31762295961380005 0.22438174486160278 0.5743502378463745
0.18116863071918488 0.2352871298789978 0.5435467958450317
0.14489403367042542 0.3171004354953766 0.4084555208683014
0.18408815562725067 0.2972869277000427 0.5328211784362793
0.17984311282634735 0.2954922616481781 0.48444685339927673
0.20021267235279083 0.25408241152763367 0.506233811378479
0.16096241772174835 0.3021714687347412 0.41415393352508545
0.296793669462204 0.35472407937049866 0.5942861437797546
0.19391746819019318 0.25062936544418335 0.4004608988761902
0.3290981948375702 0.35995858907699585 0.45568040013313293
0.27746477723121643 0.31307271122932434 0.5575788617134094
0.2348134070634842 0.386994868516922 0.4819222688674927
0.33444666862487793 0.23523829877376556 0.4063011407852173
0.25459834933280945 0.3270482122898102 0.510745644569397
0.32293790578842163 0.26852473616600037 0.5885152816772461
0.3792395293712616 0.2730846107006073 0.45661643147468567
0.1989884376525879 0.2301461100578308 0.5407727956771851
0.3488513231277466 0.25522130727767944 0.5270074009895325
0.23625513911247253 0.30459433794021606 0.5463027358055115
0.26977452635765076 0.39819949865341187 0.5924966931343079
0.25805723667144775 0.19726938009262085 0.5398244261741638
0.24987918138504028 0.19197821617126465 0.564700186252594
0.2602381110191345 0.34992754459381104 0.5680550932884216
0.21166403591632843 0.34386777877807617 0.5854478478431702
0.33237603306770325 0.270138680934906 0.5472062826156616
0.2660328447818756 0.2760784327983856 0.5294721722602844
0.28024569153785706 0.2651064693927765 0.5466107130050659
0.3164086639881134 0.27932658791542053 0.5898915529251099
0.164897620677948 0.35389241576194763 0.5971124768257141
0.30088213086128235 0.22883759438991547 0.5019180774688721
0.19677400588989258 0.2973484396934509 0.5055340528488159
0.30470767617225647 0.32626330852508545 0.4337523877620697
0.2443678081035614 0.32911160588264465 0.5443264245986938
0.17800337076187134 0.37044286727905273 0.40535029768943787
0.28742411732673645 0.3530295491218567 0.41610801219940186
0.2247050255537033 0.34402191638946533 0.5051881074905396
0.16947612166404724 0.34176498651504517 0.4154408872127533
0.329125314950943 0.31917211413383484 0.4855659008026123
0.25886794924736023 0.3210946321487427 0.5104156732559204
0.2506393492221832 0.30008551478385925 0.48372021317481995
0.338583767414093 0.3076683282852173 0.4534434378147125
0.21124820411205292 0.2405022829771042 0.43233510851860046
0.15081337094306946 0.2790723741054535 0.549047589302063
0.1950034201145172 0.27998170256614685 0.5501605868339539
0.28244614601135254 0.3368011713027954 0.4128893315792084
0.34484192728996277 0.2605969309806824 0.5779682397842407
0.36376523971557617 0.2667011022567749 0.4061574339866638
0.2292231172323227 0.30400609970092773 0.5185720324516296
0.21982532739639282 0.24877063930034637 0.5518976449966431
0.28499966859817505 0.2919347286224365 0.4884185492992401
0.25270983576774597 0.33981531858444214 0.5478530526161194
0.20173034071922302 0.3154008984565735 0.563429594039917
0.2258407175540924 0.2508552372455597 0.4605313241481781
0.3648017942905426 0.25726476311683655 0.5286167860031128
0.2481100708246231 0.3528510332107544 0.4378441870212555
0.12386773526668549 0.3057231605052948 0.5844528079032898
0.21149326860904694 0.34453731775283813 0.40739232301712036
0.26596295833587646 0.3364344835281372 0.49778684973716736
0.27379146218299866 0.20456121861934662 0.43915998935699463
0.23013222217559814 0.22364608943462372 0.5398695468902588
0.26072612404823303 0.27583420276641846 0.47432783246040344
0.31618571281433105 0.29123544692993164 0.4690302908420563
0.1688939481973648 0.28576168417930603 0.5177940726280212
0.29383593797683716 0.3412707448005676 0.6041406393051147
0.30206066370010376 0.2116478681564331 0.48428821563720703
0.27479952573776245 0.39733558893203735 0.517332911491394
0.25323089957237244 0.22887207567691803 0.4748179316520691
0.21853937208652496 0.2756847143173218 0.40978217124938965
0.2166348695755005 0.3851623237133026 0.42692896723747253
0.279183954000473 0.42863085865974426 0.46144595742225647
0.355928510427475 0.27544453740119934 0.44099321961402893
0.2737466096878052 0.26240238547325134 0.5050324201583862
0.34484192728996277 0.2605969309806824 0.5779682397842407
0.36376523971557617 0.2667011022567749 0.4061574339866638
0.2292231172323227 0.30400609970092773 0.5185720324516296
0.21578089892864227 0.27576908469200134 0.5052715539932251
0.25052380561828613 0.39094114303588867 0.44440874457359314
0.27533552050590515 0.24137070775032043 0.4446490705013275
0.30403417348861694 0.34795740246772766 0.6101517081260681
0.20310857892036438 0.26736557483673096 0.4707038402557373
0.19052821397781372 0.34171780943870544 0.520545244216919
0.24160443246364594 0.29986321926116943 0.5718131065368652
0.2639819383621216 0.3462332785129547 0.44841477274894714
0.18614739179611206 0.3301994204521179 0.4588947892189026
0.22871901094913483 0.27776920795440674 0.5838281512260437
0.2569269835948944 0.21045324206352234 0.43506932258605957
0.2939537763595581 0.24852195382118225 0.5995649695396423
0.24995023012161255 0.32692304253578186 0.49569135904312134
0.2671557366847992 0.19788092374801636 0.5548942685127258
0.3181135058403015 0.2828047573566437 0.5502371788024902
0.24648411571979523 0.2728869616985321 0.46258941292762756
0.26276564598083496 0.2681141197681427 0.5014855265617371
0.3327638506889343 0.292990118265152 0.6005591750144958
0.27556389570236206 0.36874920129776 0.44653356075286865
0.22558550536632538 0.365572065114975 0.5687751173973083
0.33016300201416016 0.3107292652130127 0.44058552384376526
0.20468175411224365 0.3617416322231293 0.558340847492218
0.1707596778869629 0.2587405741214752 0.5068938732147217
0.26216962933540344 0.40732598304748535 0.4622613489627838
0.2448616623878479 0.3346538543701172 0.5526760220527649
0.12069724500179291 0.31979846954345703 0.5055726766586304
0.21637564897537231 0.247506245970726 0.40915098786354065
0.15991327166557312 0.2857898771762848 0.4409623444080353
0.29787445068359375 0.3793177604675293 0.5620206594467163
0.21192659437656403 0.37367308139801025 0.5851868987083435
0.33534103631973267 0.27874189615249634 0.5118592381477356
0.24122242629528046 0.2051648497581482 0.39844903349876404
0.24439802765846252 0.18499957025051117 0.4512343406677246
0.12573419511318207 0.3160873353481293 0.5927477478981018
0.25201553106307983 0.3557000458240509 0.5173096656799316
0.307129442691803 0.31502825021743774 0.5230156183242798
0.2825183570384979 0.3664984405040741 0.4911917448043823
0.15072749555110931 0.3086611032485962 0.4089473783969879
0.19017425179481506 0.2813113033771515 0.4861641526222229
0.3242660462856293 0.22197963297367096 0.5413818955421448
0.2265969216823578 0.2689404785633087 0.49970313906669617
0.25266703963279724 0.2808744013309479 0.4051462411880493
0.3166646957397461 0.337074875831604 0.5105980038642883
0.295342355966568 0.2094981074333191 0.4723075330257416
0.21263237297534943 0.22004683315753937 0.42356836795806885
0.22851286828517914 0.36516323685646057 0.5197846293449402
0.13584665954113007 0.32844477891921997 0.4763903319835663
0.2760860025882721 0.21406999230384827 0.5229617357254028
0.27891725301742554 0.35956600308418274 0.5837339758872986
0.2581952214241028 0.2949245274066925 0.5687646865844727
0.3608592748641968 0.25972768664360046 0.5530695915222168
0.3019319176673889 0.3659873306751251 0.596585214138031
0.3132583200931549 0.25850698351860046 0.4717490077018738
0.2726059854030609 0.33521440625190735 0.5369810461997986
0.28679510951042175 0.35057055950164795 0.5804523825645447
0.2991963028907776 0.35938969254493713 0.5312277674674988
0.274960994720459 0.2870500385761261 0.4543289840221405
0.19582022726535797 0.34747129678726196 0.4329352378845215
0.2827278971672058 0.30052483081817627 0.47435325384140015
0.338583767414093 0.3076683282852173 0.4534434378147125
0.32027897238731384 0.3557286858558655 0.5169594287872314
0.2806852459907532 0.40839794278144836 0.4807233214378357
0.3011108934879303 0.23423878848552704 0.49919283390045166
0.14859335124492645 0.3211881220340729 0.5509517788887024
0.21629315614700317 0.3670687973499298 0.5380535125732422
0.23936495184898376 0.2647012770175934 0.5839362740516663
0.2586117088794708 0.24472767114639282 0.5395113229751587
0.20942692458629608 0.31840795278549194 0.5242520570755005
0.22396928071975708 0.19735750555992126 0.4866292178630829
0.28766825795173645 0.26052188873291016 0.40550756454467773
0.30794331431388855 0.23936337232589722 0.5695749521255493
0.27725088596343994 0.33257734775543213 0.5578470230102539
0.21606327593326569 0.23590072989463806 0.5355980396270752
0.313164621591568 0.2852671146392822 0.43289196491241455
0.22766102850437164 0.37099844217300415 0.5510516166687012
0.1974969208240509 0.37344250082969666 0.534217894077301
0.23346616327762604 0.2827342450618744 0.5103572607040405
0.3315789997577667 0.25629130005836487 0.5846007466316223
0.2609288692474365 0.21260669827461243 0.5747367143630981
0.2569693326950073 0.3876705467700958 0.5876343846321106
0.35035067796707153 0.31209397315979004 0.5459793210029602
0.2587628960609436 0.3145695626735687 0.4548499584197998
0.1884235441684723 0.24784289300441742 0.43847599625587463
0.20142710208892822 0.31033143401145935 0.4824335277080536
0.2642604112625122 0.2318558692932129 0.5136411786079407
0.2760082483291626 0.2749486565589905 0.4218232035636902
0.15495610237121582 0.33479076623916626 0.42511457204818726
0.2196212261915207 0.19060835242271423 0.5615002512931824
0.20836810767650604 0.36777785420417786 0.42771121859550476
0.25627753138542175 0.3010231554508209 0.5651969313621521
0.2717849910259247 0.27121031284332275 0.586103618144989
0.24439802765846252 0.18499957025051117 0.4512343406677246
0.3242660462856293 0.22197963297367096 0.5413818955421448
0.2265969216823578 0.2689404785633087 0.49970313906669617
0.274924635887146 0.4086751639842987 0.5007049441337585
0.2326529622077942 0.34159111976623535 0.5578795075416565
0.24916061758995056 0.3846382200717926 0.4402381479740143
0.2553766965866089 0.18873313069343567 0.4144001603126526
0.3056727349758148 0.21720948815345764 0.5166563987731934
0.13639742136001587 0.324118971824646 0.5946266055107117
0.2764970660209656 0.21924176812171936 0.5306729078292847
0.24556058645248413 0.3659859001636505 0.5536593198776245
0.29656264185905457 0.32559865713119507 0.4423483908176422
0.23567411303520203 0.319099485874176 0.4279923439025879
0.23533202707767487 0.17362429201602936 0.4513506293296814
0.13065288960933685 0.292410671710968 0.566290557384491
0.2832537591457367 0.3897055983543396 0.41668611764907837
0.20101073384284973 0.3496023714542389 0.4599875807762146
0.21553148329257965 0.37887993454933167 0.5808590054512024
0.2347499281167984 0.1818050742149353 0.4713057577610016
0.1889207363128662 0.27189934253692627 0.5046435594558716
0.13206131756305695 0.3018481731414795 0.5956801772117615
0.17194713652133942 0.3151788115501404 0.5168383717536926
0.28118646144866943 0.28861671686172485 0.41364431381225586
0.16650758683681488 0.3615776002407074 0.4643856883049011
0.24988463521003723 0.26974615454673767 0.601477324962616
0.15788990259170532 0.26942679286003113 0.5770484209060669
0.26757732033729553 0.418565034866333 0.423947811126709
0.33026713132858276 0.3534597158432007 0.48900455236434937
0.3281274437904358 0.3065606355667114 0.5845399498939514
0.19209304451942444 0.21807271242141724 0.5575162172317505
0.28489556908607483 0.2713676989078522 0.5036527514457703
0.25090211629867554 0.18715240061283112 0.5994917750358582
0.20942692458629608 0.31840795278549194 0.5242520570755005
0.2249237596988678 0.23029237985610962 0.5807780027389526
0.2293737679719925 0.308942973613739 0.5941991806030273
0.1747719794511795 0.2630801796913147 0.5510449409484863
0.29174739122390747 0.3792627155780792 0.4841615557670593
0.2582876682281494 0.34490662813186646 0.5361562371253967
0.2700669467449188 0.3720128834247589 0.43216806650161743
0.293954074382782 0.3437463045120239 0.5465683937072754
0.20940659940242767 0.28322428464889526 0.5228797793388367
0.29498690366744995 0.40212011337280273 0.5256370306015015
0.28774574398994446 0.22878684103488922 0.4450252950191498
0.19962753355503082 0.3138398826122284 0.41658568382263184
0.21382999420166016 0.33232468366622925 0.4692043960094452
0.15839403867721558 0.3081260323524475 0.440837025642395
0.3431994915008545 0.24496304988861084 0.4712059795856476
0.3572291433811188 0.2913933992385864 0.44472894072532654
0.14934782683849335 0.2933700680732727 0.583989679813385
0.2642604112625122 0.2318558692932129 0.5136411786079407
0.2760082483291626 0.2749486565589905 0.4218232035636902
0.15495610237121582 0.33479076623916626 0.42511457204818726
0.2196212261915207 0.19060835242271423 0.5615002512931824
0.20836810767650604 0.36777785420417786 0.42771121859550476
0.25627753138542175 0.3010231554508209 0.5651969313621521
0.2717849910259247 0.27121031284332275 0.586103618144989
0.36079397797584534 0.2478027194738388 0.45432060956954956
0.2792421877384186 0.20483160018920898 0.4158608615398407
