ply
format ascii 1.0
element vertex 825
property float x
property float y
property float z
end_header
0.24537742137908936 0.3154129087924957 0.42592713236808777
0.34069308638572693 0.22979781031608582 0.5465222001075745
0.20301155745983124 0.31440892815589905 0.4819983243942261
0.2680293619632721 0.19179749488830566 0.5113240480422974
0.29124265909194946 0.22824718058109283 0.43686580657958984
0.32490748167037964 0.28094279766082764 0.5740535259246826
0.29803067445755005 0.3954756259918213 0.47938406467437744
0.22444555163383484 0.21532583236694336 0.5789949297904968
0.334538072347641 0.3137544095516205 0.555055558681488
0.1676945984363556 0.34894466400146484 0.4544306993484497
0.4026658236980438 0.2843529284000397 0.43891140818595886
0.3089473843574524 0.3575017750263214 0.5568373203277588
0.149336576461792 0.3172067701816559 0.5033928751945496
0.3392144739627838 0.25016704201698303 0.4728217124938965
0.18082007765769958 0.30555441975593567 0.5059987306594849
0.1933302879333496 0.3120935559272766 0.47749435901641846
0.22115178406238556 0.22864452004432678 0.44128304719924927
0.29567259550094604 0.39596810936927795 0.5665972232818604
0.3225190341472626 0.3496836721897125 0.5101277232170105
0.22178155183792114 0.3185982406139374 0.5712227821350098
0.15964536368846893 0.3362250328063965 0.5200416445732117
0.32179564237594604 0.36415523290634155 0.5470035076141357
0.27180206775665283 0.2813498079776764 0.4813801646232605
0.16599737107753754 0.3520296514034271 0.42773470282554626
0.25041696429252625 0.31959909200668335 0.544060468673706
0.3867921233177185 0.3106289505958557 0.449264258146286
0.1935732364654541 0.314618855714798 0.4632222056388855
0.18770986795425415 0.2553631365299225 0.43088656663894653
0.22575810551643372 0.2753879725933075 0.5975517630577087
0.14162348210811615 0.3144719898700714 0.4653584361076355
0.22942470014095306 0.1995558738708496 0.44391098618507385
0.30185380578041077 0.33238133788108826 0.6044504046440125
0.2211945801973343 0.1828489452600479 0.5585300922393799
0.2625209093093872 0.1946137696504593 0.46560290455818176
0.36411377787590027 0.2844899594783783 0.5228074789047241
0.22128622233867645 0.30522453784942627 0.48966073989868164
0.3164553642272949 0.2344466596841812 0.5072122812271118
0.22239790856838226 0.2822516858577728 0.557925820350647
0.3559328615665436 0.31756269931793213 0.5130335092544556
0.31895697116851807 0.3382357358932495 0.5258364677429199
0.29813963174819946 0.30168312788009644 0.5461604595184326
0.22825202345848083 0.3783522844314575 0.5061981678009033
0.334538072347641 0.3137544095516205 0.555055558681488
0.1676945984363556 0.34894466400146484 0.4544306993484497
0.4026658236980438 0.2843529284000397 0.43891140818595886
0.3089473843574524 0.3575017750263214 0.5568373203277588
0.149336576461792 0.3172067701816559 0.5033928751945496
0.3392144739627838 0.25016704201698303 0.4728217124938965
0.18082007765769958 0.30555441975593567 0.5059987306594849
0.1933302879333496 0.3120935559272766 0.47749435901641846
0.22115178406238556 0.22864452004432678 0.44128304719924927
0.29567259550094604 0.39596810936927795 0.5665972232818604
0.26003238558769226 0.38483133912086487 0.49879828095436096
0.26001688838005066 0.21132391691207886 0.5035251975059509
0.213009312748909 0.35174888372421265 0.5137051939964294
0.32636624574661255 0.28878501057624817 0.5680696964263916
0.28462350368499756 0.19994665682315826 0.5468084812164307
0.32901832461357117 0.320038378238678 0.5555351376533508
0.39271625876426697 0.2706642746925354 0.431911438703537
0.2023458331823349 0.2648701071739197 0.5063291788101196
0.36579954624176025 0.3390127718448639 0.42358729243278503
0.2569407820701599 0.3137745261192322 0.5372380018234253
0.3592034876346588 0.322658509016037 0.4770791828632355
0.1735815703868866 0.3019602596759796 0.44917553663253784
0.21414904296398163 0.3651030361652374 0.4407985210418701
0.3947576880455017 0.27558276057243347 0.45941731333732605
0.18049843609333038 0.26086047291755676 0.4580656588077545
0.22082887589931488 0.32953953742980957 0.5636715888977051
0.3305414915084839 0.3084743916988373 0.509966254234314
0.2530359923839569 0.28318578004837036 0.5844587683677673
0.3770720362663269 0.30317506194114685 0.5081520676612854
0.2915939390659332 0.3212054371833801 0.5178834199905396
0.2950773239135742 0.34199753403663635 0.5975356698036194
0.2697552442550659 0.33918923139572144 0.5397113561630249
0.1806052029132843 0.35015514492988586 0.4379635155200958
0.23250837624073029 0.3383612632751465 0.49203577637672424
0.3132100999355316 0.3901078402996063 0.5755599737167358
0.2542175054550171 0.22767995297908783 0.5754187107086182
0.24536257982254028 0.3802620768547058 0.4711119830608368
0.37226602435112 0.2959337532520294 0.5719168186187744
0.28838348388671875 0.24390289187431335 0.59132319688797
0.22256240248680115 0.28210172057151794 0.4754500985145569
0.13126452267169952 0.3237963020801544 0.5405431985855103
0.2082960456609726 0.3478790521621704 0.529260516166687
0.3631913363933563 0.24375909566879272 0.5424900054931641
0.30185380578041077 0.33238133788108826 0.6044504046440125
0.19568581879138947 0.2774769961833954 0.5132428407669067
0.3101806044578552 0.3658446669578552 0.5491266846656799
0.21463614702224731 0.244395911693573 0.5729352831840515
0.1801021695137024 0.3102794885635376 0.5850481986999512
0.24439473450183868 0.36192819476127625 0.4677589535713196
0.33693647384643555 0.37728407979011536 0.5253757834434509
0.2683184742927551 0.19961531460285187 0.49877622723579407
0.2952192425727844 0.3458629846572876 0.46460607647895813
0.2660888433456421 0.3314898610115051 0.6035817861557007
0.31624117493629456 0.40618428587913513 0.5252851843833923
0.35409489274024963 0.34987759590148926 0.4748696982860565
0.16763554513454437 0.28470200300216675 0.5632432699203491
0.22421947121620178 0.27772417664527893 0.5844153761863708
0.36230629682540894 0.33966952562332153 0.4311099946498871
0.34075289964675903 0.3240405321121216 0.44093137979507446
0.3065323829650879 0.3316431939601898 0.43865305185317993
0.3485204875469208 0.3449491858482361 0.5048646330833435
0.271165668964386 0.2024245709180832 0.5395396947860718
0.2338266670703888 0.27193692326545715 0.4650322496891022
0.3054993748664856 0.3914240598678589 0.522641122341156
0.17080824077129364 0.2967604398727417 0.4124782979488373
0.2787599563598633 0.32603719830513 0.4800829291343689
0.3305356800556183 0.32361069321632385 0.4351045787334442
0.3183082938194275 0.2938111126422882 0.5950595736503601
0.23969268798828125 0.2941974699497223 0.4685201346874237
0.34879133105278015 0.32725659012794495 0.5705286264419556
0.23717819154262543 0.319019079208374 0.5458804965019226
0.2819850444793701 0.2406175583600998 0.5827950239181519
0.3344644606113434 0.3309462368488312 0.4975968599319458
0.2604611814022064 0.2674833834171295 0.5992404222488403
0.15420439839363098 0.3173312842845917 0.4071170687675476
0.15964536368846893 0.3362250328063965 0.5200416445732117
0.26039472222328186 0.35656142234802246 0.5839093327522278
0.3210470378398895 0.39377108216285706 0.5355356931686401
0.37007755041122437 0.2816949784755707 0.5396475195884705
0.3586408495903015 0.2860736548900604 0.5475662350654602
0.26743456721305847 0.23948760330677032 0.5118576884269714
0.2562888562679291 0.25040489435195923 0.5019175410270691
0.3033972978591919 0.377517431974411 0.4250803589820862
0.2971186637878418 0.30675914883613586 0.4811379313468933
0.2712203860282898 0.23335079848766327 0.538443386554718
0.35157230496406555 0.31882965564727783 0.4111790955066681
0.2577582895755768 0.3389916718006134 0.45665252208709717
0.3772418200969696 0.2887924909591675 0.5328562259674072
0.21621115505695343 0.3433656394481659 0.47708994150161743
0.3185935318470001 0.2808925211429596 0.5129572153091431
0.17213743925094604 0.33354470133781433 0.5164385437965393
0.23802027106285095 0.22654712200164795 0.559243381023407
0.2119428515434265 0.333215594291687 0.40970179438591003
0.24206750094890594 0.2358078956604004 0.41941580176353455
0.27444320917129517 0.3129309117794037 0.46975240111351013
0.20013763010501862 0.25677168369293213 0.46517467498779297
0.29304683208465576 0.3927614986896515 0.5160594582557678
0.19179050624370575 0.3668408989906311 0.42188760638237
0.3343372642993927 0.2543158233165741 0.47637298703193665
0.3080393373966217 0.21080754697322845 0.47903963923454285
0.1961263120174408 0.261772096157074 0.4496210813522339
0.2585937976837158 0.2487187534570694 0.5042321085929871
0.31328845024108887 0.3644331097602844 0.5475605130195618
0.1866992861032486 0.3293866813182831 0.40179744362831116
0.19435089826583862 0.3640992045402527 0.5674103498458862
0.26837265491485596 0.37666627764701843 0.4193708300590515
0.1564190685749054 0.33518773317337036 0.4774596691131592
0.2906064987182617 0.36941441893577576 0.5525526404380798
0.3815687894821167 0.2965313494205475 0.5603811144828796
0.18121299147605896 0.3093293011188507 0.42623889446258545
0.3167119324207306 0.24321028590202332 0.4942469000816345
0.37744972109794617 0.2965269982814789 0.486146479845047
0.2772015631198883 0.38280853629112244 0.5740931630134583
0.24856412410736084 0.23117756843566895 0.5420064926147461
0.25572341680526733 0.38366854190826416 0.45033854246139526
0.31282341480255127 0.2211952656507492 0.5987228751182556
0.2951948344707489 0.28967756032943726 0.586632251739502
0.2385094314813614 0.31430584192276 0.47520434856414795
0.31969913840293884 0.27993345260620117 0.5129308104515076
0.21926696598529816 0.20881544053554535 0.5328883528709412
0.1905502825975418 0.26254919171333313 0.489406943321228
0.15682968497276306 0.3272992670536041 0.5013511776924133
0.33895909786224365 0.3347710072994232 0.47579479217529297
0.2593025863170624 0.32337313890457153 0.5202133655548096
0.20175065100193024 0.2573041617870331 0.48186177015304565
0.2155921310186386 0.3299330770969391 0.4215065836906433
0.2644442617893219 0.3136903643608093 0.5593056678771973
0.1989900767803192 0.35673853754997253 0.42130717635154724
0.38680553436279297 0.2906990945339203 0.43072953820228577
0.36637556552886963 0.3226058781147003 0.4678370952606201
0.2502354383468628 0.3693225383758545 0.5358293652534485
0.3382700979709625 0.2951245903968811 0.5842282772064209
0.34930747747421265 0.3526573181152344 0.5841760635375977
0.26887524127960205 0.21061013638973236 0.5801096558570862
0.2550759017467499 0.3446379601955414 0.5604478120803833
0.31709450483322144 0.25241440534591675 0.4429091215133667
0.29751643538475037 0.34406110644340515 0.5151874423027039
0.32217106223106384 0.30663934350013733 0.5560387372970581
0.2832643985748291 0.3495888113975525 0.4656020998954773
0.2865695059299469 0.2588824927806854 0.4672698378562927
0.271165668964386 0.2024245709180832 0.5395396947860718
0.2338266670703888 0.27193692326545715 0.4650322496891022
0.3625873029232025 0.2450297772884369 0.44233208894729614
0.32019028067588806 0.3080417215824127 0.41806504130363464
0.30694591999053955 0.2921988070011139 0.4946477711200714
0.2789698839187622 0.20644895732402802 0.4072777032852173
0.2045249342918396 0.29586338996887207 0.5029848217964172
0.2066420018672943 0.3205726146697998 0.5742748975753784
0.34129127860069275 0.3180682063102722 0.5370480418205261
0.24353758990764618 0.2712761461734772 0.4993012547492981
0.34839850664138794 0.32512393593788147 0.5265347361564636
0.35031744837760925 0.248643696308136 0.5736808180809021
0.20158647000789642 0.3111908435821533 0.4260571599006653
0.3052910268306732 0.29744604229927063 0.5514603853225708
0.23700058460235596 0.3133185803890228 0.49436479806900024
0.16580061614513397 0.27426469326019287 0.472080260515213
0.3434256911277771 0.31768596172332764 0.5333217978477478
0.26752257347106934 0.35557571053504944 0.5085000991821289
0.3274272680282593 0.2455127239227295 0.521832287311554
0.27618977427482605 0.2499694675207138 0.5032749772071838
0.28518742322921753 0.4216144382953644 0.4613027572631836
0.2714037597179413 0.23514428734779358 0.5768207311630249
0.2926191985607147 0.20800726115703583 0.4341362714767456
0.15309154987335205 0.2868611216545105 0.5880358815193176
0.27000176906585693 0.3874700665473938 0.4160054624080658
0.1680154800415039 0.2963450253009796 0.5096604824066162
0.19723732769489288 0.26473626494407654 0.4483741521835327
0.23776564002037048 0.31099969148635864 0.5732837319374084
0.2799777686595917 0.21225234866142273 0.4746791124343872
0.18556217849254608 0.3233080506324768 0.5589972138404846
0.2921777665615082 0.24041788280010223 0.5743911862373352
0.2388833910226822 0.19003784656524658 0.5204955339431763
0.24934068322181702 0.2394482046365738 0.5012602806091309
0.22692134976387024 0.3185909390449524 0.5985601544380188
0.3103884756565094 0.22996266186237335 0.5949060916900635
0.23969268798828125 0.2941974699497223 0.4685201346874237
0.34879133105278015 0.32725659012794495 0.5705286264419556
0.23717819154262543 0.319019079208374 0.5458804965019226
0.2494623064994812 0.36853522062301636 0.4548308849334717
0.2819850444793701 0.2406175583600998 0.5827950239181519
0.3344644606113434 0.3309462368488312 0.4975968599319458
0.2604611814022064 0.2674833834171295 0.5992404222488403
0.15420439839363098 0.3173312842845917 0.4071170687675476
0.2543858289718628 0.2686063051223755 0.43751317262649536
0.3340052664279938 0.26117172837257385 0.495953768491745
0.17604224383831024 0.3546186089515686 0.45114126801490784
0.39079582691192627 0.29510822892189026 0.5486260056495667
0.31672313809394836 0.38719508051872253 0.449823796749115
0.2849142551422119 0.2024068832397461 0.4249974489212036
0.193910613656044 0.24574846029281616 0.46830907464027405
0.2782999575138092 0.25345301628112793 0.5119017362594604
0.2100541740655899 0.31868278980255127 0.5482888221740723
0.2993168234825134 0.39253300428390503 0.41379791498184204
0.3960849642753601 0.2705283463001251 0.5777760148048401
0.2862529158592224 0.21926890313625336 0.5119860768318176
0.3768073618412018 0.26153337955474854 0.5530113577842712
0.15309154987335205 0.2868611216545105 0.5880358815193176
0.27000176906585693 0.3874700665473938 0.4160054624080658
0.1680154800415039 0.2963450253009796 0.5096604824066162
0.19723732769489288 0.26473626494407654 0.4483741521835327
0.23776564002037048 0.31099969148635864 0.5732837319374084
0.2799777686595917 0.21225234866142273 0.4746791124343872
0.18556217849254608 0.3233080506324768 0.5589972138404846
0.18180757761001587 0.33055612444877625 0.43280959129333496
0.20718693733215332 0.2748362123966217 0.4635199308395386
0.21405351161956787 0.2614270746707916 0.4893288314342499
0.30582958459854126 0.2258242815732956 0.5712288618087769
0.31479382514953613 0.2914714813232422 0.4792715907096863
0.19731341302394867 0.3265828490257263 0.48391592502593994
0.25411492586135864 0.31049731373786926 0.5366066694259644
0.15868918597698212 0.3419345021247864 0.4700954556465149
0.2934964895248413 0.42717283964157104 0.5301450490951538
0.1771247237920761 0.2771575450897217 0.4730602204799652
0.20256571471691132 0.31201261281967163 0.4383608400821686
0.2782999575138092 0.25345301628112793 0.5119017362594604
0.2100541740655899 0.31868278980255127 0.5482888221740723
0.2993168234825134 0.39253300428390503 0.41379791498184204
0.3960849642753601 0.2705283463001251 0.5777760148048401
0.2862529158592224 0.21926890313625336 0.5119860768318176
0.3768073618412018 0.26153337955474854 0.5530113577842712
0.15309154987335205 0.2868611216545105 0.5880358815193176
0.27000176906585693 0.3874700665473938 0.4160054624080658
0.1680154800415039 0.2963450253009796 0.5096604824066162
0.19723732769489288 0.26473626494407654 0.4483741521835327
0.23776564002037048 0.31099969148635864 0.5732837319374084
0.2799777686595917 0.21225234866142273 0.4746791124343872
0.18556217849254608 0.3233080506324768 0.5589972138404846
0.2921777665615082 0.24041788280010223 0.5743911862373352
0.2942389249801636 0.26166027784347534 0.5439144968986511
0.32712364196777344 0.3301822543144226 0.5629669427871704
0.28648585081100464 0.3580169975757599 0.556316077709198
0.2755826413631439 0.21525324881076813 0.4189634621143341
0.37125226855278015 0.26190128922462463 0.6033503413200378
0.28041934967041016 0.20179077982902527 0.39745956659317017
0.3020424246788025 0.404073566198349 0.43507102131843567
0.18180757761001587 0.33055612444877625 0.43280959129333496
0.31946972012519836 0.23677246272563934 0.5708953738212585
0.3057648539543152 0.2544052004814148 0.5730941891670227
0.21402563154697418 0.3785483241081238 0.5333554744720459
0.2787599563598633 0.32603719830513 0.4800829291343689
0.20569778978824615 0.28193435072898865 0.5618526935577393
0.3311353325843811 0.26559996604919434 0.5160505771636963
0.3750796318054199 0.3074806332588196 0.49746063351631165
0.2872926890850067 0.1984073966741562 0.4169175624847412
0.2942389249801636 0.26166027784347534 0.5439144968986511
0.32712364196777344 0.3301822543144226 0.5629669427871704
0.28244549036026 0.2425537109375 0.4803488254547119
0.28325748443603516 0.33453673124313354 0.4109991788864136
0.2753276228904724 0.354940801858902 0.4748239517211914
0.19860906898975372 0.34540653228759766 0.5376643538475037
0.3095059394836426 0.3787672519683838 0.4673483669757843
0.27137291431427 0.24363704025745392 0.4562424123287201
0.19786417484283447 0.24980294704437256 0.44039106369018555
0.2130911648273468 0.3345829248428345 0.43436533212661743
0.28846338391304016 0.40027639269828796 0.5483289957046509
0.2814786732196808 0.3019706904888153 0.41707083582878113
0.2613428831100464 0.19904550909996033 0.5567821264266968
0.22785954177379608 0.2998330891132355 0.5132932662963867
0.3569759130477905 0.3435293138027191 0.49780750274658203
0.2824613153934479 0.34959152340888977 0.5612360239028931
0.34069329500198364 0.2891099750995636 0.5417824983596802
0.21465975046157837 0.37910956144332886 0.5266316533088684
0.30267101526260376 0.3560699224472046 0.5501382946968079
0.278925359249115 0.302645742893219 0.5075780749320984
0.30636340379714966 0.321227490901947 0.5233058333396912
0.29586467146873474 0.3093697428703308 0.574213981628418
0.2558865547180176 0.3948001563549042 0.41249266266822815
0.271165668964386 0.2024245709180832 0.5395396947860718
0.30635005235671997 0.2573283910751343 0.44007566571235657
0.270555317401886 0.3737863004207611 0.5462324619293213
0.22952578961849213 0.30102381110191345 0.5197731256484985
0.33595868945121765 0.24916096031665802 0.5999218821525574
0.363462895154953 0.29891127347946167 0.5367339849472046
0.3095311224460602 0.31079915165901184 0.46313512325286865
0.28938475251197815 0.20997843146324158 0.43909379839897156
0.27734532952308655 0.30890634655952454 0.5239511728286743
0.23509474098682404 0.18914692103862762 0.5599315166473389
0.2763786017894745 0.23286724090576172 0.5904721021652222
0.22179719805717468 0.2751752734184265 0.5615667104721069
0.29671987891197205 0.42391669750213623 0.44253435730934143
0.21929945051670074 0.31820356845855713 0.5410264730453491
0.3069825768470764 0.37545332312583923 0.46477293968200684
0.3920828104019165 0.26768073439598083 0.4614260196685791
0.22253717482089996 0.3035808801651001 0.48450443148612976
0.38146036863327026 0.2824588716030121 0.5721029043197632
0.18990471959114075 0.28248903155326843 0.45481690764427185
0.38337600231170654 0.2962871193885803 0.4825599193572998
0.2736245095729828 0.39438512921333313 0.5823721289634705
0.25517192482948303 0.21962732076644897 0.4031594693660736
0.23540358245372772 0.31437766551971436 0.49469828605651855
0.26454031467437744 0.3395311236381531 0.5109202861785889
0.2356177419424057 0.3092184364795685 0.5441097617149353
0.26318007707595825 0.21176381409168243 0.47885724902153015
0.3731713891029358 0.31290045380592346 0.4436890482902527
0.23251724243164062 0.30488646030426025 0.5969074964523315
0.36284536123275757 0.3138524889945984 0.46378806233406067
0.2240220159292221 0.37254849076271057 0.5760186314582825
0.3781372606754303 0.29660871624946594 0.4930165708065033
0.3895586431026459 0.2788184583187103 0.5703194737434387
0.31946972012519836 0.23677246272563934 0.5708953738212585
0.3621075749397278 0.2467001974582672 0.4844472110271454
0.27453479170799255 0.3942566215991974 0.5367323160171509
0.2830159664154053 0.38768088817596436 0.5520583987236023
0.2359863668680191 0.24817423522472382 0.44671374559402466
0.250799298286438 0.2702328860759735 0.41891032457351685
0.31092673540115356 0.2581859230995178 0.522634744644165
0.1879630982875824 0.35972675681114197 0.5480427742004395
0.28263384103775024 0.2066752016544342 0.5935285091400146
0.15169653296470642 0.3245672285556793 0.4245271384716034
0.28244549036026 0.2425537109375 0.4803488254547119
0.28325748443603516 0.33453673124313354 0.4109991788864136
0.2753276228904724 0.354940801858902 0.4748239517211914
0.19860906898975372 0.34540653228759766 0.5376643538475037
0.30635005235671997 0.2573283910751343 0.44007566571235657
0.2327161282300949 0.23968517780303955 0.5253127217292786
0.21674105525016785 0.30522069334983826 0.5295646786689758
0.18865375220775604 0.2676282823085785 0.41178447008132935
0.254117488861084 0.3583125174045563 0.5172774791717529
0.285693496465683 0.25323668122291565 0.5771600604057312
0.2846079170703888 0.37800726294517517 0.5443735122680664
0.29126620292663574 0.24492545425891876 0.4273093640804291
0.32047492265701294 0.24867725372314453 0.4407772421836853
0.3733600676059723 0.2783096134662628 0.5285227298736572
0.2478637397289276 0.34542691707611084 0.41904881596565247
0.26479458808898926 0.18313567340373993 0.4312446415424347
0.368598610162735 0.2950933575630188 0.42360344529151917
0.2962262034416199 0.2275623083114624 0.40825751423835754
0.2260609269142151 0.24610763788223267 0.5486264228820801
0.30705082416534424 0.2617848217487335 0.5919814109802246
0.31424060463905334 0.40606746077537537 0.578224241733551
0.23657473921775818 0.2787040174007416 0.5946496725082397
0.15090836584568024 0.3303462862968445 0.4051746428012848
0.32104066014289856 0.34524330496788025 0.4384450316429138
0.22143489122390747 0.21947813034057617 0.5040643215179443
0.20058976113796234 0.2932349741458893 0.46610963344573975
0.24342966079711914 0.20872054994106293 0.5461851954460144
0.3124283254146576 0.33967354893684387 0.5746374130249023
0.25903385877609253 0.22423675656318665 0.5717384219169617
0.38773834705352783 0.29978281259536743 0.4297257959842682
0.16053803265094757 0.3064938485622406 0.46419891715049744
0.25002509355545044 0.2656179964542389 0.4323616921901703
0.2220090627670288 0.2818342447280884 0.4717714190483093
0.22111739218235016 0.26574578881263733 0.4599904716014862
0.3239368796348572 0.2496577352285385 0.41134923696517944
0.28296855092048645 0.4272221326828003 0.45533207058906555
0.3226332664489746 0.304964542388916 0.5612841248512268
0.22297225892543793 0.3534337282180786 0.5318798422813416
0.23760968446731567 0.3802816867828369 0.44503286480903625
0.2340533286333084 0.3871876001358032 0.42928627133369446
0.2455994337797165 0.17961792647838593 0.45392632484436035
0.21450236439704895 0.29843199253082275 0.4923302233219147
0.2519466280937195 0.3956405222415924 0.44107455015182495
0.24655315279960632 0.22746680676937103 0.43548184633255005
0.26291942596435547 0.29148128628730774 0.4919055104255676
0.22417853772640228 0.35144057869911194 0.5186772346496582
0.21128380298614502 0.3320891261100769 0.45618346333503723
0.226216658949852 0.32977956533432007 0.5344263911247253
0.27337411046028137 0.3512735366821289 0.5777032375335693
0.26637545228004456 0.21782046556472778 0.5319952964782715
0.19860906898975372 0.34540653228759766 0.5376643538475037
0.30635005235671997 0.2573283910751343 0.44007566571235657
0.2327161282300949 0.23968517780303955 0.5253127217292786
0.21674105525016785 0.30522069334983826 0.5295646786689758
0.1943003535270691 0.23708002269268036 0.49667802453041077
0.27137291431427 0.24363704025745392 0.4562424123287201
0.3231690227985382 0.3494192659854889 0.576459527015686
0.2891816198825836 0.3168250322341919 0.4818947911262512
0.21495933830738068 0.23882637917995453 0.5908048152923584
0.3257070779800415 0.27817314863204956 0.4138197600841522
0.24848312139511108 0.2635553479194641 0.5964794158935547
0.2933421730995178 0.31498706340789795 0.5836300253868103
0.22262923419475555 0.3360772728919983 0.4829624593257904
0.20087647438049316 0.3142494559288025 0.5391591787338257
0.2761051654815674 0.285526841878891 0.5264185667037964
0.30601105093955994 0.24235984683036804 0.4998367428779602
0.1744695007801056 0.3335222899913788 0.4088427424430847
0.2820318043231964 0.1898178607225418 0.526555597782135
0.3054462671279907 0.3964401185512543 0.4588628113269806
0.2566039562225342 0.25834357738494873 0.5472800731658936
0.2843562662601471 0.28393828868865967 0.48829197883605957
0.22936409711837769 0.17231224477291107 0.5719025135040283
0.3274714946746826 0.3362276256084442 0.45109686255455017
0.2763996422290802 0.4188752770423889 0.44274187088012695
0.16838005185127258 0.3048834502696991 0.47401484847068787
0.18774518370628357 0.2708127796649933 0.5549246668815613
0.19216619431972504 0.3043573498725891 0.44333264231681824
0.33493438363075256 0.3665161430835724 0.5736246705055237
0.26850560307502747 0.2895369231700897 0.5567904114723206
0.26863306760787964 0.4100440740585327 0.5320989489555359
0.19334784150123596 0.33940833806991577 0.4737691283226013
0.26318007707595825 0.21176381409168243 0.47885724902153015
0.3731713891029358 0.31290045380592346 0.4436890482902527
0.23251724243164062 0.30488646030426025 0.5969074964523315
0.36284536123275757 0.3138524889945984 0.46378806233406067
0.2240220159292221 0.37254849076271057 0.5760186314582825
0.2787599563598633 0.32603719830513 0.4800829291343689
0.29324766993522644 0.3489665687084198 0.6054024696350098
0.35914015769958496 0.28306958079338074 0.42758917808532715
0.303907185792923 0.4338105320930481 0.4307340979576111
0.2178240567445755 0.25240352749824524 0.4917431175708771
0.24090629816055298 0.16260233521461487 0.4807283580303192
0.35424622893333435 0.2832784950733185 0.5168740153312683
0.26508629322052 0.22977639734745026 0.5823470950126648
0.18653681874275208 0.35037750005722046 0.4148760735988617
0.22495998442173004 0.353610098361969 0.5752024054527283
0.26350095868110657 0.3205994665622711 0.5591240525245667
0.21638907492160797 0.23387497663497925 0.4098379909992218
0.2018483728170395 0.34989139437675476 0.5631747841835022
0.2652513086795807 0.19641979038715363 0.5465296506881714
0.3323640525341034 0.2643393278121948 0.5841311812400818
0.2863682806491852 0.3453015685081482 0.49587854743003845
0.18901334702968597 0.23583395779132843 0.5015713572502136
0.27420321106910706 0.2060987651348114 0.4195239245891571
0.1883622109889984 0.2836867868900299 0.5191500186920166
0.2959883511066437 0.21472220122814178 0.5738918781280518
0.15396858751773834 0.29494526982307434 0.45129409432411194
0.1956578940153122 0.26646772027015686 0.5208598971366882
0.28855592012405396 0.35630735754966736 0.4364855885505676
0.3536023795604706 0.346318781375885 0.49766796827316284
0.3099178671836853 0.319291889667511 0.48287832736968994
0.27425241470336914 0.28290286660194397 0.4770379364490509
0.30557358264923096 0.20936158299446106 0.4042132794857025
0.15724240243434906 0.3349629044532776 0.5757815837860107
0.2844204306602478 0.3065733015537262 0.5872377753257751
0.28721582889556885 0.38641560077667236 0.42987996339797974
0.38703688979148865 0.3171512186527252 0.43739813566207886
0.3015768229961395 0.3659409284591675 0.5286641120910645
0.36042603850364685 0.26125088334083557 0.4218246042728424
0.32158684730529785 0.2681402564048767 0.41314056515693665
0.3804934322834015 0.25837376713752747 0.5672507286071777
0.3102133274078369 0.24021519720554352 0.4444233775138855
0.2234785109758377 0.384416788816452 0.4088095724582672
0.30354636907577515 0.3992023169994354 0.45609647035598755
0.2726019620895386 0.25188034772872925 0.4035647213459015
0.30458343029022217 0.3128736913204193 0.5619689226150513
0.25484034419059753 0.22658920288085938 0.4485935866832733
0.3108980059623718 0.3628190755844116 0.5564737915992737
0.31286805868148804 0.27894774079322815 0.4397004246711731
0.26701852679252625 0.4054269790649414 0.4754093587398529
0.25125852227211 0.3476904332637787 0.5041622519493103
0.2224186509847641 0.3111174404621124 0.47685202956199646
0.3341059684753418 0.35595303773880005 0.595342218875885
0.1283331960439682 0.31929469108581543 0.5872155427932739
0.3621075749397278 0.2467001974582672 0.4844472110271454
0.27453479170799255 0.3942566215991974 0.5367323160171509
0.2830159664154053 0.38768088817596436 0.5520583987236023
0.2359863668680191 0.24817423522472382 0.44671374559402466
0.250799298286438 0.2702328860759735 0.41891032457351685
0.31092673540115356 0.2581859230995178 0.522634744644165
0.1879630982875824 0.35972675681114197 0.5480427742004395
0.28263384103775024 0.2066752016544342 0.5935285091400146
0.15169653296470642 0.3245672285556793 0.4245271384716034
0.28244549036026 0.2425537109375 0.4803488254547119
0.28325748443603516 0.33453673124313354 0.4109991788864136
0.2753276228904724 0.354940801858902 0.4748239517211914
0.19860906898975372 0.34540653228759766 0.5376643538475037
0.30635005235671997 0.2573283910751343 0.44007566571235657
0.2327161282300949 0.23968517780303955 0.5253127217292786
0.21674105525016785 0.30522069334983826 0.5295646786689758
0.15420439839363098 0.3173312842845917 0.4071170687675476
0.1879630982875824 0.35972675681114197 0.5480427742004395
0.28263384103775024 0.2066752016544342 0.5935285091400146
0.15169653296470642 0.3245672285556793 0.4245271384716034
0.28244549036026 0.2425537109375 0.4803488254547119
0.28325748443603516 0.33453673124313354 0.4109991788864136
0.2753276228904724 0.354940801858902 0.4748239517211914
0.19860906898975372 0.34540653228759766 0.5376643538475037
0.30635005235671997 0.2573283910751343 0.44007566571235657
0.2327161282300949 0.23968517780303955 0.5253127217292786
0.21674105525016785 0.30522069334983826 0.5295646786689758
0.22952578961849213 0.30102381110191345 0.5197731256484985
0.33595868945121765 0.24916096031665802 0.5999218821525574
0.363462895154953 0.29891127347946167 0.5367339849472046
0.28938475251197815 0.20997843146324158 0.43909379839897156
0.27734532952308655 0.30890634655952454 0.5239511728286743
0.23509474098682404 0.18914692103862762 0.5599315166473389
0.32252782583236694 0.34104427695274353 0.4652419090270996
0.16940610110759735 0.2754420340061188 0.4717917740345001
0.21929945051670074 0.31820356845855713 0.5410264730453491
0.3069825768470764 0.37545332312583923 0.46477293968200684
0.21893103420734406 0.2994992733001709 0.44337040185928345
0.20850729942321777 0.22160552442073822 0.5114309191703796
0.2393321394920349 0.37348368763923645 0.525294303894043
0.3160625696182251 0.2612934410572052 0.4122354984283447
0.27931302785873413 0.34495100378990173 0.5825261473655701
0.2294560819864273 0.2619115710258484 0.5025337934494019
0.2554728388786316 0.3426080048084259 0.4337971806526184
0.2645573616027832 0.23960371315479279 0.5345956683158875
0.30689889192581177 0.4244992434978485 0.42806360125541687
0.29848524928092957 0.2950515151023865 0.5969635248184204
0.3731713891029358 0.31290045380592346 0.4436890482902527
0.2543858289718628 0.2686063051223755 0.43751317262649536
0.2830159664154053 0.38768088817596436 0.5520583987236023
0.2359863668680191 0.24817423522472382 0.44671374559402466
0.250799298286438 0.2702328860759735 0.41891032457351685
0.31092673540115356 0.2581859230995178 0.522634744644165
0.1879630982875824 0.35972675681114197 0.5480427742004395
0.28263384103775024 0.2066752016544342 0.5935285091400146
0.15169653296470642 0.3245672285556793 0.4245271384716034
0.28244549036026 0.2425537109375 0.4803488254547119
0.29144906997680664 0.4014332592487335 0.5888076424598694
0.2712557315826416 0.20756271481513977 0.5964296460151672
0.25117385387420654 0.26309722661972046 0.4700506329536438
0.3296107053756714 0.3687705099582672 0.4793306887149811
0.25492769479751587 0.1947089433670044 0.5560007095336914
0.2521873414516449 0.39652219414711 0.4362362325191498
0.2059396505355835 0.24333715438842773 0.5342006683349609
0.3897317349910736 0.26123136281967163 0.5127381682395935
0.33595868945121765 0.24916096031665802 0.5999218821525574
0.363462895154953 0.29891127347946167 0.5367339849472046
0.3095311224460602 0.31079915165901184 0.46313512325286865
0.28938475251197815 0.20997843146324158 0.43909379839897156
0.27734532952308655 0.30890634655952454 0.5239511728286743
0.23509474098682404 0.18914692103862762 0.5599315166473389
0.2763786017894745 0.23286724090576172 0.5904721021652222
0.22179719805717468 0.2751752734184265 0.5615667104721069
0.29671987891197205 0.42391669750213623 0.44253435730934143
0.36812901496887207 0.3423922657966614 0.4243021309375763
0.2964802086353302 0.3945290744304657 0.5849389433860779
0.29324766993522644 0.3489665687084198 0.6054024696350098
0.35914015769958496 0.28306958079338074 0.42758917808532715
0.23289568722248077 0.16635186970233917 0.579390287399292
0.3113711178302765 0.34829190373420715 0.5310360193252563
0.18556217849254608 0.3233080506324768 0.5589972138404846
0.363462895154953 0.29891127347946167 0.5367339849472046
0.3095311224460602 0.31079915165901184 0.46313512325286865
0.28938475251197815 0.20997843146324158 0.43909379839897156
0.27734532952308655 0.30890634655952454 0.5239511728286743
0.23509474098682404 0.18914692103862762 0.5599315166473389
0.2763786017894745 0.23286724090576172 0.5904721021652222
0.22179719805717468 0.2751752734184265 0.5615667104721069
0.29671987891197205 0.42391669750213623 0.44253435730934143
0.36812901496887207 0.3423922657966614 0.4243021309375763
0.2964802086353302 0.3945290744304657 0.5849389433860779
0.29324766993522644 0.3489665687084198 0.6054024696350098
0.35914015769958496 0.28306958079338074 0.42758917808532715
0.23289568722248077 0.16635186970233917 0.579390287399292
0.3113711178302765 0.34829190373420715 0.5310360193252563
0.23418687283992767 0.1841488778591156 0.45841699838638306
0.21637536585330963 0.30415022373199463 0.5319445729255676
0.23656198382377625 0.32679545879364014 0.4826790690422058
0.24498522281646729 0.34477540850639343 0.5083439350128174
0.3429456353187561 0.30837592482566833 0.4784492254257202
0.27015212178230286 0.3441481292247772 0.5734888911247253
0.31665828824043274 0.32890456914901733 0.569918155670166
0.2904312014579773 0.3152875006198883 0.5840537548065186
0.26770177483558655 0.33074867725372314 0.4873003363609314
0.2227548360824585 0.2305680364370346 0.44539573788642883
0.19807168841362 0.3587411940097809 0.40729430317878723
0.2488834708929062 0.3506028950214386 0.41105329990386963
0.3417421281337738 0.35926827788352966 0.5907432436943054
0.31614524126052856 0.34104254841804504 0.40967172384262085
0.36029455065727234 0.2609056532382965 0.41041839122772217
0.2813117802143097 0.41540783643722534 0.46780839562416077
0.3131246268749237 0.3246766924858093 0.4365479648113251
0.32712364196777344 0.3301822543144226 0.5629669427871704
0.33179348707199097 0.22956998646259308 0.5833585858345032
0.32678723335266113 0.3565694987773895 0.4661150574684143
0.2936710715293884 0.2627578675746918 0.5284731388092041
0.2156059741973877 0.29093748331069946 0.4917997121810913
0.28944966197013855 0.31774288415908813 0.43038544058799744
0.37157583236694336 0.293792188167572 0.45657312870025635
0.26790833473205566 0.17886702716350555 0.4874041676521301
0.23189778625965118 0.26163798570632935 0.538374125957489
0.2057245373725891 0.29432153701782227 0.4913790822029114
0.29976820945739746 0.4233110547065735 0.41971391439437866
0.27392706274986267 0.3275555372238159 0.4589400589466095
0.2792401611804962 0.37332242727279663 0.416927695274353
0.2481040209531784 0.1755358725786209 0.4847305417060852
0.2840302586555481 0.28034475445747375 0.5344290733337402
0.29587388038635254 0.250402569770813 0.4209909737110138
0.2924804091453552 0.2556338906288147 0.4893544018268585
0.23948560655117035 0.1660250574350357 0.48207008838653564
0.1924973428249359 0.32825949788093567 0.44147446751594543
0.18320022523403168 0.23833823204040527 0.5678666830062866
0.2957424819469452 0.3821776509284973 0.552779495716095
0.17158588767051697 0.3350122272968292 0.5567833185195923
0.19591057300567627 0.30775952339172363 0.5701140761375427
0.23643739521503448 0.17791783809661865 0.585982620716095
0.23212839663028717 0.21811841428279877 0.533997118473053
0.3143875300884247 0.2835442125797272 0.570587158203125
0.2539516091346741 0.2973887026309967 0.43900901079177856
0.3341059684753418 0.35595303773880005 0.595342218875885
0.1283331960439682 0.31929469108581543 0.5872155427932739
0.3621075749397278 0.2467001974582672 0.4844472110271454
0.27453479170799255 0.3942566215991974 0.5367323160171509
0.2830159664154053 0.38768088817596436 0.5520583987236023
0.2272975742816925 0.25881367921829224 0.5152075290679932
0.30705082416534424 0.2617848217487335 0.5919814109802246
0.31424060463905334 0.40606746077537537 0.578224241733551
0.23657473921775818 0.2787040174007416 0.5946496725082397
0.2931179404258728 0.2090766876935959 0.3995673358440399
0.2812155783176422 0.27952802181243896 0.5669686794281006
0.27595049142837524 0.34981614351272583 0.470134437084198
0.28727987408638 0.36870625615119934 0.5322128534317017
0.34792473912239075 0.3440687954425812 0.4141447842121124
0.2030039280653 0.2541274428367615 0.5511115193367004
0.23727309703826904 0.3599720597267151 0.5409562587738037
0.2736346125602722 0.278164267539978 0.41446325182914734
0.29850512742996216 0.2787300944328308 0.5220875144004822
0.3010734021663666 0.39736491441726685 0.4890826344490051
0.17643237113952637 0.27809616923332214 0.5169666409492493
0.28668802976608276 0.276936411857605 0.4210105538368225
0.24630200862884521 0.3842332065105438 0.5350638031959534
0.3781372606754303 0.29660871624946594 0.4930165708065033
0.3895586431026459 0.2788184583187103 0.5703194737434387
0.35101616382598877 0.25574666261672974 0.4821818768978119
0.2262561321258545 0.2807933986186981 0.4711804986000061
0.20207254588603973 0.28569549322128296 0.5287212133407593
0.22714021801948547 0.32288986444473267 0.45453429222106934
0.26791244745254517 0.31808510422706604 0.5412337779998779
0.3313567042350769 0.2544717788696289 0.4498997628688812
0.30200257897377014 0.3381669521331787 0.4604192078113556
0.26134148240089417 0.34963294863700867 0.604177713394165
0.31932881474494934 0.29216358065605164 0.5019744038581848
0.3578037917613983 0.30408143997192383 0.5565564036369324
0.33867210149765015 0.38179153203964233 0.4236724376678467
0.2118757665157318 0.23187841475009918 0.45894357562065125
0.3270363211631775 0.35155510902404785 0.48907777667045593
0.27137291431427 0.24363704025745392 0.4562424123287201
0.17764538526535034 0.328609824180603 0.5522806644439697
0.20393197238445282 0.25655868649482727 0.5177528858184814
0.2144615650177002 0.3033403158187866 0.42187488079071045
0.24289564788341522 0.3841090798377991 0.511698842048645
0.26093873381614685 0.27450698614120483 0.4275949001312256
0.314209520816803 0.4019724428653717 0.45306509733200073
0.2117845118045807 0.2878630459308624 0.5723581910133362
0.35038498044013977 0.28805777430534363 0.48362940549850464
0.13836798071861267 0.32399144768714905 0.4889582395553589
0.27489525079727173 0.27291250228881836 0.5418795943260193
0.28011396527290344 0.18937410414218903 0.5926620960235596
0.2912179231643677 0.3729850947856903 0.4978789985179901
0.32370659708976746 0.24043375253677368 0.4167957305908203
0.3240603506565094 0.3886789381504059 0.4188997149467468
0.21088695526123047 0.23521804809570312 0.39852166175842285
0.25909996032714844 0.29804810881614685 0.4144095778465271
0.1864471286535263 0.3247872591018677 0.40895208716392517
0.3767589032649994 0.31269410252571106 0.422439306974411
0.22345302999019623 0.20416800677776337 0.3980136811733246
0.31517544388771057 0.40174946188926697 0.47418028116226196
0.16602687537670135 0.28393620252609253 0.5146299600601196
0.20187413692474365 0.2813182771205902 0.5539631843566895
0.29072993993759155 0.28999826312065125 0.4366183876991272
0.23191647231578827 0.2543303370475769 0.4933791756629944
0.2917134165763855 0.32980281114578247 0.41814538836479187
0.333233118057251 0.3738824427127838 0.5318325757980347
0.2682494819164276 0.22739918529987335 0.4221992492675781
0.3040837049484253 0.21279296278953552 0.44227251410484314
0.2595234215259552 0.33593860268592834 0.5070462822914124
0.21867088973522186 0.2732318341732025 0.45725828409194946
0.25705111026763916 0.1963920295238495 0.547399640083313
0.3897317349910736 0.26123136281967163 0.5127381682395935
0.29671987891197205 0.42391669750213623 0.44253435730934143
0.36812901496887207 0.3423922657966614 0.4243021309375763
0.2964802086353302 0.3945290744304657 0.5849389433860779
0.29324766993522644 0.3489665687084198 0.6054024696350098
0.35914015769958496 0.28306958079338074 0.42758917808532715
0.23289568722248077 0.16635186970233917 0.579390287399292
0.3113711178302765 0.34829190373420715 0.5310360193252563
0.28266721963882446 0.4215465188026428 0.4710043966770172
0.17700420320034027 0.3131985366344452 0.5830029249191284
0.34726402163505554 0.25327566266059875 0.4067060351371765
0.2780825197696686 0.21260710060596466 0.4790550768375397
0.3193526566028595 0.23787550628185272 0.4769105315208435
0.3022904694080353 0.21769002079963684 0.4139193296432495
0.28829923272132874 0.21071383357048035 0.5416750907897949
0.24285458028316498 0.28296369314193726 0.4264104664325714
0.17320244014263153 0.27696382999420166 0.5738148093223572
0.19390849769115448 0.22003839910030365 0.558847188949585
0.35599491000175476 0.2965744435787201 0.552593469619751
0.25853535532951355 0.3320576846599579 0.4626186788082123
0.18086156249046326 0.27888330817222595 0.572261393070221
0.20689886808395386 0.3355027139186859 0.5013838410377502
0.2663108706474304 0.26534366607666016 0.510978102684021
0.2196994125843048 0.28760552406311035 0.4886736571788788
0.29071807861328125 0.3378842771053314 0.4676811397075653
0.22313269972801208 0.29365378618240356 0.5844524502754211
0.1830703318119049 0.2838916480541229 0.43942883610725403
0.2794434726238251 0.3750133514404297 0.5948072075843811
0.29529622197151184 0.21155335009098053 0.4413035213947296
0.3152898848056793 0.38422977924346924 0.5280300974845886
0.29638540744781494 0.3241645395755768 0.5130882263183594
0.3091367483139038 0.23940244317054749 0.5897138714790344
0.30705082416534424 0.2617848217487335 0.5919814109802246
0.31424060463905334 0.40606746077537537 0.578224241733551
0.23657473921775818 0.2787040174007416 0.5946496725082397
0.3999008238315582 0.2972930073738098 0.41826677322387695
0.24354715645313263 0.3299596607685089 0.5581239461898804
0.27595049142837524 0.34981614351272583 0.470134437084198
0.28727987408638 0.36870625615119934 0.5322128534317017
0.34792473912239075 0.3440687954425812 0.4141447842121124
0.22087964415550232 0.26296699047088623 0.43420717120170593
0.2745734751224518 0.2942354083061218 0.4223431944847107
0.3043825924396515 0.21028313040733337 0.5557861328125
0.23661614954471588 0.19195455312728882 0.5396032333374023
0.36864426732063293 0.30148372054100037 0.4966372549533844
0.35896793007850647 0.3432656526565552 0.5105639100074768
0.35272082686424255 0.30025672912597656 0.44763895869255066
0.3640734553337097 0.29436513781547546 0.4161818325519562
0.24071930348873138 0.3239229917526245 0.6033560037612915
0.22870568931102753 0.3703511357307434 0.5888022184371948
0.26681891083717346 0.3487514555454254 0.4848879277706146
0.22915694117546082 0.27111878991127014 0.5119660496711731
0.3369886875152588 0.2907772660255432 0.5294053554534912
0.2684834599494934 0.32297295331954956 0.4156326353549957
0.23293492197990417 0.3605024218559265 0.49557220935821533
0.23600439727306366 0.31926554441452026 0.5277568697929382
0.15977899730205536 0.32901710271835327 0.575736939907074
0.2692612111568451 0.25089189410209656 0.4018293023109436
0.18146710097789764 0.31977710127830505 0.566914439201355
0.2568463385105133 0.2964443564414978 0.567300021648407
0.31205907464027405 0.3955977261066437 0.5765544176101685
0.23157484829425812 0.3545561730861664 0.6009058356285095
0.2907729148864746 0.23466892540454865 0.43308544158935547
0.14883330464363098 0.31977251172065735 0.41481032967567444
0.34726402163505554 0.25327566266059875 0.4067060351371765
0.18086156249046326 0.27888330817222595 0.572261393070221
0.20689886808395386 0.3355027139186859 0.5013838410377502
0.2663108706474304 0.26534366607666016 0.510978102684021
0.2196994125843048 0.28760552406311035 0.4886736571788788
0.29071807861328125 0.3378842771053314 0.4676811397075653
0.22313269972801208 0.29365378618240356 0.5844524502754211
0.1830703318119049 0.2838916480541229 0.43942883610725403
0.2794434726238251 0.3750133514404297 0.5948072075843811
0.38700905442237854 0.28116458654403687 0.5102782845497131
0.28811386227607727 0.35996168851852417 0.5349090695381165
0.25807127356529236 0.1859101504087448 0.5564790964126587
0.2139652967453003 0.20437395572662354 0.5124562382698059
0.3411630094051361 0.2370131015777588 0.549392819404602
0.18366411328315735 0.3370797634124756 0.5145682692527771
0.36999639868736267 0.31511324644088745 0.4692166745662689
0.21716435253620148 0.322732537984848 0.40364351868629456
0.25705111026763916 0.1963920295238495 0.547399640083313
0.3531022369861603 0.25611650943756104 0.5819339752197266
0.31107839941978455 0.3596043884754181 0.4649668037891388
0.34386804699897766 0.32270973920822144 0.4139552116394043
0.14232298731803894 0.32145726680755615 0.5663983821868896
0.34740591049194336 0.25166022777557373 0.5031349658966064
0.2949067950248718 0.4223298728466034 0.4570748209953308
0.32256391644477844 0.3130500316619873 0.45179006457328796
0.23185287415981293 0.2815839350223541 0.5774006843566895
0.22292494773864746 0.18873852491378784 0.49879735708236694
0.34324267506599426 0.3077438175678253 0.5427607297897339
0.26029759645462036 0.3474995195865631 0.5782555937767029
0.20927990972995758 0.2237979769706726 0.593521237373352
0.18749956786632538 0.28391847014427185 0.4194839596748352
0.3056632876396179 0.38445568084716797 0.5272560119628906
0.29050081968307495 0.24798999726772308 0.4253184199333191
0.29072993993759155 0.28999826312065125 0.4366183876991272
0.2916891872882843 0.4238283634185791 0.5824993848800659
0.21649523079395294 0.249364972114563 0.5744001269340515
0.29137203097343445 0.3077310025691986 0.47662588953971863
0.2971387207508087 0.3942173421382904 0.6087345480918884
0.25182482600212097 0.2619103491306305 0.55095374584198
0.3113565444946289 0.2778727114200592 0.4883362054824829
0.18211209774017334 0.3072603940963745 0.5420117974281311
0.3523089587688446 0.3001583516597748 0.43292227387428284
0.24349242448806763 0.20430314540863037 0.5398251414299011
0.2445697784423828 0.2919798791408539 0.47745198011398315
0.35878536105155945 0.2951048016548157 0.5903180241584778
0.22197000682353973 0.19455215334892273 0.5675968527793884
0.32562893629074097 0.2376517951488495 0.47763991355895996
0.25294360518455505 0.17398686707019806 0.40191683173179626
0.28548917174339294 0.245895653963089 0.49441996216773987
0.33594653010368347 0.24889041483402252 0.545640766620636
0.2990543246269226 0.25726571679115295 0.46232450008392334
0.2635326087474823 0.36187809705734253 0.46161913871765137
0.30216944217681885 0.2605944573879242 0.5083938241004944
0.2590741515159607 0.20749890804290771 0.5288398861885071
0.19791042804718018 0.2618793845176697 0.45434945821762085
0.31327176094055176 0.3292364776134491 0.45024019479751587
0.263529896736145 0.28424274921417236 0.4245079457759857
0.1867944300174713 0.3171343207359314 0.4522801637649536
0.19285108149051666 0.242830291390419 0.5674818158149719
0.2030603587627411 0.3260927200317383 0.48545247316360474
0.2409493774175644 0.257265567779541 0.5671014189720154
0.27593332529067993 0.23634247481822968 0.4061848223209381
0.25372961163520813 0.19219422340393066 0.5082664489746094
0.34141695499420166 0.37295493483543396 0.45301732420921326
0.28753212094306946 0.21560533344745636 0.4670911133289337
0.29072993993759155 0.28999826312065125 0.4366183876991272
0.23191647231578827 0.2543303370475769 0.4933791756629944
0.2917134165763855 0.32980281114578247 0.41814538836479187
