ply
format ascii 1.0
element vertex 826
property float x
property float y
property float z
end_header
0.4013741612434387 0.2621852457523346 0.4334622323513031
0.4048824608325958 0.30146142840385437 0.44935473799705505
0.2116677463054657 0.33833035826683044 0.5853622555732727
0.20795240998268127 0.21338066458702087 0.589779794216156
0.21658925712108612 0.21531346440315247 0.5274419784545898
0.36795294284820557 0.3395678997039795 0.5313904881477356
0.26036474108695984 0.17991958558559418 0.41832301020622253
0.34210047125816345 0.3475576341152191 0.42508676648139954
0.18471862375736237 0.3277699649333954 0.4784809350967407
0.18318641185760498 0.30580824613571167 0.4399939179420471
0.3474999964237213 0.2726278305053711 0.44672682881355286
0.3623983561992645 0.31327444314956665 0.4201822280883789
0.28677213191986084 0.36486074328422546 0.5008270144462585
0.30322542786598206 0.3588893413543701 0.5959627628326416
0.22357197105884552 0.3012825548648834 0.42932960391044617
0.22357197105884552 0.3012825548648834 0.42932960391044617
0.3312116265296936 0.3452754318714142 0.48953500390052795
0.22290006279945374 0.28919991850852966 0.5399734377861023
0.3821978271007538 0.2593423128128052 0.5975667238235474
0.22797268629074097 0.21368837356567383 0.4640766382217407
0.3021888732910156 0.3519335389137268 0.48465681076049805
0.2723828852176666 0.17696411907672882 0.4948459565639496
0.30847129225730896 0.2273956686258316 0.5126593708992004
0.3205711543560028 0.2624337673187256 0.5788571238517761
0.25205788016319275 0.3818250000476837 0.5809734463691711
0.28801074624061584 0.3521440923213959 0.585015594959259
0.3139355778694153 0.34639647603034973 0.6017659306526184
0.2968636155128479 0.39085718989372253 0.5525498986244202
0.3406791388988495 0.33000755310058594 0.5293561816215515
0.20480650663375854 0.3162107467651367 0.5154687762260437
0.3130995035171509 0.3739849627017975 0.6009662747383118
0.2880764305591583 0.26360225677490234 0.5442798733711243
0.3115810751914978 0.40980207920074463 0.5920985341072083
0.2620552182197571 0.197337806224823 0.3965943455696106
0.25887033343315125 0.220633402466774 0.5314765572547913
0.2290717512369156 0.26260095834732056 0.4695264995098114
0.2880764305591583 0.26360225677490234 0.5442798733711243
0.3115810751914978 0.40980207920074463 0.5920985341072083
0.2620552182197571 0.197337806224823 0.3965943455696106
0.25887033343315125 0.220633402466774 0.5314765572547913
0.2807268500328064 0.20931492745876312 0.47228699922561646
0.2744169533252716 0.35457679629325867 0.5960000157356262
0.3159743845462799 0.30272310972213745 0.5348925590515137
0.2335454225540161 0.3303331434726715 0.5589877963066101
0.3153095841407776 0.29042065143585205 0.436889111995697
0.19433961808681488 0.27870747447013855 0.5506681203842163
0.25129997730255127 0.2099234163761139 0.4111851751804352
0.2861662209033966 0.2319381684064865 0.5663260221481323
0.2221878170967102 0.23904670774936676 0.5349723696708679
0.3127441704273224 0.4368864893913269 0.41516268253326416
0.284308522939682 0.3845950961112976 0.5352345705032349
0.23443718254566193 0.3144962191581726 0.47112658619880676
0.3429921269416809 0.23907314240932465 0.4141231179237366
0.2986968159675598 0.2572333514690399 0.4909217357635498
0.33706945180892944 0.25971487164497375 0.6011925339698792
0.32673904299736023 0.3485613167285919 0.4223438799381256
0.26307377219200134 0.40220484137535095 0.4409524202346802
0.24062727391719818 0.3213210999965668 0.48428404331207275
0.26716116070747375 0.20724399387836456 0.4165337383747101
0.23076513409614563 0.33931535482406616 0.41386353969573975
0.3028987646102905 0.40754270553588867 0.5097438097000122
0.2207784354686737 0.2385810762643814 0.5219849944114685
0.2303169220685959 0.3313989043235779 0.4181848466396332
0.2925945222377777 0.36067527532577515 0.481692910194397
0.29525744915008545 0.32393839955329895 0.5358455777168274
0.3419454097747803 0.27054688334465027 0.4287241995334625
0.27190032601356506 0.36489465832710266 0.5062822699546814
0.25887033343315125 0.220633402466774 0.5314765572547913
0.3159743845462799 0.30272310972213745 0.5348925590515137
0.2335454225540161 0.3303331434726715 0.5589877963066101
0.3153095841407776 0.29042065143585205 0.436889111995697
0.19433961808681488 0.27870747447013855 0.5506681203842163
0.25129997730255127 0.2099234163761139 0.4111851751804352
0.2861662209033966 0.2319381684064865 0.5663260221481323
0.30175021290779114 0.34877994656562805 0.4825924038887024
0.24781207740306854 0.22428452968597412 0.43531349301338196
0.39896202087402344 0.2796004116535187 0.5475879311561584
0.27203720808029175 0.1980157494544983 0.4241602122783661
0.2135915458202362 0.23221823573112488 0.5246967673301697
0.38485556840896606 0.2818290591239929 0.5141865015029907
0.23488040268421173 0.2453150600194931 0.5679233074188232
0.3921947181224823 0.29641324281692505 0.5255758166313171
0.33610472083091736 0.29041388630867004 0.48771965503692627
0.2692553699016571 0.20309174060821533 0.41762346029281616
0.22818738222122192 0.2269415408372879 0.4792950451374054
0.18654261529445648 0.32096293568611145 0.523261547088623
0.30231571197509766 0.36352774500846863 0.41699063777923584
0.315960168838501 0.36934828758239746 0.5172379612922668
0.24894499778747559 0.34984737634658813 0.5270574688911438
0.35984736680984497 0.2973797619342804 0.46828776597976685
0.25226375460624695 0.30740058422088623 0.5459177494049072
0.3461541533470154 0.3166542053222656 0.5153703689575195
0.26412954926490784 0.24260574579238892 0.4388507902622223
0.19413113594055176 0.2829689085483551 0.5869362950325012
0.226530984044075 0.3043035566806793 0.44815367460250854
0.26799702644348145 0.19030942022800446 0.44028881192207336
0.35350847244262695 0.3212500810623169 0.5416154861450195
0.37194734811782837 0.2972617745399475 0.564333438873291
0.30024340748786926 0.2305879443883896 0.40472424030303955
0.2807268500328064 0.20931492745876312 0.47228699922561646
0.2744169533252716 0.35457679629325867 0.5960000157356262
0.3159743845462799 0.30272310972213745 0.5348925590515137
0.2335454225540161 0.3303331434726715 0.5589877963066101
0.3153095841407776 0.29042065143585205 0.436889111995697
0.19433961808681488 0.27870747447013855 0.5506681203842163
0.20811955630779266 0.32865312695503235 0.5040330290794373
0.395455539226532 0.2617173492908478 0.4124612808227539
0.23921486735343933 0.29759907722473145 0.5164511203765869
0.30494001507759094 0.22198615968227386 0.4960190951824188
0.2182692289352417 0.31456178426742554 0.537734866142273
0.20639266073703766 0.289731502532959 0.5549865961074829
0.27971771359443665 0.3808364272117615 0.5101983547210693
0.26028966903686523 0.2066541463136673 0.5928191542625427
0.3035586178302765 0.3325921595096588 0.47735798358917236
0.2612628638744354 0.3294934928417206 0.4395048916339874
0.3165333569049835 0.29353389143943787 0.5098199844360352
0.260966420173645 0.29340746998786926 0.4070465564727783
0.30436235666275024 0.2050161212682724 0.4571015238761902
0.18263989686965942 0.30806729197502136 0.40482181310653687
0.24917185306549072 0.329201340675354 0.4884229600429535
0.3536970615386963 0.2800697386264801 0.4856939911842346
0.39208918809890747 0.30293890833854675 0.4899004399776459
0.3139994442462921 0.2979332506656647 0.49693048000335693
0.33089780807495117 0.285061776638031 0.5194633603096008
0.31631410121917725 0.24621059000492096 0.4613081216812134
0.2379537969827652 0.21458953619003296 0.5731091499328613
0.2141655683517456 0.2645384967327118 0.5121554136276245
0.1981782168149948 0.2976301312446594 0.412308007478714
0.34970468282699585 0.2730695605278015 0.5796979069709778
0.3932252526283264 0.2938120365142822 0.4602680504322052
0.19687585532665253 0.3451108932495117 0.5330978035926819
0.283335417509079 0.29153311252593994 0.5774863362312317
0.3167726397514343 0.3344116806983948 0.44333434104919434
0.26641881465911865 0.36121034622192383 0.5943318009376526
0.21240320801734924 0.334736704826355 0.40452566742897034
0.2346833199262619 0.34322959184646606 0.43874892592430115
0.29991331696510315 0.4004652798175812 0.4461123049259186
0.3296739161014557 0.330739825963974 0.4789724051952362
0.2200087010860443 0.255752295255661 0.5063245892524719
0.30561158061027527 0.24743103981018066 0.5047876238822937
0.31468114256858826 0.40396052598953247 0.42036172747612
0.34018391370773315 0.2953675389289856 0.5120471715927124
0.3167714774608612 0.3716409206390381 0.5877899527549744
0.21660421788692474 0.3170603811740875 0.4448997974395752
0.24772906303405762 0.23872233927249908 0.4414714276790619
0.4109981656074524 0.28208616375923157 0.4669700860977173
0.2805100083351135 0.3334655165672302 0.5026133060455322
0.30756503343582153 0.2971438765525818 0.5626111030578613
0.1981782168149948 0.2976301312446594 0.412308007478714
0.208656907081604 0.3119365870952606 0.5883504748344421
0.4013741612434387 0.2621852457523346 0.4334622323513031
0.19681750237941742 0.33062174916267395 0.40634194016456604
0.17484265565872192 0.3024727404117584 0.5734066367149353
0.3479580581188202 0.3202374279499054 0.4795575737953186
0.25527095794677734 0.24585047364234924 0.5945613384246826
0.24995039403438568 0.3298628032207489 0.5167974829673767
0.22383999824523926 0.25958728790283203 0.48163095116615295
0.3023151159286499 0.3506852686405182 0.4131298363208771
0.2898347079753876 0.2221381664276123 0.44143906235694885
0.39076462388038635 0.2620287239551544 0.4792010486125946
0.29472509026527405 0.34642061591148376 0.4193017780780792
0.22827762365341187 0.2666025161743164 0.4709504246711731
0.32737019658088684 0.25015607476234436 0.5341603755950928
0.1899300217628479 0.30873364210128784 0.40599730610847473
0.34945228695869446 0.2939552664756775 0.4716978073120117
0.2791246771812439 0.3208649158477783 0.45907264947891235
0.36719340085983276 0.2875872254371643 0.45442792773246765
0.3372562527656555 0.3037528097629547 0.44112539291381836
0.33398348093032837 0.2754072844982147 0.44530582427978516
0.1768893450498581 0.3335384726524353 0.43906036019325256
0.21827302873134613 0.2546404302120209 0.47598159313201904
0.17998634278774261 0.3092811703681946 0.4785035252571106
0.24144211411476135 0.17634564638137817 0.5054510235786438
0.23995164036750793 0.3025662302970886 0.5326175093650818
0.18600188195705414 0.30327296257019043 0.4223952293395996
0.28038209676742554 0.37485721707344055 0.5539563894271851
0.3585846424102783 0.37186262011528015 0.43818214535713196
0.382142573595047 0.2950778901576996 0.5625258088111877
0.2926608622074127 0.33342063426971436 0.49702268838882446
0.29900357127189636 0.1940341740846634 0.43626129627227783
0.2241034060716629 0.2666320502758026 0.46229690313339233
0.32737019658088684 0.25015607476234436 0.5341603755950928
0.3391764760017395 0.35978686809539795 0.5774683356285095
0.1956912726163864 0.2811252772808075 0.4389270842075348
0.3173384368419647 0.29133477807044983 0.4879797101020813
0.31665468215942383 0.332904189825058 0.5447642803192139
0.28371885418891907 0.3060593605041504 0.4851790964603424
0.3714412450790405 0.31794747710227966 0.4571860730648041
0.23994888365268707 0.24004191160202026 0.4303760528564453
0.18576321005821228 0.27283841371536255 0.5491002798080444
0.23775814473628998 0.37788841128349304 0.6010004281997681
0.25676360726356506 0.303504079580307 0.540473997592926
0.3332752287387848 0.39224663376808167 0.5611452460289001
0.2461981624364853 0.37481260299682617 0.58742356300354
0.2740749716758728 0.2529308795928955 0.4915366768836975
0.2748747766017914 0.35026487708091736 0.4832026958465576
0.3364418148994446 0.2935439348220825 0.4647069275379181
0.4066184461116791 0.280118852853775 0.6094689965248108
0.3274010717868805 0.4248948097229004 0.4493921101093292
0.39296984672546387 0.29840320348739624 0.4581461548805237
0.4071139693260193 0.278079092502594 0.4585844874382019
0.2987739145755768 0.29139280319213867 0.5272879004478455
0.28642138838768005 0.39199286699295044 0.46366798877716064
0.2956845164299011 0.4109724164009094 0.434334933757782
0.2526839077472687 0.2539864182472229 0.5905508995056152
0.334939181804657 0.3757118582725525 0.4496752619743347
0.2293378710746765 0.20319539308547974 0.5807679295539856
0.2328524887561798 0.29707100987434387 0.4367467761039734
0.1838807612657547 0.27865272760391235 0.5590980052947998
0.39880287647247314 0.2886030077934265 0.49205705523490906
0.16824088990688324 0.32924991846084595 0.44823700189590454
0.25494998693466187 0.3054896891117096 0.5239449739456177
0.29298073053359985 0.3294724225997925 0.5117262005805969
0.3482966125011444 0.23255155980587006 0.4445313811302185
0.308490514755249 0.3919048309326172 0.44428902864456177
0.3368421196937561 0.3798815906047821 0.5372653007507324
0.3442249894142151 0.2906744182109833 0.46632879972457886
0.32482194900512695 0.2774311900138855 0.49857425689697266
0.2699812352657318 0.31898441910743713 0.41237619519233704
0.20497016608715057 0.31889405846595764 0.5089176893234253
0.2703019082546234 0.2932839095592499 0.5730082988739014
0.2860405147075653 0.2825620770454407 0.5193802118301392
0.19316808879375458 0.34995293617248535 0.5457295775413513
0.28034666180610657 0.41380563378334045 0.4483748972415924
0.2752535343170166 0.31132087111473083 0.5927808284759521
0.2248832881450653 0.35238176584243774 0.47771352529525757
0.2871173620223999 0.40349194407463074 0.5506648421287537
0.39296984672546387 0.29840320348739624 0.4581461548805237
0.23843717575073242 0.3196936547756195 0.5150600075721741
0.21162961423397064 0.3186413645744324 0.4491806924343109
0.348149836063385 0.28867533802986145 0.45471519231796265
0.19097352027893066 0.2678273618221283 0.4715549945831299
0.23675939440727234 0.2645789086818695 0.5122265815734863
0.31797659397125244 0.24144749343395233 0.571089506149292
0.3475024998188019 0.3340284526348114 0.570732831954956
0.2978476583957672 0.29710477590560913 0.47811031341552734
0.2937479019165039 0.351882666349411 0.42555034160614014
0.381684273481369 0.298304945230484 0.5908336043357849
0.2999536693096161 0.19372570514678955 0.4842144846916199
0.23243942856788635 0.24048961699008942 0.42352035641670227
0.17312367260456085 0.3182985782623291 0.417966365814209
0.3485330641269684 0.2638760805130005 0.483254075050354
0.36173710227012634 0.2546860873699188 0.5253363251686096
0.3539283275604248 0.3581557869911194 0.4512732923030853
0.26290085911750793 0.19744044542312622 0.42777568101882935
0.1956912726163864 0.2811252772808075 0.4389270842075348
0.2871173620223999 0.40349194407463074 0.5506648421287537
0.28371885418891907 0.3060593605041504 0.4851790964603424
0.3714412450790405 0.31794747710227966 0.4571860730648041
0.23994888365268707 0.24004191160202026 0.4303760528564453
0.18576321005821228 0.27283841371536255 0.5491002798080444
0.22821810841560364 0.2767685651779175 0.5502145290374756
0.31783291697502136 0.34570398926734924 0.4153706729412079
0.25710782408714294 0.25499093532562256 0.539557158946991
0.22308942675590515 0.2275950312614441 0.5171984434127808
0.2549551725387573 0.37381091713905334 0.5209556818008423
0.4145083725452423 0.278057724237442 0.42296239733695984
0.32849887013435364 0.2755202651023865 0.4137732982635498
0.203776016831398 0.3074086308479309 0.4200252890586853
0.24494878947734833 0.1968243271112442 0.5493384599685669
0.1838807612657547 0.27865272760391235 0.5590980052947998
0.39880287647247314 0.2886030077934265 0.49205705523490906
0.16824088990688324 0.32924991846084595 0.44823700189590454
0.25494998693466187 0.3054896891117096 0.5239449739456177
0.29298073053359985 0.3294724225997925 0.5117262005805969
0.3482966125011444 0.23255155980587006 0.4445313811302185
0.308490514755249 0.3919048309326172 0.44428902864456177
0.3368421196937561 0.3798815906047821 0.5372653007507324
0.3442249894142151 0.2906744182109833 0.46632879972457886
0.38265323638916016 0.2770797312259674 0.4385177791118622
0.27411088347435 0.17979443073272705 0.5146133303642273
0.26039373874664307 0.2830410599708557 0.5044423937797546
0.2640479505062103 0.17865006625652313 0.5643055438995361
0.2217559516429901 0.341646671295166 0.5012856721878052
0.24685649573802948 0.30483224987983704 0.509039580821991
0.23929189145565033 0.3828323185443878 0.5048423409461975
0.3229512870311737 0.25142940878868103 0.4442824125289917
0.25696995854377747 0.36623501777648926 0.5878808498382568
0.29365235567092896 0.26126551628112793 0.4215768277645111
0.30291545391082764 0.3282569348812103 0.4483609199523926
0.20167487859725952 0.26455098390579224 0.5140002369880676
0.37541720271110535 0.26748761534690857 0.47545456886291504
0.33299973607063293 0.31743475794792175 0.45872753858566284
0.3539970815181732 0.3310679495334625 0.5113618969917297
0.3193989396095276 0.4102587103843689 0.5119655728340149
0.3358045816421509 0.27692678570747375 0.508431613445282
0.23174044489860535 0.37801870703697205 0.5032832622528076
0.25001659989356995 0.22409234941005707 0.4029313623905182
0.2633231580257416 0.218086376786232 0.5648793578147888
0.19211050868034363 0.35153865814208984 0.47519344091415405
0.3458137512207031 0.37421301007270813 0.5948314070701599
0.39296984672546387 0.29840320348739624 0.4581461548805237
0.1838807612657547 0.27865272760391235 0.5590980052947998
0.39880287647247314 0.2886030077934265 0.49205705523490906
0.16824088990688324 0.32924991846084595 0.44823700189590454
0.25494998693466187 0.3054896891117096 0.5239449739456177
0.29298073053359985 0.3294724225997925 0.5117262005805969
0.3482966125011444 0.23255155980587006 0.4445313811302185
0.308490514755249 0.3919048309326172 0.44428902864456177
0.3368421196937561 0.3798815906047821 0.5372653007507324
0.3442249894142151 0.2906744182109833 0.46632879972457886
0.32482194900512695 0.2774311900138855 0.49857425689697266
0.2699812352657318 0.31898441910743713 0.41237619519233704
0.20497016608715057 0.31889405846595764 0.5089176893234253
0.2703019082546234 0.2932839095592499 0.5730082988739014
0.2860405147075653 0.2825620770454407 0.5193802118301392
0.19316808879375458 0.34995293617248535 0.5457295775413513
0.28034666180610657 0.41380563378334045 0.4483748972415924
0.2752535343170166 0.31132087111473083 0.5927808284759521
0.2248832881450653 0.35238176584243774 0.47771352529525757
0.2871173620223999 0.40349194407463074 0.5506648421287537
0.28371885418891907 0.3060593605041504 0.4851790964603424
0.3714412450790405 0.31794747710227966 0.4571860730648041
0.23994888365268707 0.24004191160202026 0.4303760528564453
0.18576321005821228 0.27283841371536255 0.5491002798080444
0.22821810841560364 0.2767685651779175 0.5502145290374756
0.31783291697502136 0.34570398926734924 0.4153706729412079
0.25710782408714294 0.25499093532562256 0.539557158946991
0.3071240484714508 0.2147134691476822 0.5813876390457153
0.3234787583351135 0.37960633635520935 0.5701066851615906
0.335347980260849 0.32316064834594727 0.5362951159477234
0.2177876979112625 0.24590334296226501 0.4374106526374817
0.2885298728942871 0.41597580909729004 0.5039709210395813
0.2779630422592163 0.23419447243213654 0.5906782150268555
0.1838807612657547 0.27865272760391235 0.5590980052947998
0.24342623353004456 0.30677884817123413 0.5015475749969482
0.16727598011493683 0.30572766065597534 0.41683733463287354
0.17301002144813538 0.33769866824150085 0.4106973111629486
0.20819160342216492 0.29932701587677 0.5390865802764893
0.282842218875885 0.40623247623443604 0.560792088508606
0.2736196517944336 0.17252163589000702 0.551734447479248
0.27465304732322693 0.17197787761688232 0.5487694144248962
0.38111305236816406 0.26887500286102295 0.44302213191986084
0.30502089858055115 0.3217065632343292 0.6023866534233093
0.309872031211853 0.43563440442085266 0.43927091360092163
0.18602131307125092 0.31881916522979736 0.4398958384990692
0.3228907585144043 0.2618542015552521 0.42791709303855896
0.30042576789855957 0.22449061274528503 0.48486876487731934
0.28155672550201416 0.35432252287864685 0.48421555757522583
0.2276412844657898 0.22279657423496246 0.5115575790405273
0.33957940340042114 0.240979865193367 0.49157267808914185
0.2560916244983673 0.22204230725765228 0.5017102360725403
0.23775814473628998 0.37788841128349304 0.6010004281997681
0.18296121060848236 0.2677704691886902 0.4978421628475189
0.37372997403144836 0.33904561400413513 0.42860084772109985
0.3070392310619354 0.36279892921447754 0.4193839430809021
0.2190697342157364 0.231290802359581 0.42068177461624146
0.22849227488040924 0.3669373691082001 0.459473580121994
0.2243744432926178 0.30786821246147156 0.4125295579433441
0.28349530696868896 0.33461692929267883 0.4991626739501953
0.260442316532135 0.2328474521636963 0.416448712348938
0.3146377205848694 0.34133026003837585 0.47820401191711426
0.2963651716709137 0.24069853127002716 0.5350468754768372
0.2840203046798706 0.3756532073020935 0.5149516463279724
0.305232435464859 0.22874441742897034 0.5037186145782471
0.28642138838768005 0.39199286699295044 0.46366798877716064
0.27328479290008545 0.4100095331668854 0.44569647312164307
0.287272185087204 0.3020499646663666 0.4122094511985779
0.2549842298030853 0.31016287207603455 0.4991050660610199
0.2204238474369049 0.2770199477672577 0.44128021597862244
0.2910574972629547 0.2764087915420532 0.4751189649105072
0.18046198785305023 0.3380526304244995 0.42410504817962646
0.2662784457206726 0.1786780059337616 0.4540691077709198
0.2875796854496002 0.2942781150341034 0.5693503618240356
0.25881290435791016 0.28573355078697205 0.531522274017334
0.2650829255580902 0.2947106957435608 0.5463208556175232
0.3216134309768677 0.32895419001579285 0.46182453632354736
0.2918124198913574 0.21881672739982605 0.46208634972572327
0.3168538510799408 0.24815334379673004 0.5558469891548157
0.30982130765914917 0.316830575466156 0.596019446849823
0.17971214652061462 0.31980788707733154 0.5203137397766113
0.2907269597053528 0.2366989254951477 0.5219640731811523
0.3785415291786194 0.2667557895183563 0.49914199113845825
0.3116017282009125 0.20075416564941406 0.5225299000740051
0.2606709599494934 0.3419933319091797 0.5899251699447632
0.3087654709815979 0.4028867781162262 0.5467065572738647
0.2777805030345917 0.22676630318164825 0.4447535574436188
0.218377023935318 0.3041386008262634 0.4096658229827881
0.23068973422050476 0.3346865177154541 0.4105857014656067
0.27711281180381775 0.3519684970378876 0.5087770223617554
0.3783321976661682 0.2998076379299164 0.44176387786865234
0.3491438627243042 0.25043198466300964 0.5877704620361328
0.2263173758983612 0.22853288054466248 0.580269455909729
0.2966756820678711 0.2192334681749344 0.4962315261363983
0.32391175627708435 0.29075008630752563 0.4859146177768707
0.2993890941143036 0.40220990777015686 0.5446332693099976
0.16657587885856628 0.3261300027370453 0.4630665183067322
0.2141655683517456 0.2645384967327118 0.5121554136276245
0.33718615770339966 0.3772639334201813 0.5213074684143066
0.182096928358078 0.25782057642936707 0.5940019488334656
0.3100435435771942 0.35710716247558594 0.4543238580226898
0.2856051027774811 0.28154411911964417 0.503804087638855
0.22594371438026428 0.34601372480392456 0.5717183351516724
0.3266698718070984 0.22872211039066315 0.5329064130783081
0.3875334858894348 0.2886427044868469 0.44549646973609924
0.25388023257255554 0.23730550706386566 0.51985102891922
0.2760275900363922 0.35087916254997253 0.5651482343673706
0.24903523921966553 0.37657633423805237 0.571035623550415
0.34254127740859985 0.3718411922454834 0.5635808706283569
0.341374933719635 0.31427404284477234 0.45697417855262756
0.3282499611377716 0.3948282301425934 0.4606306850910187
0.1640605926513672 0.31931981444358826 0.44899001717567444
0.3264240026473999 0.23124878108501434 0.45488160848617554
0.34227919578552246 0.3682078421115875 0.4581829607486725
0.3405880033969879 0.36712172627449036 0.569385826587677
0.2837740480899811 0.1850648671388626 0.40037956833839417
0.3012878894805908 0.24321585893630981 0.5469139814376831
0.26593464612960815 0.38570258021354675 0.5740112066268921
0.2256130576133728 0.22434101998806 0.5612306594848633
0.25895246863365173 0.40185242891311646 0.44899559020996094
0.24374109506607056 0.3059101700782776 0.4927496314048767
0.3994212746620178 0.2983017563819885 0.5562981367111206
0.3137088418006897 0.3648952543735504 0.5358328819274902
0.3446754217147827 0.2316054403781891 0.5722362995147705
0.20876167714595795 0.2318957895040512 0.5416784882545471
0.18266886472702026 0.31104862689971924 0.406962513923645
0.21852482855319977 0.2939111888408661 0.5335865616798401
0.21435394883155823 0.2922772169113159 0.48440414667129517
0.22957904636859894 0.25226253271102905 0.5050374269485474
0.1981782168149948 0.2976301312446594 0.412308007478714
0.3329399824142456 0.3666360080242157 0.5934605598449707
0.226310595870018 0.25018277764320374 0.397265762090683
0.3646470308303833 0.37137120962142944 0.45713382959365845
0.31097611784935 0.3222470283508301 0.5579237937927246
0.2685202658176422 0.3942437171936035 0.483049213886261
0.3649149239063263 0.24186237156391144 0.41386502981185913
0.2890103757381439 0.3352779150009155 0.512077808380127
0.3506768047809601 0.2771477997303009 0.5889288783073425
0.4100022614002228 0.28221064805984497 0.4632628560066223
0.22555167973041534 0.22689732909202576 0.5384271740913391
0.37739354372024536 0.2661427855491638 0.5296974778175354
0.2699161469936371 0.3081374168395996 0.546919047832489
0.3048402667045593 0.40967971086502075 0.5916310548782349
0.2820645868778229 0.19680143892765045 0.5351975560188293
0.27472633123397827 0.1892538219690323 0.5585610866546631
0.2957595884799957 0.3593960106372833 0.5683238506317139
0.24742387235164642 0.34440815448760986 0.5871843695640564
0.36148321628570557 0.28070706129074097 0.5488158464431763
0.29634717106819153 0.28189733624458313 0.5297832489013672
0.3092953860759735 0.2712877094745636 0.5462855696678162
0.34500792622566223 0.28797647356987 0.5902882218360901
0.19840247929096222 0.3446914553642273 0.6007327437400818
0.32693809270858765 0.2356349676847458 0.5027623176574707
0.23113040626049042 0.2959538996219635 0.5060404539108276
0.33932965993881226 0.33623895049095154 0.4363813102245331
0.2790556848049164 0.3355880081653595 0.5452776551246643
0.2115725576877594 0.3671959638595581 0.4068121314048767
0.323074072599411 0.36285677552223206 0.41813188791275024
0.25960659980773926 0.3486497700214386 0.5068714618682861
0.20505259931087494 0.33723369240760803 0.4156913161277771
0.36246806383132935 0.33055660128593445 0.48778724670410156
0.29298073053359985 0.3294724225997925 0.5117262005805969
0.28371885418891907 0.3060593605041504 0.4851790964603424
0.3714412450790405 0.31794747710227966 0.4571860730648041
0.23994888365268707 0.24004191160202026 0.4303760528564453
0.18576321005821228 0.27283841371536255 0.5491002798080444
0.22821810841560364 0.2767685651779175 0.5502145290374756
0.31783291697502136 0.34570398926734924 0.4153706729412079
0.3725041151046753 0.270499587059021 0.57945317029953
0.3960077166557312 0.2739095091819763 0.4134495258331299
0.2629982531070709 0.30710431933403015 0.5195115208625793
0.24862907826900482 0.24640437960624695 0.5501360893249512
0.3165402412414551 0.30083391070365906 0.49030089378356934
0.2876969575881958 0.34810370206832886 0.5486288666725159
0.23673111200332642 0.31362730264663696 0.5648981928825378
0.2544010281562805 0.25117823481559753 0.4598531424999237
0.393658310174942 0.26818618178367615 0.5319075584411621
0.2835511267185211 0.36036568880081177 0.43996304273605347
0.1588028073310852 0.2922173738479614 0.58466637134552
0.24733394384384155 0.3458061218261719 0.40936079621315
0.30073484778404236 0.34648361802101135 0.4992104172706604
0.29906702041625977 0.20687012374401093 0.4410766661167145
0.25539588928222656 0.22145798802375793 0.536907434463501
0.29126259684562683 0.2812184989452362 0.4756985306739807
0.3475346267223358 0.30145424604415894 0.4721831977367401
0.2029888927936554 0.2818417549133301 0.5178634524345398
0.3296820819377899 0.35259518027305603 0.6035583019256592
0.3274824023246765 0.21771840751171112 0.48566994071006775
0.3090052902698517 0.4099440574645996 0.5173177719116211
0.27844536304473877 0.23073388636112213 0.47454822063446045
0.2527793347835541 0.2762160301208496 0.4094680845737457
0.2505253851413727 0.38823890686035156 0.42883217334747314
0.3139207661151886 0.44102010130882263 0.460769385099411
0.38729870319366455 0.28469952940940857 0.4470292031764984
0.30232179164886475 0.2684226632118225 0.5058053135871887
0.3725041151046753 0.270499587059021 0.57945317029953
0.3960077166557312 0.2739095091819763 0.4134495258331299
0.2629982531070709 0.30710431933403015 0.5195115208625793
0.24770422279834747 0.27580171823501587 0.5051591396331787
0.2855236828327179 0.4000696837902069 0.44545456767082214
0.30292877554893494 0.24541164934635162 0.4469192624092102
0.34014081954956055 0.35975900292396545 0.6093534827232361
0.23451514542102814 0.26619553565979004 0.4698237478733063
0.22473645210266113 0.33984848856925964 0.5226288437843323
0.2749673128128052 0.30316826701164246 0.571862518787384
0.2995350956916809 0.3556421101093292 0.450412780046463
0.22146573662757874 0.3274722695350647 0.45970427989959717
0.26098260283470154 0.2772238254547119 0.5830427408218384
0.28228381276130676 0.21154631674289703 0.43583208322525024
0.32079723477363586 0.25258195400238037 0.5974135994911194
0.28450262546539307 0.33457621932029724 0.497265487909317
0.29238492250442505 0.19802196323871613 0.5497053861618042
0.34813424944877625 0.2930973470211029 0.5513790845870972
0.27723580598831177 0.2763383686542511 0.4635317921638489
0.2921781539916992 0.2733454704284668 0.5022132992744446
0.36169907450675964 0.30248796939849854 0.6019735932350159
0.3114561438560486 0.3797733187675476 0.44797977805137634
0.2602063715457916 0.369757741689682 0.5704528093338013
0.3635675609111786 0.32068145275115967 0.4442453980445862
0.23842085897922516 0.361711710691452 0.5610015988349915
0.2014930099248886 0.2560112774372101 0.5059356093406677
0.29707545042037964 0.4185493290424347 0.46232515573501587
0.2798216640949249 0.3413833677768707 0.5535499453544617
0.15588337182998657 0.3099270462989807 0.5056469440460205
0.2472766935825348 0.24730460345745087 0.4076231122016907
0.1956912726163864 0.2811252772808075 0.4389270842075348
0.3332752287387848 0.39224663376808167 0.5611452460289001
0.2461981624364853 0.37481260299682617 0.58742356300354
0.3651919662952423 0.2898060381412506 0.5146051645278931
0.26913905143737793 0.2046958953142166 0.3984735608100891
0.2675395607948303 0.18535944819450378 0.44998523592948914
0.15927809476852417 0.3016892373561859 0.593367338180542
0.2867368161678314 0.3649262487888336 0.5184317827224731
0.34026533365249634 0.32654425501823425 0.5241901874542236
0.3178424835205078 0.37887468934059143 0.49205973744392395
0.18849104642868042 0.3033325970172882 0.4071178138256073
0.2233649045228958 0.2790861129760742 0.4857542812824249
0.35163429379463196 0.23090143501758575 0.5408461689949036
0.25726503133773804 0.26990994811058044 0.4995526373386383
0.2862277925014496 0.2842610776424408 0.40718674659729004
0.3512836992740631 0.3494173288345337 0.5116033554077148
0.3204895853996277 0.21467000246047974 0.47399672865867615
0.23962555825710297 0.2197762280702591 0.42101985216140747
0.2626166343688965 0.3708842694759369 0.5213176608085632
0.17203834652900696 0.3205130398273468 0.4762365221977234
0.3008376359939575 0.21709853410720825 0.5207561254501343
0.314999520778656 0.37100255489349365 0.5832241773605347
0.29058006405830383 0.3001246452331543 0.5686031579971313
0.38942036032676697 0.27046146988868713 0.5556393265724182
0.33827394247055054 0.3782954216003418 0.5954021215438843
0.34191566705703735 0.2673529088497162 0.47513389587402344
0.3074367940425873 0.3457879424095154 0.5376251339912415
0.3226502239704132 0.36213570833206177 0.5800070762634277
0.334604948759079 0.3723132014274597 0.5313066840171814
0.30684468150138855 0.2940923571586609 0.45664945244789124
0.23100747168064117 0.3463185727596283 0.43426910042762756
0.315349280834198 0.3095214068889618 0.4764668643474579
0.3714412450790405 0.31794747710227966 0.4571860730648041
0.35559895634651184 0.36844491958618164 0.517351508140564
0.31547948718070984 0.4211867153644562 0.4806655943393707
0.3274795711040497 0.24130821228027344 0.5003961324691772
0.18379604816436768 0.31287312507629395 0.552890956401825
0.2499564290046692 0.3701504170894623 0.5400364398956299
0.26971670985221863 0.2643284201622009 0.5823431611061096
0.2859160304069519 0.24702289700508118 0.538051962852478
0.24427379667758942 0.31915584206581116 0.5255991816520691
0.24641896784305573 0.19702795147895813 0.4837580621242523
0.31913235783576965 0.26536762714385986 0.40962740778923035
0.3351392149925232 0.2461840808391571 0.5681187510490417
0.312137633562088 0.34305626153945923 0.5581010580062866
0.24290525913238525 0.2334609478712082 0.5334610342979431
0.3452495336532593 0.2939927279949188 0.4370476305484772
0.26159632205963135 0.3760736584663391 0.5527068376541138
0.22977091372013092 0.37280067801475525 0.5368631482124329
0.2654263973236084 0.285221666097641 0.5107772946357727
0.35874104499816895 0.2651713490486145 0.5850309133529663
0.28680944442749023 0.2115691751241684 0.5698568224906921
0.29196295142173767 0.3976375162601471 0.5874757766723633
0.38227593898773193 0.3230167329311371 0.5480034947395325
0.29319506883621216 0.32196488976478577 0.45689958333969116
0.21855178475379944 0.24644246697425842 0.4356544315814972
0.23651468753814697 0.30994364619255066 0.4832943081855774
0.28984183073043823 0.23470275104045868 0.5125535130500793
0.3078417181968689 0.2802562117576599 0.42483603954315186
0.1911342442035675 0.32858049869537354 0.4247310161590576
0.24368301033973694 0.18594332039356232 0.5559272170066833
0.24291478097438812 0.36908432841300964 0.429675817489624
0.2892298698425293 0.3066098690032959 0.5652568340301514
0.30135849118232727 0.2752155661582947 0.5848529934883118
0.2675395607948303 0.18535944819450378 0.44998523592948914
0.35163429379463196 0.23090143501758575 0.5408461689949036
0.25726503133773804 0.26990994811058044 0.4995526373386383
0.3089589476585388 0.42132773995399475 0.5006441473960876
0.26783207058906555 0.3465677499771118 0.5591136813163757
0.2842165529727936 0.39332830905914307 0.44160592555999756
0.2815169095993042 0.18904881179332733 0.4154866933822632
0.3316703736782074 0.22403323650360107 0.5163334012031555
0.1700134128332138 0.3110668659210205 0.5963221192359924
0.30172744393348694 0.22243176400661469 0.5284262299537659
0.28021541237831116 0.3741154074668884 0.5545403957366943
0.33113527297973633 0.3356899321079254 0.44479355216026306
0.27110451459884644 0.3233721852302551 0.4298265874385834
0.25822943449020386 0.17362570762634277 0.4492741823196411
0.1673751026391983 0.2821604907512665 0.5665152072906494
0.31934094429016113 0.40030455589294434 0.4176584780216217
0.23589594662189484 0.3497258722782135 0.4615861773490906
0.2493637651205063 0.38093119859695435 0.5830395817756653
0.2568579316139221 0.18188823759555817 0.46868741512298584
0.22100675106048584 0.26951637864112854 0.5040781497955322
0.16723188757896423 0.28916099667549133 0.5962327718734741
0.20702849328517914 0.310913622379303 0.5180351734161377
0.3145081102848053 0.2948828935623169 0.4169307053089142
0.20014604926109314 0.35640743374824524 0.4653184115886688
0.28024327754974365 0.2703372538089752 0.5998255610466003
0.19179341197013855 0.26222774386405945 0.5770795941352844
0.30300068855285645 0.4291655421257019 0.42392444610595703
0.3655281960964203 0.3655279576778412 0.4900173842906952
0.3591688871383667 0.3167738914489746 0.5856761336326599
0.21787400543689728 0.21381103992462158 0.5544013381004333
0.31425103545188904 0.2790946662425995 0.5049763917922974
0.2771071791648865 0.18240037560462952 0.5919399261474609
0.24427379667758942 0.31915584206581116 0.5255991816520691
0.251991868019104 0.22585530579090118 0.5772882699966431
0.26424431800842285 0.3106512725353241 0.5944296717643738
0.20658956468105316 0.25852882862091064 0.550459623336792
0.32722219824790955 0.3921440839767456 0.48477408289909363
0.2932530343532562 0.35440793633461 0.5369759202003479
0.30595341324806213 0.38227975368499756 0.4337535798549652
0.3291126787662506 0.35589247941970825 0.5467342138290405
0.24233165383338928 0.28251591324806213 0.5230045318603516
0.3293501138687134 0.4157078266143799 0.5250726938247681
0.3144941031932831 0.2334020584821701 0.4480329751968384
0.23605482280254364 0.3130561113357544 0.416892945766449
0.24921005964279175 0.3345035910606384 0.47082167863845825
0.19503054022789001 0.30254748463630676 0.43975475430488586
0.37164098024368286 0.25478947162628174 0.47631314396858215
0.3893049359321594 0.3008759617805481 0.4500822424888611
0.18486922979354858 0.2841014266014099 0.5850295424461365
0.28984183073043823 0.23470275104045868 0.5125535130500793
0.3078417181968689 0.2802562117576599 0.42483603954315186
0.1911342442035675 0.32858049869537354 0.4247310161590576
0.24368301033973694 0.18594332039356232 0.5559272170066833
0.24291478097438812 0.36908432841300964 0.429675817489624
0.2892298698425293 0.3066098690032959 0.5652568340301514
0.30135849118232727 0.2752155661582947 0.5848529934883118
0.39022859930992126 0.25721654295921326 0.4610348343849182
0.30616211891174316 0.2069721668958664 0.4192558228969574
0.25742220878601074 0.29618674516677856 0.44961896538734436
0.3017657697200775 0.2765752673149109 0.5537874102592468
0.3476177155971527 0.3613869249820709 0.42170727252960205
0.3474319875240326 0.34620973467826843 0.48106104135513306
0.21759992837905884 0.32725653052330017 0.4185132086277008
0.35466277599334717 0.34307312965393066 0.5189136862754822
0.26348960399627686 0.3817724287509918 0.49569347500801086
0.2291715294122696 0.2310054898262024 0.530985414981842
0.4074050784111023 0.291725218296051 0.5551563501358032
0.27791115641593933 0.23107926547527313 0.4138496220111847
0.24706809222698212 0.17615103721618652 0.5477486252784729
0.22549599409103394 0.3579460084438324 0.4752376973628998
0.29542410373687744 0.22401466965675354 0.5365678071975708
0.2511287331581116 0.2787104845046997 0.5413501262664795
0.35737571120262146 0.23778480291366577 0.5704184174537659
0.3631773889064789 0.24139882624149323 0.43526825308799744
0.23211736977100372 0.2613849937915802 0.41566598415374756
0.3128015100955963 0.2133897840976715 0.5552557110786438
0.4030202031135559 0.3064592182636261 0.4235728085041046
0.3498631417751312 0.3151730000972748 0.4633934795856476
0.3375282287597656 0.3579159677028656 0.5527902245521545
0.21103408932685852 0.3464581072330475 0.5297502279281616
0.35386353731155396 0.24814347922801971 0.5793823599815369
0.26267170906066895 0.3463122546672821 0.41005128622055054
0.2949669063091278 0.3582255244255066 0.4177103042602539
0.3046915531158447 0.2677643895149231 0.5853716135025024
0.29398906230926514 0.2795228362083435 0.5641704201698303
0.2761813700199127 0.2091785967350006 0.4097718298435211
0.25477540493011475 0.3680565357208252 0.51521897315979
0.3268958330154419 0.2848670482635498 0.5439248085021973
0.33766505122184753 0.36713093519210815 0.5539635419845581
0.15474365651607513 0.3201943337917328 0.42500197887420654
0.259395569562912 0.3524072766304016 0.5428057909011841
0.27415600419044495 0.3539127707481384 0.5912512540817261
0.17791597545146942 0.3316371738910675 0.5194822549819946
0.36838245391845703 0.30440670251846313 0.43523120880126953
0.2778189778327942 0.32929107546806335 0.5382108688354492
0.2360064834356308 0.3208444118499756 0.5311887860298157
0.33517709374427795 0.3545278012752533 0.4591957926750183
0.247318834066391 0.23162323236465454 0.5754131078720093
0.2634999454021454 0.232875794172287 0.42003321647644043
0.2583296298980713 0.27304306626319885 0.47498664259910583
0.23838253319263458 0.30719879269599915 0.49731796979904175
0.28342610597610474 0.22231458127498627 0.503936767578125
0.29093965888023376 0.18587401509284973 0.4766031801700592
0.20014604926109314 0.35640743374824524 0.4653184115886688
0.28024327754974365 0.2703372538089752 0.5998255610466003
0.3087654709815979 0.4028867781162262 0.5467065572738647
0.342935711145401 0.3034701943397522 0.4706110954284668
0.23068973422050476 0.3346865177154541 0.4105857014656067
0.2535379230976105 0.3937731981277466 0.4861796498298645
0.2625962495803833 0.23999299108982086 0.43504834175109863
0.2022157460451126 0.28125694394111633 0.468373566865921
0.39307501912117004 0.30993250012397766 0.5861979126930237
0.2897447645664215 0.27454760670661926 0.4067695140838623
0.36932238936424255 0.2712649405002594 0.557781457901001
0.2995845377445221 0.2047586441040039 0.48910874128341675
0.26892808079719543 0.3498895764350891 0.5572007894515991
0.21797892451286316 0.2449653148651123 0.4432772397994995
0.31943434476852417 0.3617226779460907 0.5737639665603638
0.2970001995563507 0.23616129159927368 0.48452886939048767
0.24182720482349396 0.2806239724159241 0.4083831310272217
0.177045539021492 0.3248167932033539 0.4189685583114624
0.3173292279243469 0.3264661133289337 0.4568765163421631
0.3030607998371124 0.36785781383514404 0.5522698163986206
0.36709868907928467 0.24737706780433655 0.4371567666530609
0.34766122698783875 0.2946356236934662 0.551626980304718
0.29190242290496826 0.2009194791316986 0.5801506042480469
0.21985545754432678 0.31168827414512634 0.5282936096191406
0.2879941463470459 0.2679767608642578 0.4637044668197632
0.3012878894805908 0.24321585893630981 0.5469139814376831
0.29398906230926514 0.2795228362083435 0.5641704201698303
0.2761813700199127 0.2091785967350006 0.4097718298435211
0.25477540493011475 0.3680565357208252 0.51521897315979
0.3268958330154419 0.2848670482635498 0.5439248085021973
0.33766505122184753 0.36713093519210815 0.5539635419845581
0.15474365651607513 0.3201943337917328 0.42500197887420654
0.259395569562912 0.3524072766304016 0.5428057909011841
0.27415600419044495 0.3539127707481384 0.5912512540817261
0.17791597545146942 0.3316371738910675 0.5194822549819946
0.36838245391845703 0.30440670251846313 0.43523120880126953
0.2778189778327942 0.32929107546806335 0.5382108688354492
0.22945690155029297 0.30285754799842834 0.5845168828964233
0.29659125208854675 0.23174484074115753 0.49264466762542725
0.31239983439445496 0.36845090985298157 0.4871983826160431
0.3070290684700012 0.23543351888656616 0.49215495586395264
0.3659527599811554 0.3231850862503052 0.465824693441391
0.2519557476043701 0.21312880516052246 0.39949023723602295
0.3198365271091461 0.4157102108001709 0.4374171495437622
0.2722002863883972 0.34732818603515625 0.5588372945785522
0.1644199788570404 0.3148975670337677 0.44706571102142334
0.26567310094833374 0.17374269664287567 0.5777768492698669
0.30582818388938904 0.2819559872150421 0.5542507767677307
0.32158932089805603 0.4240788519382477 0.49899977445602417
0.332223117351532 0.33907678723335266 0.5107212066650391
0.33115166425704956 0.3705253005027771 0.4556748569011688
0.2099057137966156 0.3622594177722931 0.4850499629974365
0.16566696763038635 0.31462618708610535 0.45999208092689514
0.18722288310527802 0.302154004573822 0.4140048325061798
0.2883440852165222 0.39951834082603455 0.46243816614151
0.33165445923805237 0.21349698305130005 0.5701441168785095
0.3218277394771576 0.32903584837913513 0.5310359001159668
0.17971214652061462 0.31980788707733154 0.5203137397766113
0.26267170906066895 0.3463122546672821 0.41005128622055054
0.2949669063091278 0.3582255244255066 0.4177103042602539
0.3046915531158447 0.2677643895149231 0.5853716135025024
0.29398906230926514 0.2795228362083435 0.5641704201698303
0.2761813700199127 0.2091785967350006 0.4097718298435211
0.25477540493011475 0.3680565357208252 0.51521897315979
0.3268958330154419 0.2848670482635498 0.5439248085021973
0.33766505122184753 0.36713093519210815 0.5539635419845581
0.15474365651607513 0.3201943337917328 0.42500197887420654
0.259395569562912 0.3524072766304016 0.5428057909011841
0.27415600419044495 0.3539127707481384 0.5912512540817261
0.17791597545146942 0.3316371738910675 0.5194822549819946
0.36838245391845703 0.30440670251846313 0.43523120880126953
0.2778189778327942 0.32929107546806335 0.5382108688354492
0.2360064834356308 0.3208444118499756 0.5311887860298157
0.1728382408618927 0.3039345145225525 0.5030655860900879
0.3237684965133667 0.27042868733406067 0.472375750541687
0.23578594624996185 0.38224977254867554 0.4402007460594177
0.27173322439193726 0.26392000913619995 0.4486822187900543
0.31191790103912354 0.2947194278240204 0.49988916516304016
0.25916004180908203 0.2173178493976593 0.4577220380306244
0.24103869497776031 0.17766019701957703 0.5863499641418457
0.4130648076534271 0.28516992926597595 0.514094889163971
0.20283925533294678 0.35437503457069397 0.49894067645072937
0.3273959457874298 0.3372173309326172 0.47254127264022827
0.2623879909515381 0.2983710467815399 0.4888276159763336
0.3939966559410095 0.2851253151893616 0.5359044671058655
0.3735591471195221 0.2834472954273224 0.4407893419265747
0.27467775344848633 0.30730894207954407 0.5549646615982056
0.22528572380542755 0.25998952984809875 0.42050787806510925
0.20400691032409668 0.36046990752220154 0.49349403381347656
0.4133649170398712 0.2850041687488556 0.48323899507522583
0.21787400543689728 0.21381103992462158 0.5544013381004333
0.3851654529571533 0.27737560868263245 0.5715146064758301
0.30135849118232727 0.2752155661582947 0.5848529934883118
0.39022859930992126 0.25721654295921326 0.4610348343849182
0.30616211891174316 0.2069721668958664 0.4192558228969574
0.25742220878601074 0.29618674516677856 0.44961896538734436
0.2778521478176117 0.332758367061615 0.49391603469848633
0.25165289640426636 0.3525996208190918 0.5759795308113098
0.22871746122837067 0.3255392014980316 0.4511016309261322
0.296656996011734 0.201426163315773 0.5133334994316101
0.3208218812942505 0.34417545795440674 0.5141198635101318
0.4040898084640503 0.2660697400569916 0.46948179602622986
0.3242318630218506 0.3485430181026459 0.4154326617717743
0.28287190198898315 0.20121882855892181 0.4131229519844055
0.26325199007987976 0.3728276491165161 0.47733598947525024
0.3377631902694702 0.378844678401947 0.48310911655426025
0.29176896810531616 0.18403372168540955 0.5834957957267761
0.3534749150276184 0.2669442594051361 0.6019707918167114
0.2721760869026184 0.2742385268211365 0.4903331398963928
0.2842671871185303 0.3510006070137024 0.5797520279884338
0.2102818340063095 0.279644638299942 0.5408270359039307
0.32622045278549194 0.3795822858810425 0.4622785449028015
0.23012025654315948 0.22523954510688782 0.4448848068714142
0.381323903799057 0.3462371826171875 0.4392842948436737
0.20358294248580933 0.2596692740917206 0.4784489572048187
0.19392721354961395 0.3243396282196045 0.484505295753479
0.3294834494590759 0.3296022117137909 0.5863322019577026
0.29440125823020935 0.2972930073738098 0.5732545256614685
0.1789122223854065 0.3411821126937866 0.46474766731262207
0.32817596197128296 0.4279705584049225 0.4484156668186188
0.3378066122531891 0.30542659759521484 0.5570847988128662
0.18184705078601837 0.3425527811050415 0.4101342260837555
0.23068973422050476 0.3346865177154541 0.4105857014656067
0.27711281180381775 0.3519684970378876 0.5087770223617554
0.3783321976661682 0.2998076379299164 0.44176387786865234
0.19416171312332153 0.2989829182624817 0.40780457854270935
0.34768787026405334 0.357350617647171 0.5079308748245239
0.3107122480869293 0.34262704849243164 0.4705108404159546
0.21197649836540222 0.24144959449768066 0.491508811712265
0.289493203163147 0.2605016231536865 0.4348651170730591
0.26285475492477417 0.21385465562343597 0.5187600255012512
0.34796398878097534 0.3051825165748596 0.5534799098968506
0.2575418949127197 0.17345206439495087 0.4688303470611572
0.23136624693870544 0.19818364083766937 0.5752928853034973
0.25347787141799927 0.2829534709453583 0.5843061208724976
0.31275618076324463 0.22635726630687714 0.5023137927055359
0.21026846766471863 0.3200102746486664 0.5981699228286743
0.2577081620693207 0.16597065329551697 0.44538912177085876
0.31693026423454285 0.377042680978775 0.5016977190971375
0.2990993857383728 0.2636684477329254 0.5993937253952026
0.20252373814582825 0.24731482565402985 0.5859103202819824
0.3107949197292328 0.3309681713581085 0.4617452025413513
0.3833104968070984 0.27909156680107117 0.4728543758392334
0.2273351103067398 0.26292884349823 0.5030665993690491
