ply
format ascii 1.0
element vertex 825
property float x
property float y
property float z
end_header
0.23474833369255066 0.31821009516716003 0.5386803150177002
0.37870559096336365 0.344779908657074 0.5067681670188904
0.3902930021286011 0.2889941334724426 0.4409632384777069
0.1789236068725586 0.30374228954315186 0.5576226711273193
0.2894449830055237 0.3343775272369385 0.5056725144386292
0.33351391553878784 0.21312090754508972 0.47873881459236145
0.32083702087402344 0.261138916015625 0.4829404652118683
0.2900446951389313 0.17470285296440125 0.525937557220459
0.2900446951389313 0.17470285296440125 0.525937557220459
0.3426399230957031 0.2817850410938263 0.5956688523292542
0.2594781219959259 0.33700281381607056 0.5121619701385498
0.2175883799791336 0.2959018349647522 0.575082540512085
0.280133992433548 0.22388941049575806 0.4229562282562256
0.2812395691871643 0.2711445093154907 0.5518196821212769
0.3890470564365387 0.3225306570529938 0.5278390645980835
0.3890470564365387 0.3225306570529938 0.5278390645980835
0.2711532711982727 0.16954247653484344 0.4470107853412628
0.23082977533340454 0.272808313369751 0.5143575072288513
0.33781278133392334 0.36649927496910095 0.5504240989685059
0.2493196278810501 0.23786640167236328 0.5738654136657715
0.21700522303581238 0.30415746569633484 0.5885403156280518
0.2765049636363983 0.3600616753101349 0.4688553214073181
0.3594382107257843 0.3563220798969269 0.5175599455833435
0.2997153699398041 0.1949830800294876 0.4971962869167328
0.3270432949066162 0.3469174802303314 0.46568843722343445
0.2702932357788086 0.18461060523986816 0.518573522567749
0.4383394122123718 0.2734091281890869 0.46602046489715576
0.3478795886039734 0.21115131676197052 0.41413822770118713
0.31366416811943054 0.40215054154396057 0.5943282246589661
0.2859988212585449 0.3103014826774597 0.45144593715667725
0.21044346690177917 0.2498987764120102 0.5803033113479614
0.2335279881954193 0.3306514024734497 0.4216926097869873
0.37112510204315186 0.323167622089386 0.44152677059173584
0.3050128221511841 0.3336046040058136 0.4074362814426422
0.23474833369255066 0.31821009516716003 0.5386803150177002
0.37870559096336365 0.344779908657074 0.5067681670188904
0.30946674942970276 0.20819000899791718 0.47019898891448975
0.2555203437805176 0.2819107472896576 0.5617339015007019
0.2538820207118988 0.17662997543811798 0.5376123785972595
0.26005372405052185 0.3354606032371521 0.4131282866001129
0.3272570073604584 0.3988654911518097 0.5347063541412354
0.19185717403888702 0.29974740743637085 0.41521480679512024
0.319099098443985 0.25127142667770386 0.4922977387905121
0.2606247365474701 0.2224256545305252 0.5577502846717834
0.4014907777309418 0.2562958300113678 0.4498571753501892
0.25928905606269836 0.28789639472961426 0.5242702960968018
0.26347479224205017 0.261287122964859 0.5774185061454773
0.3514474630355835 0.2239322066307068 0.5880091786384583
0.3044918477535248 0.26225635409355164 0.5145636200904846
0.22669030725955963 0.2805539071559906 0.4453810751438141
0.2849436402320862 0.27974769473075867 0.4368320107460022
0.2168370932340622 0.24816611409187317 0.5111748576164246
0.26331934332847595 0.29038721323013306 0.5031391382217407
0.22688889503479004 0.3185573220252991 0.46694183349609375
0.3003354072570801 0.20766225457191467 0.5941123366355896
0.349046528339386 0.21579842269420624 0.503117024898529
0.391595721244812 0.26124289631843567 0.5626811385154724
0.39153364300727844 0.30747178196907043 0.5145856142044067
0.2533150315284729 0.2436618208885193 0.5705546736717224
0.26540160179138184 0.3633274435997009 0.5279757976531982
0.32401588559150696 0.329405814409256 0.4626728594303131
0.32401588559150696 0.329405814409256 0.4626728594303131
0.3627476692199707 0.3245387077331543 0.541830837726593
0.3349932134151459 0.3470129370689392 0.49963369965553284
0.3045235276222229 0.2788233160972595 0.48188403248786926
0.2030974179506302 0.3459302484989166 0.4269564747810364
0.28239092230796814 0.31641626358032227 0.5444780588150024
0.41599395871162415 0.30758801102638245 0.44933995604515076
0.3052365183830261 0.41275209188461304 0.6079685688018799
0.26540160179138184 0.3633274435997009 0.5279757976531982
0.32401588559150696 0.329405814409256 0.4626728594303131
0.3627476692199707 0.3245387077331543 0.541830837726593
0.3349932134151459 0.3470129370689392 0.49963369965553284
0.3045235276222229 0.2788233160972595 0.48188403248786926
0.2030974179506302 0.3459302484989166 0.4269564747810364
0.28239092230796814 0.31641626358032227 0.5444780588150024
0.41599395871162415 0.30758801102638245 0.44933995604515076
0.3280666470527649 0.2568444013595581 0.44101613759994507
0.24496331810951233 0.3470619022846222 0.5140754580497742
0.28106990456581116 0.312604159116745 0.42702358961105347
0.37019437551498413 0.22689993679523468 0.5456598997116089
0.2386409342288971 0.3092929422855377 0.4826195240020752
0.2995398938655853 0.1868310421705246 0.5091536641120911
0.32322633266448975 0.2240624576807022 0.43719741702079773
0.352224737405777 0.2775683104991913 0.5747246146202087
0.3268173038959503 0.3973113000392914 0.48098331689834595
0.25788453221321106 0.20775240659713745 0.5784016847610474
0.3622818887233734 0.3121272325515747 0.5568355321884155
0.2035568803548813 0.3425476849079132 0.45371606945991516
0.4307188093662262 0.28052210807800293 0.43896427750587463
0.33663615584373474 0.3577736020088196 0.5579912066459656
0.18529300391674042 0.3116369843482971 0.50425124168396
0.368869811296463 0.2479630708694458 0.4735192060470581
0.21636423468589783 0.3003217577934265 0.506976842880249
0.22930516302585602 0.3065860867500305 0.4779517948627472
0.25476667284965515 0.22438178956508636 0.4402616620063782
0.31971925497055054 0.39649564027786255 0.5672202110290527
0.3526120185852051 0.3504182696342468 0.511683464050293
0.2554568946361542 0.3138830065727234 0.5723553895950317
0.19421696662902832 0.33018603920936584 0.5214007496833801
0.3496086597442627 0.36476826667785645 0.5487799048423767
0.3045235276222229 0.2788233160972595 0.48188403248786926
0.2030974179506302 0.3459302484989166 0.4269564747810364
0.28239092230796814 0.31641626358032227 0.5444780588150024
0.41599395871162415 0.30758801102638245 0.44933995604515076
0.23007705807685852 0.308988094329834 0.4635293781757355
0.22427582740783691 0.25139161944389343 0.4298260807991028
0.2612423598766327 0.2695993185043335 0.5989316701889038
0.1786741316318512 0.3086142838001251 0.4643096327781677
0.26175087690353394 0.19513867795467377 0.44263559579849243
0.3290628492832184 0.33143970370292664 0.6053454279899597
0.25358831882476807 0.1759532243013382 0.556599497795105
0.2942848801612854 0.19006840884685516 0.4647767245769501
0.39227545261383057 0.28249871730804443 0.5247851610183716
0.2563460171222687 0.30100885033607483 0.49042126536369324
0.34668534994125366 0.23147937655448914 0.506817638874054
0.2570953071117401 0.27695852518081665 0.5590190291404724
0.3852229714393616 0.31630751490592957 0.5149862170219421
0.3486219644546509 0.33846375346183777 0.5272214412689209
0.3280061185359955 0.29980990290641785 0.546644926071167
0.2575271725654602 0.37489184737205505 0.506281316280365
0.3622818887233734 0.3121272325515747 0.5568355321884155
0.2035568803548813 0.3425476849079132 0.45371606945991516
0.4307188093662262 0.28052210807800293 0.43896427750587463
0.33663615584373474 0.3577736020088196 0.5579912066459656
0.18529300391674042 0.3116369843482971 0.50425124168396
0.368869811296463 0.2479630708694458 0.4735192060470581
0.21636423468589783 0.3003217577934265 0.506976842880249
0.22930516302585602 0.3065860867500305 0.4779517948627472
0.25476667284965515 0.22438178956508636 0.4402616620063782
0.31971925497055054 0.39649564027786255 0.5672202110290527
0.28851422667503357 0.3838365077972412 0.4994288682937622
0.29140740633010864 0.20650573074817657 0.5022608041763306
0.24496331810951233 0.3470619022846222 0.5140754580497742
0.35381343960762024 0.2859641909599304 0.569023847579956
0.3164719045162201 0.19456997513771057 0.5438992977142334
0.35696059465408325 0.3187466561794281 0.5571781992912292
0.42069101333618164 0.2670908570289612 0.43226128816604614
0.23706258833408356 0.26028189063072205 0.5071811079978943
0.39573878049850464 0.3369176387786865 0.4233371615409851
0.28893911838531494 0.31086620688438416 0.5376721024513245
0.38935205340385437 0.3214046359062195 0.47811126708984375
0.21116048097610474 0.2963730990886688 0.4486619830131531
0.24794094264507294 0.3607269525527954 0.4418051540851593
0.4230359196662903 0.2724854648113251 0.4602016806602478
0.21638508141040802 0.2565951645374298 0.4579002559185028
0.25371238589286804 0.3248927891254425 0.5646039843559265
0.3603020906448364 0.3076743185520172 0.5111460089683533
0.28572607040405273 0.2783447206020355 0.5848940014839172
0.4057842791080475 0.3010239601135254 0.5103594660758972
0.3225427269935608 0.3204925060272217 0.5186543464660645
0.3225341737270355 0.34136083722114563 0.5981988310813904
0.3000742793083191 0.33774900436401367 0.540090799331665
0.2169361114501953 0.344093918800354 0.4377805292606354
0.2657764256000519 0.33521768450737 0.49273693561553955
0.3375801146030426 0.3909926116466522 0.5768381953239441
0.2866496443748474 0.22071616351604462 0.574103593826294
0.27568358182907104 0.3785582184791565 0.4720599949359894
0.39761295914649963 0.2922140955924988 0.5757349729537964
0.3186843991279602 0.23766590654850006 0.5900714993476868
0.25787121057510376 0.27768802642822266 0.4760192036628723
0.16744472086429596 0.31673464179039 0.5442224144935608
0.24027392268180847 0.342758446931839 0.5298920273780823
0.39127808809280396 0.2412617802619934 0.5434104204177856
0.3290628492832184 0.33143970370292664 0.6053454279899597
0.23082977533340454 0.272808313369751 0.5143575072288513
0.33781278133392334 0.36649927496910095 0.5504240989685059
0.2493196278810501 0.23786640167236328 0.5738654136657715
0.21700522303581238 0.30415746569633484 0.5885403156280518
0.2765049636363983 0.3600616753101349 0.4688553214073181
0.3653281331062317 0.3782763183116913 0.5279238224029541
0.2997153699398041 0.1949830800294876 0.4971962869167328
0.3269491195678711 0.3465489149093628 0.46588295698165894
0.2959701716899872 0.3294059932231903 0.6039976477622986
0.3420035243034363 0.40813350677490234 0.5275775790214539
0.38489216566085815 0.34944114089012146 0.4759872853755951
0.20497438311576843 0.2791629433631897 0.5667772889137268
0.25946328043937683 0.2720869779586792 0.5857269167900085
0.3924180269241333 0.33795350790023804 0.4310484528541565
0.37112510204315186 0.323167622089386 0.44152677059173584
0.33816447854042053 0.33168891072273254 0.4397577941417694
0.37870559096336365 0.344779908657074 0.5067681670188904
0.3026920258998871 0.19668032228946686 0.5371416807174683
0.2686867117881775 0.2677421569824219 0.46542441844940186
0.3326229453086853 0.39289891719818115 0.5242153406143188
0.21063905954360962 0.29198524355888367 0.41109660267829895
0.3112512230873108 0.32549214363098145 0.48111987113952637
0.3611662685871124 0.32295820116996765 0.43581196665763855
0.3449855148792267 0.29024219512939453 0.5960178375244141
0.27454450726509094 0.2906979024410248 0.4692794978618622
0.37537336349487305 0.3250463604927063 0.5733804106712341
0.2698426842689514 0.31514546275138855 0.5464590191841125
0.31286200881004333 0.23455138504505157 0.5814062356948853
0.3649061918258667 0.33095845580101013 0.498994380235672
0.29275548458099365 0.2617384195327759 0.5993649959564209
0.1944306194782257 0.31225499510765076 0.4053560793399811
0.19421696662902832 0.33018603920936584 0.5214007496833801
0.28886035084724426 0.3546992540359497 0.5838626027107239
0.34743520617485046 0.3953667879104614 0.5377621650695801
0.3974078893661499 0.2791815400123596 0.5421963930130005
0.38586437702178955 0.283584326505661 0.5497914552688599
0.2991447150707245 0.2352418452501297 0.5113310813903809
0.28887903690338135 0.24622532725334167 0.5018131136894226
0.3338196873664856 0.3792637288570404 0.42657503485679626
0.32889607548713684 0.30591344833374023 0.482017457485199
0.30253028869628906 0.22833150625228882 0.5373356342315674
0.3810320794582367 0.3168444335460663 0.4112657904624939
0.29117295145988464 0.33772188425064087 0.4579412043094635
0.4048003554344177 0.28623446822166443 0.5357406735420227
0.2502220869064331 0.33904072642326355 0.47774311900138855
0.3483721613883972 0.2791287302970886 0.5134997963905334
0.20659510791301727 0.3276230990886688 0.5174601674079895
0.2706708014011383 0.2198157161474228 0.5585454106330872
0.24981962144374847 0.32920217514038086 0.41043829917907715
0.2763691246509552 0.23095466196537018 0.41871190071105957
0.30747219920158386 0.31170573830604553 0.47073739767074585
0.2353299856185913 0.2523341476917267 0.4652568995952606
0.3202618956565857 0.39384061098098755 0.5172418355941772
0.22706638276576996 0.3614262342453003 0.4223657250404358
0.36407387256622314 0.25212642550468445 0.4769868850708008
0.33951446413993835 0.20737819373607635 0.478829950094223
0.23217710852622986 0.2572680115699768 0.44936370849609375
0.2910109758377075 0.24455143511295319 0.5040627121925354
0.3410724401473999 0.36509382724761963 0.5489824414253235
0.22611701488494873 0.32462596893310547 0.4015159606933594
0.22499431669712067 0.35778287053108215 0.5689448714256287
0.2994840145111084 0.37708914279937744 0.4211307764053345
0.19220741093158722 0.3290257751941681 0.47688955068588257
0.3179243803024292 0.3695770502090454 0.5531142354011536
0.40757715702056885 0.29287245869636536 0.5645906925201416
0.22002288699150085 0.3038592040538788 0.4256613552570343
0.3469468951225281 0.2404971718788147 0.494282066822052
0.40640875697135925 0.2943834364414215 0.4875265955924988
0.3024410903453827 0.38221487402915955 0.5740309357643127
0.28066667914390564 0.22523951530456543 0.5412551760673523
0.2862148582935333 0.3830462694168091 0.45174339413642883
0.34250491857528687 0.21479183435440063 0.5964750647544861
0.32410719990730286 0.2859557867050171 0.5869312882423401
0.2730063199996948 0.31114938855171204 0.47610098123550415
0.34942638874053955 0.2781495749950409 0.5134726762771606
0.25122493505477905 0.20344342291355133 0.5322412848472595
0.22545908391475677 0.2583589255809784 0.4901224970817566
0.1922619640827179 0.32147806882858276 0.5018696784973145
0.3697552978992462 0.3346666097640991 0.47690728306770325
0.2913244962692261 0.32116180658340454 0.5207823514938354
0.2365288883447647 0.2528601288795471 0.48227277398109436
0.2528946101665497 0.32577812671661377 0.4223427474498749
0.29554805159568787 0.31077495217323303 0.559590220451355
0.2350533902645111 0.3517293930053711 0.4219540059566498
0.4151833653450012 0.2872686982154846 0.43072643876075745
0.39644020795822144 0.32091590762138367 0.4685695469379425
0.2788393199443817 0.3671260476112366 0.5358419418334961
0.36409640312194824 0.29176920652389526 0.5860031843185425
0.3755527436733246 0.3510083258152008 0.5871617794036865
0.3011768162250519 0.20346257090568542 0.5774717330932617
0.2851293683052063 0.3422325849533081 0.5605253577232361
0.3477553725242615 0.24939973652362823 0.4435398578643799
0.3278656601905823 0.34436866641044617 0.5162147283554077
0.3503676652908325 0.3049251139163971 0.557209312915802
0.3152102828025818 0.3500884175300598 0.4668990969657898
0.3183234632015228 0.25587698817253113 0.46750181913375854
0.3026920258998871 0.19668032228946686 0.5371416807174683
0.2686867117881775 0.2677421569824219 0.46542441844940186
0.39157018065452576 0.24245630204677582 0.4434059262275696
0.3510279059410095 0.30674266815185547 0.4188080430030823
0.3377711772918701 0.29083314538002014 0.495319664478302
0.3125533163547516 0.20118077099323273 0.40772750973701477
0.23982827365398407 0.29103705286979675 0.5038347840309143
0.2412194311618805 0.31521180272102356 0.5760384798049927
0.3698592782020569 0.3169013559818268 0.5389630794525146
0.2772860527038574 0.267214834690094 0.49969926476478577
0.37745457887649536 0.3241322934627533 0.5286616086959839
0.37704789638519287 0.24483732879161835 0.5741400122642517
0.2399047315120697 0.30616477131843567 0.4262346625328064
0.33458763360977173 0.29538607597351074 0.5519867539405823
0.2710462212562561 0.30997955799102783 0.49512872099876404
0.2017623484134674 0.26980215311050415 0.4722559154033661
0.37212398648262024 0.316527396440506 0.5352591276168823
0.298047810792923 0.3547896146774292 0.5092286467552185
0.35697484016418457 0.24290409684181213 0.5216490626335144
0.30783894658088684 0.24647125601768494 0.5030660033226013
0.31276270747184753 0.4233461320400238 0.4627416729927063
0.3029879331588745 0.22889544069766998 0.5753583312034607
0.32509154081344604 0.20356681942939758 0.4347391724586487
0.19226577877998352 0.2807968556880951 0.5928272008895874
0.3001847267150879 0.3881250023841858 0.41777119040489197
0.20388741791248322 0.29145655035972595 0.5109729170799255
0.23347538709640503 0.26013949513435364 0.44813838601112366
0.27072879672050476 0.3067781329154968 0.5740191340446472
0.3114507496356964 0.20809932053089142 0.47410356998443604
0.22049233317375183 0.31735649704933167 0.5614250302314758
0.3225013017654419 0.23500844836235046 0.5729130506515503
0.2702932357788086 0.18461060523986816 0.518573522567749
0.28183239698410034 0.23479080200195312 0.5009335279464722
0.26092055439949036 0.3143511712551117 0.5997785329818726
0.3396851718425751 0.2237599641084671 0.5930705666542053
0.27454450726509094 0.2906979024410248 0.4692794978618622
0.37537336349487305 0.3250463604927063 0.5733804106712341
0.2698426842689514 0.31514546275138855 0.5464590191841125
0.281277060508728 0.36720746755599976 0.4561762511730194
0.31286200881004333 0.23455138504505157 0.5814062356948853
0.3649061918258667 0.33095845580101013 0.498994380235672
0.29275548458099365 0.2617384195327759 0.5993649959564209
0.1944306194782257 0.31225499510765076 0.4053560793399811
0.28890177607536316 0.2646985948085785 0.43787476420402527
0.36346524953842163 0.2591523826122284 0.49654096364974976
0.21146611869335175 0.3482881486415863 0.45074692368507385
0.41737449169158936 0.29157450795173645 0.5529593825340271
0.34671786427497864 0.38922467827796936 0.4514245092868805
0.3178536593914032 0.19758398830890656 0.42559605836868286
0.22851671278476715 0.24185210466384888 0.4683332145214081
0.3098210394382477 0.25000378489494324 0.5116774439811707
0.2441120594739914 0.3136066794395447 0.5495510101318359
0.3289532959461212 0.39459189772605896 0.41546347737312317
0.42039453983306885 0.2659171521663666 0.5824553370475769
0.31714317202568054 0.21497759222984314 0.5107434988021851
0.4033317267894745 0.2584737241268158 0.5555145740509033
0.19226577877998352 0.2807968556880951 0.5928272008895874
0.3001847267150879 0.3881250023841858 0.41777119040489197
0.20388741791248322 0.29145655035972595 0.5109729170799255
0.23347538709640503 0.26013949513435364 0.44813838601112366
0.27072879672050476 0.3067781329154968 0.5740191340446472
0.3114507496356964 0.20809932053089142 0.47410356998443604
0.22049233317375183 0.31735649704933167 0.5614250302314758
0.2195724993944168 0.32469478249549866 0.43253621459007263
0.24307383596897125 0.27002468705177307 0.4638058543205261
0.24867580831050873 0.2567233443260193 0.4897631108760834
0.3360865116119385 0.2207224816083908 0.5690447688102722
0.34554070234298706 0.2901666760444641 0.4800148606300354
0.232519268989563 0.3211340010166168 0.48439377546310425
0.2863753139972687 0.3073575794696808 0.5370597243309021
0.19438867270946503 0.3356121778488159 0.46930208802223206
0.3167586326599121 0.4282536804676056 0.5314948558807373
0.21304619312286377 0.272473007440567 0.4733383059501648
0.24017290771007538 0.30681777000427246 0.4386870265007019
0.3098210394382477 0.25000378489494324 0.5116774439811707
0.2441120594739914 0.3136066794395447 0.5495510101318359
0.3289532959461212 0.39459189772605896 0.41546347737312317
0.42039453983306885 0.2659171521663666 0.5824553370475769
0.31714317202568054 0.21497759222984314 0.5107434988021851
0.4033317267894745 0.2584737241268158 0.5555145740509033
0.19226577877998352 0.2807968556880951 0.5928272008895874
0.3001847267150879 0.3881250023841858 0.41777119040489197
0.20388741791248322 0.29145655035972595 0.5109729170799255
0.23347538709640503 0.26013949513435364 0.44813838601112366
0.27072879672050476 0.3067781329154968 0.5740191340446472
0.3114507496356964 0.20809932053089142 0.47410356998443604
0.22049233317375183 0.31735649704933167 0.5614250302314758
0.3225013017654419 0.23500844836235046 0.5729130506515503
0.32456037402153015 0.25815480947494507 0.5434910655021667
0.3547590672969818 0.329120397567749 0.5646704435348511
0.31453999876976013 0.3576994240283966 0.5567370653152466
0.3086386024951935 0.21021926403045654 0.41910749673843384
0.3943495452404022 0.25670307874679565 0.606077253818512
0.3145386576652527 0.1963779181241989 0.39808276295661926
0.3312048017978668 0.40640273690223694 0.4367866516113281
0.2195724993944168 0.32469478249549866 0.43253621459007263
0.3485577702522278 0.23223629593849182 0.5694686770439148
0.3348977267742157 0.2497793734073639 0.5722807049751282
0.24226611852645874 0.3733939826488495 0.5333255529403687
0.3112512230873108 0.32549214363098145 0.48111987113952637
0.24147723615169525 0.276329904794693 0.5636284947395325
0.36035045981407166 0.26351454854011536 0.5165274143218994
0.4042016267776489 0.3054920434951782 0.49924302101135254
0.32065919041633606 0.19344347715377808 0.4178048074245453
0.32456037402153015 0.25815480947494507 0.5434910655021667
0.3547590672969818 0.329120397567749 0.5646704435348511
0.31391459703445435 0.23908451199531555 0.4802059829235077
0.3160594701766968 0.33424124121665955 0.41235604882240295
0.30698853731155396 0.35514551401138306 0.47603216767311096
0.23106318712234497 0.3397853672504425 0.538707435131073
0.33969220519065857 0.38054317235946655 0.46892204880714417
0.3037225902080536 0.23971450328826904 0.4562309980392456
0.23346757888793945 0.24573476612567902 0.4396737515926361
0.24965102970600128 0.33007025718688965 0.43521419167518616
0.31304389238357544 0.4006795287132263 0.5489208102226257
0.31502461433410645 0.2999792695045471 0.418057382106781
0.29345253109931946 0.19239820539951324 0.5540913939476013
0.2621842324733734 0.295659601688385 0.5140420198440552
0.38731011748313904 0.34287622570991516 0.49958565831184387
0.3110097646713257 0.34880998730659485 0.5615566372871399
0.3687750995159149 0.2871100604534149 0.5431485176086426
0.24307839572429657 0.37411072850227356 0.5265421271324158
0.3308444321155548 0.3563247621059418 0.5511001348495483
0.31086045503616333 0.3009323477745056 0.5081977844238281
0.3365824520587921 0.320772647857666 0.524235188961029
0.32479551434516907 0.30709999799728394 0.5747584700584412
0.28550562262535095 0.3942316472530365 0.4142318665981293
0.3026920258998871 0.19668032228946686 0.5371416807174683
0.33755797147750854 0.25418993830680847 0.44062796235084534
0.29795002937316895 0.3729343116283417 0.5463398098945618
0.2636316120624542 0.29684263467788696 0.520513117313385
0.36206451058387756 0.24364766478538513 0.5998905897140503
0.3912643492221832 0.2966574728488922 0.539282500743866
0.34102287888526917 0.3101968467235565 0.46411219239234924
0.32167088985443115 0.20557668805122375 0.4394853711128235
0.308851033449173 0.307090163230896 0.5244789123535156
0.26747989654541016 0.18194827437400818 0.5576781034469604
0.307759553194046 0.22597335278987885 0.5887939929962158
0.25661197304725647 0.26965323090553284 0.5626674890518188
0.32458704710006714 0.4262219965457916 0.44427964091300964
0.2529618740081787 0.3135737180709839 0.5419573783874512
0.33737900853157043 0.37714436650276184 0.46628639101982117
0.42030468583106995 0.2647387385368347 0.4623798131942749
0.25770917534828186 0.29940566420555115 0.4852655231952667
0.40650153160095215 0.2784402370452881 0.5760995149612427
0.2266450971364975 0.277424693107605 0.4547828733921051
0.41227957606315613 0.29387688636779785 0.4838542342185974
0.2973214089870453 0.39360547065734863 0.5821028351783752
0.2893947958946228 0.2142268568277359 0.4026053845882416
0.2694872319698334 0.3109753429889679 0.4954609274864197
0.2960307002067566 0.3382318913936615 0.5116114020347595
0.2688141167163849 0.3050919771194458 0.5447741150856018
0.29475733637809753 0.20731604099273682 0.47802698612213135
0.40254706144332886 0.31045234203338623 0.443819522857666
0.2666438817977905 0.3004489839076996 0.5980825424194336
0.3926633596420288 0.3121877908706665 0.4644972085952759
0.2521457374095917 0.3680247962474823 0.5761539936065674
0.40698644518852234 0.2944686710834503 0.4946317672729492
0.414543479681015 0.2746277153491974 0.5747004747390747
0.3485577702522278 0.23223629593849182 0.5694686770439148
0.3910459280014038 0.24468785524368286 0.4855264127254486
0.3003547787666321 0.3939107656478882 0.5369988083839417
0.30866193771362305 0.38765421509742737 0.5523719787597656
0.27012374997138977 0.24355709552764893 0.44643065333366394
0.28624728322029114 0.2662855088710785 0.4191693663597107
0.34085363149642944 0.2554822862148285 0.5224973559379578
0.21931815147399902 0.3533710539340973 0.5494948625564575
0.31494829058647156 0.19922244548797607 0.5902894735336304
0.1907142996788025 0.318778395652771 0.4228768050670624
0.31391459703445435 0.23908451199531555 0.4802059829235077
0.3160594701766968 0.33424124121665955 0.41235604882240295
0.30698853731155396 0.35514551401138306 0.47603216767311096
0.23106318712234497 0.3397853672504425 0.538707435131073
0.33755797147750854 0.25418993830680847 0.44062796235084534
0.26563307642936707 0.23422202467918396 0.5252647399902344
0.2511894702911377 0.3005315959453583 0.5305328369140625
0.2269885390996933 0.26372525095939636 0.4104798436164856
0.2843691110610962 0.35655680298805237 0.5177041888237
0.31612902879714966 0.24797824025154114 0.5762701034545898
0.31163257360458374 0.37812551856040955 0.5448551774024963
0.32346615195274353 0.2408795803785324 0.42769137024879456
0.35104966163635254 0.24560397863388062 0.44146937131881714
0.40107226371765137 0.2759951651096344 0.5308728814125061
0.28236228227615356 0.3435830771923065 0.42058661580085754
0.29777124524116516 0.1781582087278366 0.4312327206134796
0.3973354995250702 0.2922796905040741 0.42375582456588745
0.32888898253440857 0.22290918231010437 0.4088214337825775
0.2597077190876007 0.24016913771629333 0.5489934682846069
0.3353612422943115 0.2565833628177643 0.5916082859039307
0.3368143141269684 0.4072691798210144 0.5795785188674927
0.2709786295890808 0.2733044922351837 0.5956198573112488
0.19077882170677185 0.32508131861686707 0.40350833535194397
0.35204702615737915 0.34568116068840027 0.4394138753414154
0.25377002358436584 0.21484948694705963 0.5035799741744995
0.23690752685070038 0.2881031632423401 0.4665195643901825
0.27527832984924316 0.20220212638378143 0.5446785092353821
0.33990946412086487 0.3389885723590851 0.5758047699928284
0.2911930978298187 0.21744251251220703 0.5701300501823425
0.4163004755973816 0.2962647080421448 0.4295019805431366
0.19756503403186798 0.3009219169616699 0.46370795369148254
0.2848338782787323 0.261497437953949 0.43258312344551086
0.2574327290058136 0.27739715576171875 0.4723163843154907
0.25635847449302673 0.26114657521247864 0.46016594767570496
0.3547138571739197 0.24613060057163239 0.4121246039867401
0.31035101413726807 0.4288986027240753 0.456743448972702
0.3505588173866272 0.30301812291145325 0.5624658465385437
0.2539062798023224 0.3492206633090973 0.5322036743164062
0.2688835859298706 0.37800267338752747 0.4463866353034973
0.26499560475349426 0.38463282585144043 0.43076878786087036
0.27753746509552 0.1749463975429535 0.452915757894516
0.24978815019130707 0.2938835024833679 0.49307432770729065
0.2814994752407074 0.39472389221191406 0.4425174295902252
0.2797810435295105 0.22256995737552643 0.4348149597644806
0.2959776520729065 0.2888934910297394 0.49251291155815125
0.25570032000541687 0.34750738739967346 0.5190291404724121
0.2470347136259079 0.3273315131664276 0.4569149911403656
0.2589348256587982 0.3256479799747467 0.5350594520568848
0.3017512559890747 0.3500135540962219 0.5778090953826904
0.29762589931488037 0.21236708760261536 0.5304827690124512
0.23106318712234497 0.3397853672504425 0.538707435131073
0.33755797147750854 0.25418993830680847 0.44062796235084534
0.26563307642936707 0.23422202467918396 0.5252647399902344
0.2511894702911377 0.3005315959453583 0.5305328369140625
0.22791452705860138 0.23350472748279572 0.4972176253795624
0.3037225902080536 0.23971450328826904 0.4562309980392456
0.35003384947776794 0.34893080592155457 0.5780768394470215
0.32131364941596985 0.3162342607975006 0.4828662574291229
0.2500550150871277 0.23159334063529968 0.5916727185249329
0.356099009513855 0.27573537826538086 0.41452595591545105
0.281880646944046 0.25747615098953247 0.5967706441879272
0.3220382034778595 0.312787801027298 0.5842182040214539
0.25668513774871826 0.33221113681793213 0.48368456959724426
0.23550499975681305 0.30902472138404846 0.5405727624893188
0.30775558948516846 0.28277361392974854 0.5266788005828857
0.33647972345352173 0.2393273562192917 0.49960240721702576
0.2136366218328476 0.3282660245895386 0.4081898331642151
0.3139273524284363 0.18473301827907562 0.5237889885902405
0.3347967565059662 0.39865073561668396 0.46059364080429077
0.2890455722808838 0.2534480392932892 0.5470901131629944
0.31632766127586365 0.28187480568885803 0.48879849910736084
0.2627350986003876 0.16450004279613495 0.5689253807067871
0.3584616482257843 0.33630165457725525 0.45201459527015686
0.30443307757377625 0.420160174369812 0.4441784620285034
0.20487703382968903 0.2993634045124054 0.4740072786808014
0.22376330196857452 0.2655351758003235 0.5572372078895569
0.22981522977352142 0.2988507151603699 0.4433184564113617
0.3613430857658386 0.3663620948791504 0.5758885741233826
0.29999828338623047 0.2858934700489044 0.5569246411323547
0.2931920289993286 0.40931832790374756 0.5322223901748657
0.22834287583827972 0.3336537182331085 0.47401848435401917
0.29475733637809753 0.20731604099273682 0.47802698612213135
0.40254706144332886 0.31045234203338623 0.443819522857666
0.2666438817977905 0.3004489839076996 0.5980825424194336
0.3926633596420288 0.3121877908706665 0.4644972085952759
0.2521457374095917 0.3680247962474823 0.5761539936065674
0.3112512230873108 0.32549214363098145 0.48111987113952637
0.3202250897884369 0.34878093004226685 0.6060075163841248
0.38805824518203735 0.2805509865283966 0.4281092882156372
0.3313789665699005 0.4364033043384552 0.43257224559783936
0.251947283744812 0.24767833948135376 0.49201664328575134
0.2727832794189453 0.15792305767536163 0.47886478900909424
0.382781445980072 0.2815288007259369 0.5183725953102112
0.2971028685569763 0.22290515899658203 0.580768883228302
0.22391381859779358 0.3450719118118286 0.4149874448776245
0.25555914640426636 0.3493614196777344 0.5756399035453796
0.29442280530929565 0.3179067373275757 0.559395968914032
0.25161612033843994 0.2300434559583664 0.4083351790904999
0.23379623889923096 0.34415575861930847 0.5645155906677246
0.2971227765083313 0.19022908806800842 0.5438185930252075
0.3589898645877838 0.2599756121635437 0.5844994187355042
0.3175988495349884 0.3454873263835907 0.4969456195831299
0.2225113958120346 0.23254387080669403 0.5023291110992432
0.30731436610221863 0.20099705457687378 0.41973719000816345
0.22373011708259583 0.2789592742919922 0.5205162167549133
0.3272385001182556 0.2090439647436142 0.5710943937301636
0.1916155070066452 0.2897034287452698 0.45024922490119934
0.23047617077827454 0.26192528009414673 0.522106409072876
0.32028892636299133 0.35714319348335266 0.43796882033348083
0.3839818239212036 0.345928817987442 0.4994478225708008
0.3411690592765808 0.31908556818962097 0.4839305877685547
0.3069523572921753 0.28050342202186584 0.47758108377456665
0.33870598673820496 0.2046511173248291 0.4054230749607086
0.19309140741825104 0.3283883333206177 0.5800788402557373
0.31382638216018677 0.3036153316497803 0.5876745581626892
0.3174269497394562 0.38804757595062256 0.4315360188484192
0.41626250743865967 0.31386125087738037 0.43706414103507996
0.3302779793739319 0.36676374077796936 0.5298132300376892
0.3890915811061859 0.25829455256462097 0.4225938618183136
0.35227060317993164 0.2652709484100342 0.4138452708721161
0.40611302852630615 0.2547028362751007 0.5700811743736267
0.34126409888267517 0.23678472638130188 0.44497984647750854
0.2555355429649353 0.3811054229736328 0.4102432131767273
0.3327772319316864 0.40144315361976624 0.4578251838684082
0.306738942861557 0.24741321802139282 0.40371134877204895
0.33338865637779236 0.3112209439277649 0.5627204775810242
0.28745192289352417 0.22189180552959442 0.44810613989830017
0.3383179008960724 0.3632720708847046 0.5577325820922852
0.3439202606678009 0.2768171727657318 0.44045475125312805
0.29488712549209595 0.40556225180625916 0.4763692617416382
0.2829115092754364 0.34580451250076294 0.504813551902771
0.25770533084869385 0.30699461698532104 0.4776478707790375
0.35988861322402954 0.355220228433609 0.5973540544509888
0.1661733239889145 0.31127673387527466 0.5924163460731506
0.3910459280014038 0.24468785524368286 0.4855264127254486
0.3003547787666321 0.3939107656478882 0.5369988083839417
0.30866193771362305 0.38765421509742737 0.5523719787597656
0.27012374997138977 0.24355709552764893 0.44643065333366394
0.28624728322029114 0.2662855088710785 0.4191693663597107
0.34085363149642944 0.2554822862148285 0.5224973559379578
0.21931815147399902 0.3533710539340973 0.5494948625564575
0.31494829058647156 0.19922244548797607 0.5902894735336304
0.1907142996788025 0.318778395652771 0.4228768050670624
0.31391459703445435 0.23908451199531555 0.4802059829235077
0.3160594701766968 0.33424124121665955 0.41235604882240295
0.30698853731155396 0.35514551401138306 0.47603216767311096
0.23106318712234497 0.3397853672504425 0.538707435131073
0.33755797147750854 0.25418993830680847 0.44062796235084534
0.26563307642936707 0.23422202467918396 0.5252647399902344
0.2511894702911377 0.3005315959453583 0.5305328369140625
0.1944306194782257 0.31225499510765076 0.4053560793399811
0.21931815147399902 0.3533710539340973 0.5494948625564575
0.31494829058647156 0.19922244548797607 0.5902894735336304
0.1907142996788025 0.318778395652771 0.4228768050670624
0.31391459703445435 0.23908451199531555 0.4802059829235077
0.3160594701766968 0.33424124121665955 0.41235604882240295
0.30698853731155396 0.35514551401138306 0.47603216767311096
0.23106318712234497 0.3397853672504425 0.538707435131073
0.33755797147750854 0.25418993830680847 0.44062796235084534
0.26563307642936707 0.23422202467918396 0.5252647399902344
0.2511894702911377 0.3005315959453583 0.5305328369140625
0.2636316120624542 0.29684263467788696 0.520513117313385
0.36206451058387756 0.24364766478538513 0.5998905897140503
0.3912643492221832 0.2966574728488922 0.539282500743866
0.32167088985443115 0.20557668805122375 0.4394853711128235
0.308851033449173 0.307090163230896 0.5244789123535156
0.26747989654541016 0.18194827437400818 0.5576781034469604
0.3536660373210907 0.3415208160877228 0.4663703143596649
0.20538902282714844 0.27089905738830566 0.47197628021240234
0.2529618740081787 0.3135737180709839 0.5419573783874512
0.33737900853157043 0.37714436650276184 0.46628639101982117
0.2557755708694458 0.29502660036087036 0.4439542293548584
0.2411077618598938 0.217356875538826 0.5114113688468933
0.26812368631362915 0.3706414997577667 0.5252964496612549
0.34713971614837646 0.2580323815345764 0.4128943681716919
0.3077750504016876 0.3437933623790741 0.5827904343605042
0.26349860429763794 0.25716790556907654 0.5029119253158569
0.28930073976516724 0.3411412835121155 0.4353075623512268
0.29626670479774475 0.23467989265918732 0.5338559746742249
0.3348318338394165 0.4271275997161865 0.42986756563186646
0.3267504870891571 0.2915193736553192 0.5975063443183899
0.40254706144332886 0.31045234203338623 0.443819522857666
0.28890177607536316 0.2646985948085785 0.43787476420402527
0.30866193771362305 0.38765421509742737 0.5523719787597656
0.27012374997138977 0.24355709552764893 0.44643065333366394
0.28624728322029114 0.2662855088710785 0.4191693663597107
0.34085363149642944 0.2554822862148285 0.5224973559379578
0.21931815147399902 0.3533710539340973 0.5494948625564575
0.31494829058647156 0.19922244548797607 0.5902894735336304
0.1907142996788025 0.318778395652771 0.4228768050670624
0.31391459703445435 0.23908451199531555 0.4802059829235077
0.31405341625213623 0.4018329977989197 0.5889871716499329
0.3039723038673401 0.1995331048965454 0.5934785008430481
0.28478655219078064 0.25924283266067505 0.4702879786491394
0.36005106568336487 0.36995023488998413 0.4809396266937256
0.28710198402404785 0.1878756582736969 0.5533145666122437
0.28170695900917053 0.39563432335853577 0.43774303793907166
0.23973865807056427 0.2383662760257721 0.5350693464279175
0.417558491230011 0.2587185204029083 0.5148319602012634
0.36206451058387756 0.24364766478538513 0.5998905897140503
0.3912643492221832 0.2966574728488922 0.539282500743866
0.34102287888526917 0.3101968467235565 0.46411219239234924
0.32167088985443115 0.20557668805122375 0.4394853711128235
0.308851033449173 0.307090163230896 0.5244789123535156
0.26747989654541016 0.18194827437400818 0.5576781034469604
0.307759553194046 0.22597335278987885 0.5887939929962158
0.25661197304725647 0.26965323090553284 0.5626674890518188
0.32458704710006714 0.4262219965457916 0.44427964091300964
0.39814293384552 0.3402307629585266 0.42398741841316223
0.3199426531791687 0.3950537145137787 0.5853625535964966
0.3202250897884369 0.34878093004226685 0.6060075163841248
0.38805824518203735 0.2805509865283966 0.4281092882156372
0.26704666018486023 0.1581917554140091 0.5758485794067383
0.3406846523284912 0.3487647771835327 0.5323164463043213
0.22049233317375183 0.31735649704933167 0.5614250302314758
0.3912643492221832 0.2966574728488922 0.539282500743866
0.34102287888526917 0.3101968467235565 0.46411219239234924
0.32167088985443115 0.20557668805122375 0.4394853711128235
0.308851033449173 0.307090163230896 0.5244789123535156
0.26747989654541016 0.18194827437400818 0.5576781034469604
0.307759553194046 0.22597335278987885 0.5887939929962158
0.25661197304725647 0.26965323090553284 0.5626674890518188
0.32458704710006714 0.4262219965457916 0.44427964091300964
0.39814293384552 0.3402307629585266 0.42398741841316223
0.3199426531791687 0.3950537145137787 0.5853625535964966
0.3202250897884369 0.34878093004226685 0.6060075163841248
0.38805824518203735 0.2805509865283966 0.4281092882156372
0.26704666018486023 0.1581917554140091 0.5758485794067383
0.3406846523284912 0.3487647771835327 0.5323164463043213
0.26590976119041443 0.1796964854001999 0.45717981457710266
0.2508551776409149 0.29941150546073914 0.5329459309577942
0.2705461382865906 0.32375892996788025 0.48354047536849976
0.2768634557723999 0.3423784375190735 0.5089094638824463
0.3729848861694336 0.3074152171611786 0.47948890924453735
0.29929596185684204 0.3425348699092865 0.5736078023910522
0.34435582160949707 0.32779887318611145 0.5711987018585205
0.31929829716682434 0.31303393840789795 0.5845953226089478
0.3002566397190094 0.329746276140213 0.488258421421051
0.256329208612442 0.22621788084506989 0.4445083737373352
0.23458531498908997 0.35406792163848877 0.40794068574905396
0.2831692695617676 0.34906110167503357 0.4126478135585785
0.3676445484161377 0.3582846522331238 0.5931868553161621
0.34687381982803345 0.34114840626716614 0.4105866849422455
0.38890597224235535 0.2576517164707184 0.41113340854644775
0.3090271055698395 0.41681554913520813 0.4691166281700134
0.3444877862930298 0.3243776261806488 0.43752321600914
0.3547590672969818 0.329120397567749 0.5646704435348511
0.3603559136390686 0.2247859686613083 0.5819721221923828
0.3577165901660919 0.35745060443878174 0.46737030148506165
0.3242928385734558 0.25969988107681274 0.5282594561576843
0.250857949256897 0.2863839566707611 0.4925116002559662
0.32215291261672974 0.316844642162323 0.4315456449985504
0.40064385533332825 0.2915281355381012 0.4572044014930725
0.2997908592224121 0.17432953417301178 0.48563969135284424
0.26567140221595764 0.25631019473075867 0.538847029209137
0.24122129380702972 0.2895005941390991 0.49209949374198914
0.32780274748802185 0.4257411062717438 0.42145806550979614
0.3070017695426941 0.32686901092529297 0.4601448178291321
0.3102933466434479 0.374341756105423 0.41864824295043945
0.27966952323913574 0.17090751230716705 0.48294299840927124
0.31508201360702515 0.2774909436702728 0.5345345139503479
0.32800400257110596 0.24649135768413544 0.4214567244052887
0.32362425327301025 0.25275444984436035 0.48939964175224304
0.27118685841560364 0.16138030588626862 0.480212926864624
0.2296665608882904 0.3225645124912262 0.44164249300956726
0.21804136037826538 0.23352763056755066 0.5701244473457336
0.3219243288040161 0.38274282217025757 0.5535438656806946
0.20620353519916534 0.32874026894569397 0.559699296951294
0.23167948424816132 0.3020212650299072 0.5724526643753052
0.2704175114631653 0.169500932097435 0.5829038619995117
0.2641984224319458 0.21224096417427063 0.5332921743392944
0.3424903452396393 0.2803354561328888 0.5709998607635498
0.2888738214969635 0.29440873861312866 0.4399232268333435
0.35988861322402954 0.355220228433609 0.5973540544509888
0.1661733239889145 0.31127673387527466 0.5924163460731506
0.3910459280014038 0.24468785524368286 0.4855264127254486
0.3003547787666321 0.3939107656478882 0.5369988083839417
0.30866193771362305 0.38765421509742737 0.5523719787597656
0.2611939311027527 0.25379422307014465 0.5156344175338745
0.3353612422943115 0.2565833628177643 0.5916082859039307
0.3368143141269684 0.4072691798210144 0.5795785188674927
0.2709786295890808 0.2733044922351837 0.5956198573112488
0.3267050087451935 0.20397430658340454 0.40040868520736694
0.31181010603904724 0.27559277415275574 0.5668802261352539
0.3079969584941864 0.3499847650527954 0.4713769555091858
0.31567296385765076 0.36901021003723145 0.5329383611679077
0.3779618740081787 0.34301623702049255 0.41428646445274353
0.2377920001745224 0.2486855387687683 0.552523136138916
0.2669481337070465 0.35672175884246826 0.541016697883606
0.30782344937324524 0.2748560309410095 0.41508355736732483
0.3290291428565979 0.27646827697753906 0.5223191976547241
0.3293497860431671 0.3991825580596924 0.49075618386268616
0.2118586301803589 0.27374163269996643 0.5185275673866272
0.31974560022354126 0.2739153802394867 0.4217093884944916
0.27337512373924255 0.3817148208618164 0.5348749756813049
0.40698644518852234 0.2944686710834503 0.4946317672729492
0.414543479681015 0.2746277153491974 0.5747004747390747
0.38009580969810486 0.2537778317928314 0.48307234048843384
0.26151591539382935 0.2764952778816223 0.4717252552509308
0.2373015433549881 0.2806977927684784 0.5300016403198242
0.2626754641532898 0.3191201686859131 0.45550528168678284
0.29913130402565 0.31582099199295044 0.5416238307952881
0.36134588718414307 0.2519180178642273 0.4506262540817261
0.33372899889945984 0.3386400640010834 0.4616294503211975
0.2903270125389099 0.34796926379203796 0.6043616533279419
0.3494333326816559 0.2908596992492676 0.5027354955673218
0.384650319814682 0.3014339804649353 0.559351921081543
0.3687301278114319 0.3828715980052948 0.42455220222473145
0.24542605876922607 0.22787567973136902 0.45832034945487976
0.3577248156070709 0.3523547351360321 0.49054285883903503
0.3037225902080536 0.23971450328826904 0.4562309980392456
0.2123798429965973 0.3225521147251129 0.5548006892204285
0.23825454711914062 0.25189173221588135 0.5186735391616821
0.2525635063648224 0.29893970489501953 0.4222398102283478
0.27106645703315735 0.38167160749435425 0.5118251442909241
0.2955518364906311 0.27088311314582825 0.4281160235404968
0.3433447778224945 0.4043821394443512 0.4549156129360199
0.2474774271249771 0.2823222279548645 0.5740835070610046
0.3796886205673218 0.2865576446056366 0.48466503620147705
0.1742270290851593 0.31791943311691284 0.4887818694114685
0.30635952949523926 0.269301176071167 0.5417992472648621
0.3139101564884186 0.18195371329784393 0.5884429216384888
0.3207809329032898 0.37390151619911194 0.4991038739681244
0.3546406328678131 0.23679094016551971 0.41769328713417053
0.3537847399711609 0.3905585706233978 0.42020970582962036
0.24680103361606598 0.2318987399339676 0.3967704176902771
0.2944413721561432 0.2952776551246643 0.4152558445930481
0.22573810815811157 0.3197631537914276 0.40864133834838867
0.4057105779647827 0.30959218740463257 0.42212262749671936
0.2580430805683136 0.19978731870651245 0.3962632417678833
0.3438296616077423 0.4040481448173523 0.4762185215950012
0.20182538032531738 0.279470831155777 0.516282320022583
0.23758725821971893 0.2758307456970215 0.5557355284690857
0.32334086298942566 0.2878788411617279 0.43749210238456726
0.26569658517837524 0.24962261319160461 0.4935488700866699
0.3240903317928314 0.32945874333381653 0.4193844199180603
0.36143386363983154 0.3747917413711548 0.5342137813568115
0.3014281988143921 0.22247113287448883 0.4220801889896393
0.3361169993877411 0.20883531868457794 0.4429745674133301
0.2914825677871704 0.3343057632446289 0.5077508687973022
0.2544068694114685 0.26862162351608276 0.4575302302837372
0.28891435265541077 0.18993738293647766 0.5448920726776123
0.417558491230011 0.2587185204029083 0.5148319602012634
0.32458704710006714 0.4262219965457916 0.44427964091300964
0.39814293384552 0.3402307629585266 0.42398741841316223
0.3199426531791687 0.3950537145137787 0.5853625535964966
0.3202250897884369 0.34878093004226685 0.6060075163841248
0.38805824518203735 0.2805509865283966 0.4281092882156372
0.26704666018486023 0.1581917554140091 0.5758485794067383
0.3406846523284912 0.3487647771835327 0.5323164463043213
0.30987539887428284 0.4230208098888397 0.4723183512687683
0.21378377079963684 0.3070222735404968 0.5865877866744995
0.37668848037719727 0.24996182322502136 0.40755969285964966
0.30949851870536804 0.20842459797859192 0.4783628582954407
0.34979650378227234 0.235104039311409 0.4771973788738251
0.3348294198513031 0.21316003799438477 0.41480836272239685
0.31949031352996826 0.20568399131298065 0.5393645167350769
0.2788710296154022 0.2792418897151947 0.4269252121448517
0.2107401341199875 0.2713365852832794 0.5773977637290955
0.22707688808441162 0.21517696976661682 0.559829592704773
0.3830636441707611 0.294050395488739 0.5550369620323181
0.2920391261577606 0.3306647837162018 0.46380069851875305
0.21806102991104126 0.2731592059135437 0.5754362344741821
0.24074289202690125 0.3305663764476776 0.5019246339797974
0.29863280057907104 0.2618815302848816 0.5110744833946228
0.2548694610595703 0.2831547260284424 0.4893476068973541
0.32277730107307434 0.3382066488265991 0.46889811754226685
0.25818559527397156 0.2885132133960724 0.5858852863311768
0.2207910716533661 0.27889198064804077 0.4388701915740967
0.3049268424510956 0.374612957239151 0.5948407053947449
0.3274458646774292 0.20734162628650665 0.44180306792259216
0.3428247272968292 0.38567084074020386 0.5298706293106079
0.3272879421710968 0.32376009225845337 0.5139691233634949
0.3381659686565399 0.2336243838071823 0.5883206725120544
0.3353612422943115 0.2565833628177643 0.5916082859039307
0.3368143141269684 0.4072691798210144 0.5795785188674927
0.2709786295890808 0.2733044922351837 0.5956198573112488
0.4280220568180084 0.29298853874206543 0.4176763594150543
0.275178998708725 0.32656145095825195 0.5584768652915955
0.3079969584941864 0.3499847650527954 0.4713769555091858
0.31567296385765076 0.36901021003723145 0.5329383611679077
0.3779618740081787 0.34301623702049255 0.41428646445274353
0.2568209171295166 0.25846463441848755 0.4339708983898163
0.3085600435733795 0.2917158007621765 0.4232521653175354
0.3357219696044922 0.20570169389247894 0.5530138611793518
0.26830026507377625 0.18575620651245117 0.5376663208007812
0.39770758152008057 0.2997121810913086 0.4982667565345764
0.38887113332748413 0.3423992991447449 0.512800931930542
0.38231566548347473 0.2985510230064392 0.44825756549835205
0.3927965462207794 0.29153335094451904 0.416343629360199
0.273319274187088 0.32048898935317993 0.6041392683982849
0.2571026384830475 0.3663635849952698 0.5889163017272949
0.2987048923969269 0.3481915593147278 0.4859200119972229
0.26336827874183655 0.26643773913383484 0.5125179290771484
0.36570101976394653 0.2891308665275574 0.5305699706077576
