ply
format ascii 1.0
element vertex 825
property float x
property float y
property float z
end_header
0.25935235619544983 0.24201321601867676 0.4206084907054901
0.2885224223136902 0.37043535709381104 0.49434584379196167
0.2638934254646301 0.3285212516784668 0.5295321345329285
0.3289586007595062 0.24806134402751923 0.5852069854736328
0.24377994239330292 0.32213035225868225 0.5516981482505798
0.23939251899719238 0.32016927003860474 0.41127073764801025
0.29697346687316895 0.23743478953838348 0.4764508306980133
0.29422643780708313 0.2521887421607971 0.42811086773872375
0.26109421253204346 0.23403826355934143 0.42496439814567566
0.3188655972480774 0.21749959886074066 0.598090648651123
0.29306235909461975 0.362211674451828 0.5936970114707947
0.293901264667511 0.3064490854740143 0.5189258456230164
0.2909051179885864 0.19535639882087708 0.5462876558303833
0.2825506031513214 0.23833519220352173 0.45035338401794434
0.3020053207874298 0.37703320384025574 0.5018259286880493
0.3314369320869446 0.29102635383605957 0.40893828868865967
0.23867733776569366 0.30934441089630127 0.5688877105712891
0.30878353118896484 0.19244995713233948 0.4354798197746277
0.2761729657649994 0.3110269010066986 0.4362349510192871
0.2634086608886719 0.25898173451423645 0.5177926421165466
0.24224890768527985 0.3229080140590668 0.41850629448890686
0.3597263693809509 0.2773105502128601 0.4726637601852417
0.354040265083313 0.3494773209095001 0.6047525405883789
0.3966684341430664 0.3087177574634552 0.536538302898407
0.2472417801618576 0.28077954053878784 0.498166561126709
0.29995277523994446 0.4003966152667999 0.5936756134033203
0.2834120988845825 0.1938331127166748 0.46514832973480225
0.38186439871788025 0.21888785064220428 0.4912606179714203
0.43802177906036377 0.26165708899497986 0.436706006526947
0.32206839323043823 0.24137236177921295 0.6010347604751587
0.2399197667837143 0.3022959232330322 0.4340983033180237
0.2771199345588684 0.3802061676979065 0.5425797700881958
0.3100436329841614 0.34795814752578735 0.4798312783241272
0.30963921546936035 0.25782349705696106 0.45092377066612244
0.3405475318431854 0.2881857454776764 0.591664731502533
0.26534605026245117 0.2703782618045807 0.4172970950603485
0.3869301378726959 0.2951439917087555 0.5643658638000488
0.3527962267398834 0.28032174706459045 0.5365198850631714
0.42124953866004944 0.27655789256095886 0.6064092516899109
0.3119197487831116 0.23756960034370422 0.5729653835296631
0.2312130331993103 0.235200434923172 0.5715381503105164
0.34549394249916077 0.31320127844810486 0.6044042110443115
0.31332167983055115 0.2307492345571518 0.4938932955265045
0.30803924798965454 0.17934022843837738 0.4366927146911621
0.28214097023010254 0.1893337368965149 0.48890769481658936
0.26523706316947937 0.2913900315761566 0.5257251262664795
0.28977370262145996 0.36779922246932983 0.47303858399391174
0.34388118982315063 0.28831613063812256 0.4368809163570404
0.32672977447509766 0.19990651309490204 0.3984166085720062
0.2746981382369995 0.1695946455001831 0.5863648653030396
0.306372731924057 0.39422842860221863 0.491367906332016
0.27426302433013916 0.2482387125492096 0.5136817693710327
0.3581157624721527 0.40031278133392334 0.44273027777671814
0.30844852328300476 0.3581497371196747 0.43193015456199646
0.2786273658275604 0.3685769736766815 0.4507739543914795
0.24233680963516235 0.32066938281059265 0.5212419033050537
0.23171059787273407 0.3117065131664276 0.49615025520324707
0.34027647972106934 0.304839164018631 0.48472875356674194
0.38770416378974915 0.24093733727931976 0.5583267211914062
0.3220275938510895 0.20502907037734985 0.5926210880279541
0.35442405939102173 0.3479100465774536 0.4276670813560486
0.23243023455142975 0.3007831871509552 0.48089244961738586
0.28152889013290405 0.34997791051864624 0.47755903005599976
0.3546089231967926 0.32999539375305176 0.5491567850112915
0.34557050466537476 0.30680713057518005 0.48659631609916687
0.22475463151931763 0.3071272671222687 0.4642502963542938
0.3749709129333496 0.28140345215797424 0.42097678780555725
0.3498290479183197 0.3264990448951721 0.5162429213523865
0.3583538830280304 0.30870068073272705 0.45087799429893494
0.26431041955947876 0.2999296486377716 0.432277113199234
0.3608067035675049 0.373965322971344 0.5839294195175171
0.33592113852500916 0.3519396185874939 0.5703030824661255
0.30853477120399475 0.3236396014690399 0.5433100461959839
0.3515324890613556 0.2504775822162628 0.5828891396522522
0.20965750515460968 0.2925296723842621 0.45018884539604187
0.3189224600791931 0.2755768895149231 0.4861242473125458
0.26347053050994873 0.35376647114753723 0.4226524233818054
0.3166913688182831 0.2784788906574249 0.4621725082397461
0.38997724652290344 0.32791265845298767 0.47925999760627747
0.2711247503757477 0.33031603693962097 0.5215713381767273
0.3411521315574646 0.27047908306121826 0.42489370703697205
0.23183268308639526 0.33831214904785156 0.5176908373832703
0.293967068195343 0.31102025508880615 0.4953617453575134
0.3119197487831116 0.23756960034370422 0.5729653835296631
0.22540968656539917 0.33565932512283325 0.5730730891227722
0.26147952675819397 0.25199729204177856 0.44665783643722534
0.38137543201446533 0.2981240451335907 0.4129706025123596
0.402499258518219 0.29699984192848206 0.5937707424163818
0.3842437267303467 0.3319461941719055 0.42999058961868286
0.37448650598526 0.3209749162197113 0.5064573884010315
0.40081313252449036 0.2871578335762024 0.5352339744567871
0.28356218338012695 0.17227333784103394 0.5280153155326843
0.33163678646087646 0.17499947547912598 0.49269694089889526
0.2627308666706085 0.24363641440868378 0.5126257538795471
0.346561074256897 0.22515460848808289 0.5121803879737854
0.258120059967041 0.35061115026474 0.5686777234077454
0.2560918629169464 0.3320716321468353 0.46473637223243713
0.3599000871181488 0.23317773640155792 0.5394896864891052
0.3238879442214966 0.42140892148017883 0.5187971591949463
0.26178860664367676 0.18928487598896027 0.5832368731498718
0.27119457721710205 0.22460022568702698 0.4432952105998993
0.2802663743495941 0.22366566956043243 0.49608248472213745
0.27098768949508667 0.24572741985321045 0.48631909489631653
0.367408812046051 0.2549028694629669 0.499752402305603
0.34073448181152344 0.18662497401237488 0.4044908583164215
0.35791122913360596 0.28716936707496643 0.6004239320755005
0.3538651466369629 0.33456337451934814 0.5199593901634216
0.2613678276538849 0.2147594690322876 0.5469385981559753
0.30631938576698303 0.38534989953041077 0.5550596714019775
0.2860527038574219 0.199770987033844 0.5022851824760437
0.4509679675102234 0.27537333965301514 0.4480035901069641
0.3003915250301361 0.31307876110076904 0.49144670367240906
0.36705318093299866 0.31613996624946594 0.5751093626022339
0.33698296546936035 0.3897930681705475 0.47380098700523376
0.36854881048202515 0.33518004417419434 0.4631284773349762
0.43280985951423645 0.28368067741394043 0.5152826309204102
0.28746381402015686 0.26384004950523376 0.5516715049743652
0.26147952675819397 0.25199729204177856 0.44665783643722534
0.24497859179973602 0.3420361280441284 0.4373537302017212
0.3533361852169037 0.3535079061985016 0.5127667784690857
0.2929604649543762 0.2960488200187683 0.5616025924682617
0.25998827815055847 0.2618633508682251 0.5193638205528259
0.27529770135879517 0.3841688632965088 0.5175321102142334
0.40081313252449036 0.2871578335762024 0.5352339744567871
0.28152889013290405 0.34997791051864624 0.47755903005599976
0.3546089231967926 0.32999539375305176 0.5491567850112915
0.34557050466537476 0.30680713057518005 0.48659631609916687
0.22475463151931763 0.3071272671222687 0.4642502963542938
0.3749709129333496 0.28140345215797424 0.42097678780555725
0.3498290479183197 0.3264990448951721 0.5162429213523865
0.3583538830280304 0.30870068073272705 0.45087799429893494
0.32091882824897766 0.2697405219078064 0.4235484302043915
0.3608067035675049 0.373965322971344 0.5839294195175171
0.30731746554374695 0.39004987478256226 0.5712607502937317
0.367408812046051 0.2549028694629669 0.499752402305603
0.30002424120903015 0.24500851333141327 0.5453076958656311
0.33421432971954346 0.2123599350452423 0.5935491323471069
0.3790540099143982 0.22603553533554077 0.4648628532886505
0.35299238562583923 0.24655552208423615 0.5082160830497742
0.3694037199020386 0.24109047651290894 0.4323402941226959
0.22696426510810852 0.2734748423099518 0.5583239793777466
0.3521251082420349 0.26634424924850464 0.5565075278282166
0.34677034616470337 0.3629823923110962 0.4659806489944458
0.2885596454143524 0.20677949488162994 0.5461429953575134
0.4169793725013733 0.2937157154083252 0.5678941607475281
0.2537003457546234 0.2399476021528244 0.5123496651649475
0.3203169107437134 0.4114528298377991 0.5345391035079956
0.3006807863712311 0.2472052425146103 0.4420795440673828
0.39501264691352844 0.2664596736431122 0.47326794266700745
0.3183804452419281 0.4139978587627411 0.5784452557563782
0.23603786528110504 0.3300306499004364 0.4632469713687897
0.38720962405204773 0.2817971110343933 0.4297471344470978
0.30139508843421936 0.23254317045211792 0.47923049330711365
0.35588574409484863 0.26859843730926514 0.5808415412902832
0.26203829050064087 0.24253658950328827 0.5956233143806458
0.40520820021629333 0.274843692779541 0.4208926260471344
0.33680424094200134 0.23420946300029755 0.5991690754890442
0.2778504490852356 0.31818506121635437 0.5771908760070801
0.32936516404151917 0.3465869128704071 0.46775051951408386
0.33946532011032104 0.242710679769516 0.5333923697471619
0.2928808033466339 0.18067514896392822 0.43625542521476746
0.22717459499835968 0.2942236661911011 0.4301029443740845
0.3309619724750519 0.3423791825771332 0.4370499551296234
0.31340378522872925 0.300479918718338 0.5042416453361511
0.21335271000862122 0.30728384852409363 0.585358202457428
0.2743190824985504 0.3120501637458801 0.5108745098114014
0.2910228967666626 0.17914943397045135 0.4297322630882263
0.32214242219924927 0.18192549049854279 0.5874077081680298
0.35791122913360596 0.28716936707496643 0.6004239320755005
0.3006807863712311 0.2472052425146103 0.4420795440673828
0.39501264691352844 0.2664596736431122 0.47326794266700745
0.3183804452419281 0.4139978587627411 0.5784452557563782
0.23603786528110504 0.3300306499004364 0.4632469713687897
0.23603786528110504 0.3300306499004364 0.4632469713687897
0.38720962405204773 0.2817971110343933 0.4297471344470978
0.38720962405204773 0.2817971110343933 0.4297471344470978
0.30139508843421936 0.23254317045211792 0.47923049330711365
0.35588574409484863 0.26859843730926514 0.5808415412902832
0.26203829050064087 0.24253658950328827 0.5956233143806458
0.40520820021629333 0.274843692779541 0.4208926260471344
0.33680424094200134 0.23420946300029755 0.5991690754890442
0.2778504490852356 0.31818506121635437 0.5771908760070801
0.32552722096443176 0.31282973289489746 0.4509717524051666
0.2660669684410095 0.2002653032541275 0.5286731123924255
0.2928808033466339 0.18067514896392822 0.43625542521476746
0.22717459499835968 0.2942236661911011 0.4301029443740845
0.30604076385498047 0.3296833336353302 0.41541555523872375
0.25278326869010925 0.28099894523620605 0.4559113085269928
0.28269118070602417 0.2140984684228897 0.47275587916374207
0.21335271000862122 0.30728384852409363 0.585358202457428
0.2743190824985504 0.3120501637458801 0.5108745098114014
0.2910228967666626 0.17914943397045135 0.4297322630882263
0.32214242219924927 0.18192549049854279 0.5874077081680298
0.3866623044013977 0.21507906913757324 0.5055730938911438
0.3206464350223541 0.2666778266429901 0.4062685966491699
0.3206464350223541 0.2666778266429901 0.4062685966491699
0.3829564154148102 0.3026932179927826 0.4754749536514282
0.3571144938468933 0.2616472840309143 0.45714765787124634
0.2796829044818878 0.2983711063861847 0.5815296173095703
0.3060987591743469 0.16192011535167694 0.4971913993358612
0.3538651466369629 0.33456337451934814 0.5199593901634216
0.31768640875816345 0.21446895599365234 0.5199874043464661
0.3157757818698883 0.3785952627658844 0.46198806166648865
0.23633185029029846 0.30869802832603455 0.4979223906993866
0.2513355016708374 0.3531166613101959 0.5986893177032471
0.3126249611377716 0.2750764489173889 0.47070157527923584
0.28504857420921326 0.35856401920318604 0.5051082372665405
0.2781462073326111 0.3650152385234833 0.56587815284729
0.2894366979598999 0.31712040305137634 0.5534690618515015
0.335252970457077 0.19212161004543304 0.5036351084709167
0.31380748748779297 0.31098878383636475 0.5601011514663696
0.32968613505363464 0.35466882586479187 0.5199431777000427
0.30627501010894775 0.27990585565567017 0.5743082761764526
0.4211304485797882 0.29470300674438477 0.4303990602493286
0.28893235325813293 0.3299475610256195 0.49659401178359985
0.3455160856246948 0.26813408732414246 0.5785618424415588
0.4296320676803589 0.27057692408561707 0.592628002166748
0.3588190972805023 0.35010939836502075 0.5123345255851746
0.34786030650138855 0.3777889013290405 0.5398708581924438
0.34262558817863464 0.3122832775115967 0.5469731092453003
0.21614386141300201 0.281620591878891 0.4602850079536438
0.21614386141300201 0.281620591878891 0.4602850079536438
0.3939664661884308 0.22566048800945282 0.4265172481536865
0.22416290640830994 0.29756125807762146 0.4756150543689728
0.303863525390625 0.25978654623031616 0.419026643037796
0.2926621437072754 0.2967148721218109 0.41828063130378723
0.2827605605125427 0.31632721424102783 0.4510272443294525
0.32600119709968567 0.27542296051979065 0.4985000789165497
0.35668739676475525 0.40382564067840576 0.47269943356513977
0.2280925214290619 0.27861443161964417 0.44034940004348755
0.35801801085472107 0.36410319805145264 0.5923084616661072
0.3093922436237335 0.3496871292591095 0.45546725392341614
0.36290881037712097 0.24262654781341553 0.5173654556274414
0.3126249611377716 0.2750764489173889 0.47070157527923584
0.28504857420921326 0.35856401920318604 0.5051082372665405
0.2781462073326111 0.3650152385234833 0.56587815284729
0.2894366979598999 0.31712040305137634 0.5534690618515015
0.335252970457077 0.19212161004543304 0.5036351084709167
0.31380748748779297 0.31098878383636475 0.5601011514663696
0.32968613505363464 0.35466882586479187 0.5199431777000427
0.30627501010894775 0.27990585565567017 0.5743082761764526
0.4211304485797882 0.29470300674438477 0.4303990602493286
0.22700922191143036 0.3042629659175873 0.5024226307868958
0.4296320676803589 0.27057692408561707 0.592628002166748
0.3588190972805023 0.35010939836502075 0.5123345255851746
0.34786030650138855 0.3777889013290405 0.5398708581924438
0.34262558817863464 0.3122832775115967 0.5469731092453003
0.21614386141300201 0.281620591878891 0.4602850079536438
0.3939664661884308 0.22566048800945282 0.4265172481536865
0.22810755670070648 0.31813526153564453 0.43638625741004944
0.3228120505809784 0.2039010375738144 0.4870438575744629
0.33722764253616333 0.33915042877197266 0.5951931476593018
0.3133479654788971 0.30533546209335327 0.6065402030944824
0.41043663024902344 0.2593640983104706 0.435227632522583
0.3389400839805603 0.3063766360282898 0.42141595482826233
0.29173368215560913 0.27796274423599243 0.44672754406929016
0.2891998589038849 0.32986214756965637 0.5379289388656616
0.3867890536785126 0.35216024518013 0.5058483481407166
0.3911599814891815 0.25588980317115784 0.4069705009460449
0.21924954652786255 0.2832239270210266 0.4794926643371582
0.2842678129673004 0.3618394136428833 0.5703487992286682
0.2885596454143524 0.20677949488162994 0.5461429953575134
0.4169793725013733 0.2937157154083252 0.5678941607475281
0.2924119234085083 0.21785829961299896 0.47917333245277405
0.2763236165046692 0.23676280677318573 0.4014602303504944
0.2793758809566498 0.34682634472846985 0.42394909262657166
0.2981206774711609 0.3394348621368408 0.5250053405761719
0.28311464190483093 0.37113672494888306 0.5688592791557312
0.3362794518470764 0.2397354394197464 0.45528265833854675
0.26251110434532166 0.3153707981109619 0.40913116931915283
0.3028804361820221 0.26204487681388855 0.5775502324104309
0.4122379720211029 0.2900812029838562 0.4780469834804535
0.2596833407878876 0.3036572337150574 0.573273241519928
0.31794553995132446 0.2234855592250824 0.44784843921661377
0.3854372203350067 0.2729704678058624 0.4090816378593445
0.43373218178749084 0.25119733810424805 0.45787256956100464
0.36420539021492004 0.30020296573638916 0.4717271327972412
0.38969987630844116 0.32347044348716736 0.49986034631729126
0.37454116344451904 0.2771960496902466 0.47267386317253113
0.33613497018814087 0.2005966305732727 0.5676275491714478
0.3184909522533417 0.3949246108531952 0.5759448409080505
0.273241251707077 0.29951491951942444 0.43096843361854553
0.2513493597507477 0.2939777970314026 0.40019330382347107
0.35818514227867126 0.273947149515152 0.5633427500724792
0.3731748163700104 0.33610981702804565 0.5104301571846008
0.44840294122695923 0.2628701627254486 0.4386183023452759
0.24578337371349335 0.29394471645355225 0.417549192905426
0.40518492460250854 0.2479335516691208 0.5694913864135742
0.35079821944236755 0.31244757771492004 0.4328683316707611
0.3868108093738556 0.3550839424133301 0.5210322141647339
0.315604031085968 0.25258374214172363 0.5397902131080627
0.3675330579280853 0.32258477807044983 0.5351848602294922
0.399809867143631 0.3055666387081146 0.47421106696128845
0.3095504939556122 0.19465214014053345 0.5936968922615051
0.40993180871009827 0.23894824087619781 0.5886044502258301
0.2882022559642792 0.27268078923225403 0.42447274923324585
0.3790540099143982 0.22603553533554077 0.4648628532886505
0.4297057092189789 0.26320573687553406 0.5380623936653137
0.3812858760356903 0.25884613394737244 0.4385644197463989
0.24012649059295654 0.2760022282600403 0.5976638197898865
0.3491608798503876 0.191172793507576 0.40478038787841797
0.3156322240829468 0.3108603060245514 0.5579042434692383
0.222255676984787 0.3005703389644623 0.570729672908783
0.26062023639678955 0.2015715092420578 0.5713868737220764
0.2812028229236603 0.3800077736377716 0.5941447019577026
0.4030603766441345 0.252449631690979 0.4172061085700989
0.26053982973098755 0.21183069050312042 0.577514111995697
0.28893235325813293 0.3299475610256195 0.49659401178359985
0.2674706280231476 0.2855665981769562 0.4743175804615021
0.4154064655303955 0.27294662594795227 0.5665334463119507
0.22606271505355835 0.34179455041885376 0.5618597269058228
0.3010634481906891 0.3396010398864746 0.41414886713027954
0.3551417291164398 0.3209390938282013 0.5308609008789062
0.3494301736354828 0.258920818567276 0.5845270156860352
0.3229985535144806 0.36500391364097595 0.5536331534385681
0.2926621437072754 0.2967148721218109 0.41828063130378723
0.31596502661705017 0.2399824857711792 0.42896685004234314
0.2644480764865875 0.3113919496536255 0.599522590637207
0.23367473483085632 0.3214965760707855 0.5109241604804993
0.35801801085472107 0.36410319805145264 0.5923084616661072
0.3093922436237335 0.3496871292591095 0.45546725392341614
0.3867890536785126 0.35216024518013 0.5058483481407166
0.3911599814891815 0.25588980317115784 0.4069705009460449
0.21924954652786255 0.2832239270210266 0.4794926643371582
0.2842678129673004 0.3618394136428833 0.5703487992286682
0.2885596454143524 0.20677949488162994 0.5461429953575134
0.3704991638660431 0.3460981249809265 0.6026136875152588
0.21511255204677582 0.2938685417175293 0.5148624777793884
0.31732168793678284 0.25888708233833313 0.5982834100723267
0.2680244743824005 0.30413496494293213 0.5559382438659668
0.3254863917827606 0.41937121748924255 0.42907071113586426
0.4263384938240051 0.26571589708328247 0.5400505661964417
0.260863333940506 0.3546423316001892 0.5648136734962463
0.31539350748062134 0.3661610186100006 0.5133272409439087
0.4110415279865265 0.2899579405784607 0.5637848973274231
0.33621788024902344 0.38028478622436523 0.4169134497642517
0.37081006169319153 0.2864890992641449 0.5638737678527832
0.3828103542327881 0.3604635000228882 0.5127639174461365
0.38029298186302185 0.25486764311790466 0.482648640871048
0.2850683331489563 0.20494528114795685 0.39477723836898804
0.26133570075035095 0.32724419236183167 0.5985589623451233
0.3213202953338623 0.29003894329071045 0.5507590174674988
0.26284632086753845 0.37393519282341003 0.442221075296402
0.35542476177215576 0.32591110467910767 0.6107982993125916
0.24365565180778503 0.3308412432670593 0.48333147168159485
0.31814223527908325 0.20866140723228455 0.4457875192165375
0.4156416058540344 0.251810222864151 0.5218405723571777
0.36470574140548706 0.34165793657302856 0.525617778301239
0.3699091672897339 0.3566094636917114 0.4280688166618347
0.2748272716999054 0.33494865894317627 0.4753400683403015
0.26251065731048584 0.35957178473472595 0.5222887992858887
0.3639523983001709 0.2844643294811249 0.4337596595287323
0.3656844198703766 0.35841286182403564 0.5868490934371948
0.36751890182495117 0.28227871656417847 0.47983992099761963
0.36676353216171265 0.27793124318122864 0.45727813243865967
0.24632632732391357 0.21146316826343536 0.5809395909309387
0.3842538595199585 0.29374265670776367 0.5622071027755737
0.34031376242637634 0.41078633069992065 0.4301409423351288
0.3442440629005432 0.22507686913013458 0.4297887086868286
0.3238157033920288 0.41067105531692505 0.45956358313560486
0.28746381402015686 0.26384004950523376 0.5516715049743652
0.2778504490852356 0.31818506121635437 0.5771908760070801
0.32936516404151917 0.3465869128704071 0.46775051951408386
0.33946532011032104 0.242710679769516 0.5333923697471619
0.2928808033466339 0.18067514896392822 0.43625542521476746
0.22717459499835968 0.2942236661911011 0.4301029443740845
0.3309619724750519 0.3423791825771332 0.4370499551296234
0.31340378522872925 0.300479918718338 0.5042416453361511
0.21335271000862122 0.30728384852409363 0.585358202457428
0.2743190824985504 0.3120501637458801 0.5108745098114014
0.32214242219924927 0.18192549049854279 0.5874077081680298
0.3213202953338623 0.29003894329071045 0.5507590174674988
0.26284632086753845 0.37393519282341003 0.442221075296402
0.35542476177215576 0.32591110467910767 0.6107982993125916
0.24365565180778503 0.3308412432670593 0.48333147168159485
0.3797849714756012 0.34883567690849304 0.5682255029678345
0.31814223527908325 0.20866140723228455 0.4457875192165375
0.4156416058540344 0.251810222864151 0.5218405723571777
0.36470574140548706 0.34165793657302856 0.525617778301239
0.3699091672897339 0.3566094636917114 0.4280688166618347
0.2748272716999054 0.33494865894317627 0.4753400683403015
0.33279454708099365 0.42577019333839417 0.477836549282074
0.36205220222473145 0.2223021239042282 0.5178953409194946
0.3966224789619446 0.3083818852901459 0.42925962805747986
0.3125349283218384 0.37909096479415894 0.4992539584636688
0.37944483757019043 0.3665052056312561 0.49859386682510376
0.2763128876686096 0.28755903244018555 0.46598684787750244
0.3773287832736969 0.22568458318710327 0.42990052700042725
0.3460991680622101 0.2830049693584442 0.4695970118045807
0.35265374183654785 0.255431205034256 0.49647220969200134
0.2671167850494385 0.21426336467266083 0.4948134422302246
0.3577924072742462 0.247033953666687 0.5680782794952393
0.28746381402015686 0.26384004950523376 0.5516715049743652
0.2793758809566498 0.34682634472846985 0.42394909262657166
0.3360314667224884 0.19555047154426575 0.4523017406463623
0.35292065143585205 0.24125684797763824 0.41651907563209534
0.18972502648830414 0.30441513657569885 0.5238713026046753
0.38589465618133545 0.31238922476768494 0.540328860282898
0.30662646889686584 0.3221043348312378 0.4060848355293274
0.40864554047584534 0.26141342520713806 0.5733960866928101
0.31256401538848877 0.23476724326610565 0.470290869474411
0.3798579275608063 0.311434805393219 0.5325672626495361
0.33433231711387634 0.3318694531917572 0.5618595480918884
0.42078515887260437 0.2879851162433624 0.4406771659851074
0.35864943265914917 0.27224457263946533 0.500084400177002
0.2948157489299774 0.21410618722438812 0.4506247341632843
0.3255510628223419 0.32820552587509155 0.5658798813819885
0.35059458017349243 0.322164922952652 0.4969941973686218
0.33549684286117554 0.25985121726989746 0.46303942799568176
0.37006837129592896 0.32276347279548645 0.41174808144569397
0.36092835664749146 0.23033027350902557 0.5365462303161621
0.26372578740119934 0.28106120228767395 0.4303767681121826
0.37513473629951477 0.2277943640947342 0.5635765790939331
0.35987597703933716 0.21207088232040405 0.5869463682174683
0.2609238624572754 0.3678518831729889 0.49504515528678894
0.3069731593132019 0.39881035685539246 0.5682134628295898
0.20978429913520813 0.2814755141735077 0.4922005832195282
0.29630762338638306 0.37495818734169006 0.44635096192359924
0.2859477400779724 0.27069827914237976 0.4097765386104584
0.3390437364578247 0.40404757857322693 0.4750601053237915
0.39990538358688354 0.306365430355072 0.47449830174446106
0.31048211455345154 0.17448987066745758 0.43479400873184204
0.2869619131088257 0.15191048383712769 0.5714893937110901
0.2263728827238083 0.26290076971054077 0.4590637683868408
0.2584333121776581 0.211427703499794 0.5540579557418823
0.3704381287097931 0.255563348531723 0.5504587292671204
0.3507465124130249 0.2638193666934967 0.45259711146354675
0.22096948325634003 0.3283059597015381 0.579362690448761
0.2861029803752899 0.21951614320278168 0.5068243145942688
0.40576377511024475 0.2386537790298462 0.5639030337333679
0.34520432353019714 0.2612590193748474 0.4882034659385681
0.4122665226459503 0.25727152824401855 0.49343055486679077
0.4097414016723633 0.25662484765052795 0.5541402697563171
0.34605851769447327 0.2421180009841919 0.5864337682723999
0.36718928813934326 0.23404589295387268 0.45382028818130493
0.33320802450180054 0.28548017144203186 0.40589287877082825
0.3610821068286896 0.2739641070365906 0.46452540159225464
0.30262622237205505 0.34115949273109436 0.6030755639076233
0.3235640227794647 0.32797056436538696 0.6008221507072449
0.3014037609100342 0.36857110261917114 0.569483757019043
0.3260404169559479 0.3225064277648926 0.4835966229438782
0.29126715660095215 0.36042556166648865 0.41370537877082825
0.3368721008300781 0.3483085334300995 0.5210235118865967
0.35832858085632324 0.2826789319515228 0.5864551663398743
0.3799703121185303 0.27489641308784485 0.4614567458629608
0.34964969754219055 0.3274223208427429 0.5940118432044983
0.309993177652359 0.3875243365764618 0.47155824303627014
0.35077619552612305 0.3993173837661743 0.4490828514099121
0.3227415084838867 0.36522093415260315 0.5705317258834839
0.30096331238746643 0.29164084792137146 0.501772940158844
0.28652137517929077 0.2743484675884247 0.4839467704296112
0.24241194128990173 0.3286316692829132 0.5478086471557617
0.2830235958099365 0.349863201379776 0.41386669874191284
0.2898341715335846 0.2812195122241974 0.46689143776893616
0.19027316570281982 0.30884701013565063 0.5638786554336548
0.3683333992958069 0.3187669813632965 0.4519312381744385
0.32314079999923706 0.25837647914886475 0.5241000652313232
0.32884323596954346 0.3487338721752167 0.5281414985656738
0.3704381287097931 0.255563348531723 0.5504587292671204
0.3507465124130249 0.2638193666934967 0.45259711146354675
0.22096948325634003 0.3283059597015381 0.579362690448761
0.2861029803752899 0.21951614320278168 0.5068243145942688
0.40576377511024475 0.2386537790298462 0.5639030337333679
0.34520432353019714 0.2612590193748474 0.4882034659385681
0.4122665226459503 0.25727152824401855 0.49343055486679077
0.2793758809566498 0.34682634472846985 0.42394909262657166
0.2981206774711609 0.3394348621368408 0.5250053405761719
0.28311464190483093 0.37113672494888306 0.5688592791557312
0.3362794518470764 0.2397354394197464 0.45528265833854675
0.3830164670944214 0.3440185785293579 0.5699342489242554
0.3874703645706177 0.2504429817199707 0.47306275367736816
0.3435117304325104 0.3509102165699005 0.4959834814071655
0.24582357704639435 0.3624192178249359 0.4675423204898834
0.2556777000427246 0.331711083650589 0.5500243902206421
0.4376116394996643 0.2672736346721649 0.5838611125946045
0.3283543288707733 0.4137502610683441 0.4149458706378937
0.3121134638786316 0.30530548095703125 0.5604886412620544
0.32127684354782104 0.4121638536453247 0.4956308901309967
0.30143460631370544 0.19642361998558044 0.44355082511901855
0.28521427512168884 0.33874210715293884 0.5403684973716736
0.2064438909292221 0.3310798406600952 0.3984265625476837
0.40895596146583557 0.2435682713985443 0.4840794503688812
0.34640684723854065 0.39676520228385925 0.521727979183197
0.33893883228302 0.3935419023036957 0.5237247943878174
0.3999336063861847 0.2712388038635254 0.5576786398887634
0.3212031424045563 0.3334037661552429 0.5679929852485657
0.205899178981781 0.3195946514606476 0.5020791888237
0.20999673008918762 0.28617027401924133 0.5102576017379761
0.25614598393440247 0.3650008738040924 0.4676130414009094
0.22096948325634003 0.3283059597015381 0.579362690448761
0.2861029803752899 0.21951614320278168 0.5068243145942688
0.40576377511024475 0.2386537790298462 0.5639030337333679
0.34520432353019714 0.2612590193748474 0.4882034659385681
0.4122665226459503 0.25727152824401855 0.49343055486679077
0.2793758809566498 0.34682634472846985 0.42394909262657166
0.2981206774711609 0.3394348621368408 0.5250053405761719
0.28311464190483093 0.37113672494888306 0.5688592791557312
0.3362794518470764 0.2397354394197464 0.45528265833854675
0.26251110434532166 0.3153707981109619 0.40913116931915283
0.3028804361820221 0.26204487681388855 0.5775502324104309
0.4122379720211029 0.2900812029838562 0.4780469834804535
0.2596833407878876 0.3036572337150574 0.573273241519928
0.31794553995132446 0.2234855592250824 0.44784843921661377
0.3854372203350067 0.2729704678058624 0.4090816378593445
0.19780804216861725 0.32112762331962585 0.5548357367515564
0.23538248240947723 0.3208489418029785 0.46282169222831726
0.4263305962085724 0.30958884954452515 0.4252319633960724
0.31345635652542114 0.24998627603054047 0.5290966033935547
0.3563939929008484 0.39222007989883423 0.43325018882751465
0.2856671214103699 0.28274667263031006 0.572760820388794
0.2681141793727875 0.37532418966293335 0.5191145539283752
0.36700740456581116 0.2680354714393616 0.6072537302970886
0.4109354317188263 0.2794927656650543 0.49140670895576477
0.3292737305164337 0.34081774950027466 0.492695152759552
0.37140876054763794 0.3638876974582672 0.4819111227989197
0.32366275787353516 0.21064110100269318 0.5820388793945312
0.28910863399505615 0.3946540355682373 0.5937396287918091
0.23651500046253204 0.2788091003894806 0.421789288520813
0.32894957065582275 0.36450621485710144 0.5496401190757751
0.36890798807144165 0.22786296904087067 0.568916380405426
0.3867890536785126 0.35216024518013 0.5058483481407166
0.40576377511024475 0.2386537790298462 0.5639030337333679
0.34520432353019714 0.2612590193748474 0.4882034659385681
0.4122665226459503 0.25727152824401855 0.49343055486679077
0.2793758809566498 0.34682634472846985 0.42394909262657166
0.2981206774711609 0.3394348621368408 0.5250053405761719
0.28311464190483093 0.37113672494888306 0.5688592791557312
0.3362794518470764 0.2397354394197464 0.45528265833854675
0.26251110434532166 0.3153707981109619 0.40913116931915283
0.3028804361820221 0.26204487681388855 0.5775502324104309
0.4122379720211029 0.2900812029838562 0.4780469834804535
0.2596833407878876 0.3036572337150574 0.573273241519928
0.31794553995132446 0.2234855592250824 0.44784843921661377
0.34985753893852234 0.31109514832496643 0.5933233499526978
0.2497246414422989 0.22560346126556396 0.5886950492858887
0.295982301235199 0.3349684476852417 0.553083062171936
0.3707960844039917 0.3426627814769745 0.46999815106391907
0.3459550738334656 0.22340281307697296 0.4644021987915039
0.3392704129219055 0.23045818507671356 0.554812490940094
0.20155061781406403 0.2855002284049988 0.4922744929790497
0.36331063508987427 0.23331375420093536 0.46153566241264343
0.33132830262184143 0.32385116815567017 0.5718146562576294
0.3439364433288574 0.3124762177467346 0.5355511903762817
0.3796772360801697 0.23751592636108398 0.4984050393104553
0.23886150121688843 0.3412572145462036 0.4062522053718567
0.2518606185913086 0.3527926802635193 0.41340646147727966
0.37271827459335327 0.27286139130592346 0.5733976364135742
0.2960704565048218 0.205971822142601 0.5423285961151123
0.2690999209880829 0.32703736424446106 0.579906702041626
0.28465601801872253 0.3705988824367523 0.5118256211280823
0.3526906669139862 0.3592553734779358 0.5484105944633484
0.25536301732063293 0.22318468987941742 0.545086681842804
0.3253004252910614 0.41686370968818665 0.5893287062644958
0.22454427182674408 0.32276949286460876 0.4321643114089966
0.31048518419265747 0.30105775594711304 0.5454967617988586
0.3234219551086426 0.19431482255458832 0.4152730107307434
0.3531104326248169 0.22919628024101257 0.4932275116443634
0.2890814244747162 0.38665124773979187 0.47352248430252075
0.30509117245674133 0.37230032682418823 0.4118614196777344
0.29351508617401123 0.2719798684120178 0.4077768921852112
0.29818055033683777 0.38664165139198303 0.4620043933391571
0.42327138781547546 0.2576008439064026 0.528615415096283
0.29942142963409424 0.337478369474411 0.4998764395713806
0.2616104781627655 0.23180855810642242 0.5671929121017456
0.27499353885650635 0.3052022159099579 0.4559289515018463
0.3210377097129822 0.2077743411064148 0.4769059419631958
0.41228926181793213 0.263893723487854 0.5587912201881409
0.3142201602458954 0.3090354800224304 0.5943867564201355
0.2587582468986511 0.20693856477737427 0.49782097339630127
0.35783353447914124 0.3041820228099823 0.5792263746261597
0.27708345651626587 0.3024555444717407 0.5779091715812683
0.25025680661201477 0.3019843101501465 0.46702301502227783
0.23396892845630646 0.24507495760917664 0.48210346698760986
0.3759954571723938 0.25753459334373474 0.4916321635246277
0.4094790816307068 0.3137447237968445 0.42227479815483093
0.3898296654224396 0.28036215901374817 0.5073411464691162
0.2953237295150757 0.30100926756858826 0.5041511654853821
0.22786487638950348 0.35001400113105774 0.46271270513534546
0.39369502663612366 0.22732743620872498 0.5938165783882141
0.205899178981781 0.3195946514606476 0.5020791888237
0.20999673008918762 0.28617027401924133 0.5102576017379761
0.3481571078300476 0.18967822194099426 0.593866765499115
0.33679500222206116 0.2763429284095764 0.5099947452545166
0.43744316697120667 0.2545589506626129 0.5467326641082764
0.3203169107437134 0.4114528298377991 0.5345391035079956
0.22096948325634003 0.3283059597015381 0.579362690448761
0.2861029803752899 0.21951614320278168 0.5068243145942688
0.40576377511024475 0.2386537790298462 0.5639030337333679
0.34520432353019714 0.2612590193748474 0.4882034659385681
0.376366525888443 0.3688165843486786 0.5244570374488831
0.3264608383178711 0.29925814270973206 0.4092002213001251
0.27180808782577515 0.20663237571716309 0.46205055713653564
0.37754136323928833 0.29002439975738525 0.45503440499305725
0.2550294101238251 0.3033609688282013 0.5850622057914734
0.3264515697956085 0.3247838616371155 0.4939015209674835
0.37235963344573975 0.34544166922569275 0.6097264885902405
0.27023500204086304 0.3399856388568878 0.5055936574935913
0.3345251679420471 0.43152686953544617 0.4549064338207245
0.31493258476257324 0.3410693109035492 0.5814481377601624
0.31161320209503174 0.19145435094833374 0.4120573103427887
0.3050767183303833 0.38071107864379883 0.5486017465591431
0.37811407446861267 0.2510121762752533 0.412282794713974
0.27735236287117004 0.36762484908103943 0.49941033124923706
0.39252009987831116 0.2940344512462616 0.48597046732902527
0.3231099843978882 0.40665093064308167 0.43939411640167236
0.38268592953681946 0.2673751711845398 0.5501149296760559
0.4373476803302765 0.25447970628738403 0.47200024127960205
0.319543719291687 0.2917614281177521 0.4721826910972595
0.24967768788337708 0.2844318151473999 0.4202449917793274
0.39640411734580994 0.2892070412635803 0.4395165741443634
0.2394973188638687 0.25086089968681335 0.5916854739189148
0.3781716525554657 0.30673664808273315 0.544085681438446
0.41818419098854065 0.28448429703712463 0.5780506134033203
0.33132830262184143 0.32385116815567017 0.5718146562576294
0.3439364433288574 0.3124762177467346 0.5355511903762817
0.3796772360801697 0.23751592636108398 0.4984050393104553
0.3866623044013977 0.21507906913757324 0.5055730938911438
0.32884323596954346 0.3487338721752167 0.5281414985656738
0.3704381287097931 0.255563348531723 0.5504587292671204
0.3507465124130249 0.2638193666934967 0.45259711146354675
0.22096948325634003 0.3283059597015381 0.579362690448761
0.3169425427913666 0.35793834924697876 0.4094986915588379
0.2614034414291382 0.3049205541610718 0.492838054895401
0.35953766107559204 0.3897700607776642 0.4730469584465027
0.2537991404533386 0.28428927063941956 0.5676556825637817
0.3381844758987427 0.2555408179759979 0.43270209431648254
0.3031452000141144 0.3159406781196594 0.41482824087142944
0.30062779784202576 0.3753458857536316 0.4282492697238922
0.322245717048645 0.2693387269973755 0.524652361869812
0.3499382436275482 0.3490983545780182 0.4936482906341553
0.4175187051296234 0.27506956458091736 0.4889935255050659
0.405026912689209 0.24376408755779266 0.5599563121795654
0.24598222970962524 0.3488333821296692 0.44165563583374023
0.23404398560523987 0.2626807987689972 0.4298640489578247
0.3747689723968506 0.36874374747276306 0.4935593903064728
0.3789418935775757 0.2658960223197937 0.5207321047782898
0.311242938041687 0.2727626860141754 0.5450922846794128
0.3293467164039612 0.233863964676857 0.44323402643203735
0.3298809230327606 0.4170130789279938 0.5407060980796814
0.3319491446018219 0.3546612560749054 0.5026260018348694
0.3289901614189148 0.40857934951782227 0.4509424567222595
0.3905920684337616 0.2820408344268799 0.4081231951713562
0.3083895742893219 0.3063722848892212 0.5463343858718872
0.34556469321250916 0.3227117359638214 0.4346865117549896
0.2129368931055069 0.3052962124347687 0.46166297793388367
0.252591073513031 0.25284644961357117 0.5730912685394287
0.4049580693244934 0.2693865895271301 0.4934731125831604
0.38063374161720276 0.32174354791641235 0.6114957332611084
0.28942325711250305 0.23071083426475525 0.5312103033065796
0.22096948325634003 0.3283059597015381 0.579362690448761
0.2861029803752899 0.21951614320278168 0.5068243145942688
0.40576377511024475 0.2386537790298462 0.5639030337333679
0.34520432353019714 0.2612590193748474 0.4882034659385681
0.4122665226459503 0.25727152824401855 0.49343055486679077
0.2793758809566498 0.34682634472846985 0.42394909262657166
0.2981206774711609 0.3394348621368408 0.5250053405761719
0.28311464190483093 0.37113672494888306 0.5688592791557312
0.3362794518470764 0.2397354394197464 0.45528265833854675
0.26251110434532166 0.3153707981109619 0.40913116931915283
0.3028804361820221 0.26204487681388855 0.5775502324104309
0.4122379720211029 0.2900812029838562 0.4780469834804535
0.2596833407878876 0.3036572337150574 0.573273241519928
0.31794553995132446 0.2234855592250824 0.44784843921661377
0.3854372203350067 0.2729704678058624 0.4090816378593445
0.43373218178749084 0.25119733810424805 0.45787256956100464
0.34985753893852234 0.31109514832496643 0.5933233499526978
0.2735534608364105 0.31403273344039917 0.4524422883987427
0.271476149559021 0.38075658679008484 0.5049334764480591
0.23219852149486542 0.34350311756134033 0.6026818156242371
0.3903476297855377 0.28292927145957947 0.5711660981178284
0.3829460144042969 0.2682342529296875 0.4464483857154846
0.3091050982475281 0.2814578711986542 0.4136863350868225
0.304442822933197 0.28519272804260254 0.4643433392047882
0.2760976552963257 0.3438209295272827 0.42194750905036926
0.3439364433288574 0.3124762177467346 0.5355511903762817
0.3796772360801697 0.23751592636108398 0.4984050393104553
0.23886150121688843 0.3412572145462036 0.4062522053718567
0.21635600924491882 0.27302223443984985 0.46126341819763184
0.3165578544139862 0.2052050679922104 0.4921185374259949
0.2578129768371582 0.32137057185173035 0.4328617751598358
0.29565364122390747 0.3470703065395355 0.546307384967804
0.31794553995132446 0.2234855592250824 0.44784843921661377
0.3854372203350067 0.2729704678058624 0.4090816378593445
0.43373218178749084 0.25119733810424805 0.45787256956100464
0.34985753893852234 0.31109514832496643 0.5933233499526978
0.2735534608364105 0.31403273344039917 0.4524422883987427
0.271476149559021 0.38075658679008484 0.5049334764480591
0.23219852149486542 0.34350311756134033 0.6026818156242371
0.3903476297855377 0.28292927145957947 0.5711660981178284
0.3829460144042969 0.2682342529296875 0.4464483857154846
0.3091050982475281 0.2814578711986542 0.4136863350868225
0.304442822933197 0.28519272804260254 0.4643433392047882
0.31703194975852966 0.27169421315193176 0.4500260353088379
0.3929610252380371 0.24884243309497833 0.5232710838317871
0.33854231238365173 0.2426927387714386 0.5244731307029724
0.37264251708984375 0.3372098505496979 0.5011528134346008
0.42001789808273315 0.27993568778038025 0.6044307947158813
0.322153776884079 0.3282765746116638 0.5358948111534119
0.3237626850605011 0.3928479552268982 0.44561314582824707
0.39647239446640015 0.22774085402488708 0.4884631931781769
0.40044310688972473 0.25861501693725586 0.47955790162086487
0.3195689916610718 0.2779079079627991 0.4826427698135376
0.20811639726161957 0.2923010289669037 0.4101524353027344
0.32763999700546265 0.18791548907756805 0.5053285360336304
0.27573785185813904 0.3184942603111267 0.5189552903175354
0.2672133445739746 0.2138391137123108 0.46732521057128906
0.33198630809783936 0.29182520508766174 0.5104992389678955
0.3480404019355774 0.3991241753101349 0.45966094732284546
0.19207611680030823 0.3142733871936798 0.4138772785663605
0.2980680465698242 0.28266122937202454 0.5229037404060364
0.3222119212150574 0.4151149392127991 0.5064834952354431
0.3462693393230438 0.26842260360717773 0.5508725047111511
0.33232414722442627 0.3775714337825775 0.5409001111984253
0.3989240527153015 0.34335339069366455 0.47251731157302856
0.37737953662872314 0.3084720969200134 0.5417008996009827
0.3224949836730957 0.3724117875099182 0.48386725783348083
0.26382121443748474 0.3290277123451233 0.525709867477417
0.38244616985321045 0.275635302066803 0.46354225277900696
0.3832392990589142 0.3363114297389984 0.4339088201522827
0.31005042791366577 0.40448859333992004 0.45842331647872925
0.3233557939529419 0.19114740192890167 0.5681717991828918
0.31209632754325867 0.24723677337169647 0.5678889155387878
0.26455262303352356 0.3531966507434845 0.4061592221260071
0.2901535630226135 0.3189798891544342 0.5942800641059875
0.3015015423297882 0.16929170489311218 0.43575459718704224
0.3177063763141632 0.29756179451942444 0.41353097558021545
0.2247893512248993 0.3086613714694977 0.5682541131973267
0.27976447343826294 0.3382992446422577 0.4323287904262543
0.2747412919998169 0.28025370836257935 0.4105805456638336
0.3625261187553406 0.34783053398132324 0.46573540568351746
0.3211948275566101 0.26270583271980286 0.595569372177124
0.22889241576194763 0.2539191246032715 0.5909098386764526
0.314211905002594 0.27028343081474304 0.4912087619304657
0.3028999865055084 0.25323376059532166 0.3998846411705017
0.28174346685409546 0.20291785895824432 0.5318179726600647
0.358883798122406 0.23159125447273254 0.46350064873695374
0.3263188898563385 0.23707786202430725 0.4497866928577423
0.29332321882247925 0.1597638577222824 0.47934839129447937
0.2820916473865509 0.17630761861801147 0.5200336575508118
0.34644678235054016 0.1931508183479309 0.43524253368377686
0.293904185295105 0.18374072015285492 0.5923081040382385
0.36653563380241394 0.37369394302368164 0.434164434671402
0.23015113174915314 0.3095991313457489 0.4612347483634949
0.34014421701431274 0.20635683834552765 0.5145943760871887
0.32239988446235657 0.3905189335346222 0.5902122259140015
0.3012316823005676 0.31422996520996094 0.5914868116378784
0.3446747064590454 0.35220053791999817 0.4132397472858429
0.31891700625419617 0.1953682005405426 0.48135265707969666
0.30476006865501404 0.2996343970298767 0.6024077534675598
0.3962237536907196 0.2922433018684387 0.5999401211738586
0.31603652238845825 0.4148065745830536 0.5227054357528687
0.28503677248954773 0.3737916946411133 0.4668235182762146
0.37740030884742737 0.3138149380683899 0.4274423122406006
0.20483820140361786 0.3239603638648987 0.43253231048583984
0.3387417197227478 0.22969771921634674 0.41480550169944763
0.2969183027744293 0.1630549430847168 0.5110234618186951
0.3117048442363739 0.1927281767129898 0.52177894115448
0.28088051080703735 0.35320204496383667 0.4781145453453064
0.31451690196990967 0.21425829827785492 0.4623626470565796
0.28643497824668884 0.23080980777740479 0.4625816345214844
0.3136226236820221 0.39713254570961 0.5117149949073792
0.2453238070011139 0.29163047671318054 0.5279310345649719
0.31918632984161377 0.371491938829422 0.43388745188713074
0.24317510426044464 0.2591649293899536 0.4172894060611725
0.21709026396274567 0.26427942514419556 0.5687524080276489
0.2157382220029831 0.3094155192375183 0.4298528730869293
0.35494697093963623 0.3474772870540619 0.5215141177177429
0.36853429675102234 0.3177381157875061 0.4195730984210968
0.28353816270828247 0.22466734051704407 0.48482397198677063
0.3695697784423828 0.2927969992160797 0.4097433090209961
0.2539878189563751 0.1960395872592926 0.5818666815757751
0.318817138671875 0.22808143496513367 0.4459981918334961
0.3072983920574188 0.34200191497802734 0.594580352306366
0.2981248199939728 0.16241377592086792 0.5108988881111145
0.3012665808200836 0.3226739168167114 0.5148621201515198
0.26338082551956177 0.2753671705722809 0.426460862159729
0.24241194128990173 0.3286316692829132 0.5478086471557617
0.31891700625419617 0.1953682005405426 0.48135265707969666
0.30476006865501404 0.2996343970298767 0.6024077534675598
0.3962237536907196 0.2922433018684387 0.5999401211738586
0.31603652238845825 0.4148065745830536 0.5227054357528687
0.28503677248954773 0.3737916946411133 0.4668235182762146
0.37740030884742737 0.3138149380683899 0.4274423122406006
0.20483820140361786 0.3239603638648987 0.43253231048583984
0.3387417197227478 0.22969771921634674 0.41480550169944763
0.2969183027744293 0.1630549430847168 0.5110234618186951
0.3117048442363739 0.1927281767129898 0.52177894115448
0.28088051080703735 0.35320204496383667 0.4781145453453064
0.31451690196990967 0.21425829827785492 0.4623626470565796
0.28643497824668884 0.23080980777740479 0.4625816345214844
0.3037930727005005 0.24538393318653107 0.5887935757637024
0.30656835436820984 0.3577493131160736 0.5792403221130371
0.2813671827316284 0.2044418901205063 0.42381903529167175
0.2741771936416626 0.370288610458374 0.40703582763671875
0.33144834637641907 0.2800130546092987 0.571653425693512
0.3680129647254944 0.22530390322208405 0.5716875195503235
0.2866537868976593 0.1889968067407608 0.5762104988098145
0.37952920794487 0.2987956404685974 0.4386056065559387
0.33294400572776794 0.29992032051086426 0.4774731695652008
0.2442590743303299 0.32482707500457764 0.4678005278110504
0.3853536546230316 0.22445693612098694 0.5341002345085144
0.38488417863845825 0.2703195810317993 0.42224812507629395
0.30280983448028564 0.3860052227973938 0.6097253561019897
0.21330253779888153 0.3123735785484314 0.4116623103618622
0.35305699706077576 0.334531307220459 0.6116925477981567
0.4014786183834076 0.28044337034225464 0.5903637409210205
0.2861209809780121 0.2191110998392105 0.5937848091125488
0.4361676275730133 0.2798868715763092 0.511817991733551
0.33679500222206116 0.2763429284095764 0.5099947452545166
0.3526906669139862 0.3592553734779358 0.5484105944633484
0.25536301732063293 0.22318468987941742 0.545086681842804
0.24342501163482666 0.26804643869400024 0.511543333530426
0.24115465581417084 0.2971539795398712 0.49949851632118225
0.2987808585166931 0.20056279003620148 0.39652347564697266
0.32856398820877075 0.29317203164100647 0.4567040801048279
0.28462180495262146 0.21414127945899963 0.516148567199707
0.3262195289134979 0.324994832277298 0.49782228469848633
0.3737930953502655 0.25016504526138306 0.5270733833312988
0.3942064344882965 0.27783653140068054 0.41684019565582275
0.32311373949050903 0.2749294340610504 0.5738205909729004
0.23658688366413116 0.3145062029361725 0.4938261806964874
0.3364834785461426 0.204774871468544 0.4598056674003601
0.2591809928417206 0.2907959222793579 0.4365423917770386
0.3985345959663391 0.23010878264904022 0.5713376998901367
0.4247094988822937 0.2966805696487427 0.4422662854194641
