ply
format ascii 1.0
element vertex 825
property float x
property float y
property float z
end_header
0.37371984124183655 0.28788846731185913 0.5718661546707153
0.34723883867263794 0.22779065370559692 0.4099491238594055
0.3357594907283783 0.2672545909881592 0.4806685447692871
0.3367418348789215 0.2747800946235657 0.4927096962928772
0.23943336308002472 0.306986927986145 0.5872156620025635
0.24967001378536224 0.26848623156547546 0.5721356868743896
0.3704891502857208 0.37596699595451355 0.4605207145214081
0.3437480330467224 0.17738798260688782 0.500597357749939
0.36710813641548157 0.3815280497074127 0.421540766954422
0.3324330449104309 0.2882755994796753 0.4104369282722473
0.40939557552337646 0.21288242936134338 0.46052297949790955
0.2888777256011963 0.28566908836364746 0.5909116864204407
0.3906402587890625 0.32934391498565674 0.42697152495384216
0.33107683062553406 0.2464611828327179 0.5690807700157166
0.2813839912414551 0.31023114919662476 0.580809473991394
0.28844931721687317 0.30707478523254395 0.5148582458496094
0.2958681583404541 0.3528856933116913 0.5366981625556946
0.298304945230484 0.235075905919075 0.40837934613227844
0.2986103892326355 0.3011417090892792 0.537158191204071
0.3424539566040039 0.20621871948242188 0.39800146222114563
0.3736080825328827 0.32455798983573914 0.557079553604126
0.33678948879241943 0.2113802134990692 0.44046279788017273
0.31240421533584595 0.34365302324295044 0.5704126954078674
0.31775760650634766 0.2869042754173279 0.46055367588996887
0.24345731735229492 0.32643064856529236 0.49296626448631287
0.327894389629364 0.19201353192329407 0.45763617753982544
0.25647616386413574 0.3345264494419098 0.4237379729747772
0.34802210330963135 0.38442835211753845 0.5185230374336243
0.3776991367340088 0.3478257656097412 0.5148595571517944
0.2912130355834961 0.36681073904037476 0.5949445962905884
0.21772101521492004 0.31469470262527466 0.3998161256313324
0.3667539954185486 0.34740519523620605 0.5288784503936768
0.35730063915252686 0.19238144159317017 0.5232877135276794
0.25945502519607544 0.2446332573890686 0.45010286569595337
0.3998246490955353 0.3530467748641968 0.4209784269332886
0.32445162534713745 0.22520919144153595 0.41272225975990295
0.3356688618659973 0.39535653591156006 0.49747756123542786
0.344927579164505 0.18423865735530853 0.5099145174026489
0.2436104416847229 0.29159125685691833 0.5651208162307739
0.32085686922073364 0.23888251185417175 0.5353800058364868
0.3177066743373871 0.19282054901123047 0.5574243664741516
0.36662426590919495 0.32017603516578674 0.4418294131755829
0.34249818325042725 0.3573637008666992 0.5476762652397156
0.33627763390541077 0.36685770750045776 0.4715733826160431
0.21706263720989227 0.3146069049835205 0.5874200463294983
0.4436757266521454 0.3063826560974121 0.43264713883399963
0.2539515495300293 0.24818705022335052 0.5026071071624756
0.29215192794799805 0.22426316142082214 0.5809701681137085
0.3180086016654968 0.2853284478187561 0.48970335721969604
0.19550782442092896 0.3050561845302582 0.4842158854007721
0.3052231967449188 0.3479275703430176 0.5392751097679138
0.28878289461135864 0.28743046522140503 0.5109788775444031
0.2844304144382477 0.2821941077709198 0.40417373180389404
0.2034243643283844 0.30356377363204956 0.4309793710708618
0.27013587951660156 0.3224841058254242 0.5988955497741699
0.369904488325119 0.23104847967624664 0.5682423710823059
0.2711893618106842 0.3268986642360687 0.49287840723991394
0.38002660870552063 0.23392191529273987 0.5837490558624268
0.29506516456604004 0.37664124369621277 0.459994912147522
0.29447585344314575 0.24097906053066254 0.497443825006485
0.30419135093688965 0.2518343925476074 0.5750928521156311
0.35492274165153503 0.21417619287967682 0.45986226201057434
0.35257187485694885 0.23027361929416656 0.4152999520301819
0.3999954164028168 0.21201486885547638 0.44491666555404663
0.32338571548461914 0.2783476412296295 0.4165511727333069
0.309533953666687 0.2764565050601959 0.4266878664493561
0.3989744484424591 0.2047235667705536 0.5456807613372803
0.20601604878902435 0.3046690821647644 0.4240175783634186
0.21920625865459442 0.3162287473678589 0.4089339077472687
0.26703089475631714 0.2679741382598877 0.5094181299209595
0.40185025334358215 0.26120588183403015 0.4793865978717804
0.38662153482437134 0.28655746579170227 0.43434208631515503
0.23353739082813263 0.28886669874191284 0.4017195403575897
0.37800082564353943 0.3704126179218292 0.4764135181903839
0.32587164640426636 0.22739024460315704 0.406404584646225
0.20586641132831573 0.28955456614494324 0.5463940501213074
0.34694114327430725 0.4030131697654724 0.44273847341537476
0.41275754570961 0.25255605578422546 0.4529258906841278
0.3026806116104126 0.25596320629119873 0.5078508257865906
0.28835251927375793 0.28304558992385864 0.5461640357971191
0.30795717239379883 0.310499370098114 0.5341895222663879
0.24905487895011902 0.33998629450798035 0.44383588433265686
0.29697373509407043 0.3360021710395813 0.5762947201728821
0.3359777629375458 0.27124255895614624 0.5009492635726929
0.3998222351074219 0.23846355080604553 0.5304412245750427
0.3298267126083374 0.23457875847816467 0.41171547770500183
0.328731507062912 0.27490919828414917 0.5868278741836548
0.37389564514160156 0.36650919914245605 0.5254050493240356
0.3416203558444977 0.3243449330329895 0.41681987047195435
0.38002660870552063 0.23392191529273987 0.5837490558624268
0.29506516456604004 0.37664124369621277 0.459994912147522
0.29447585344314575 0.24097906053066254 0.497443825006485
0.30419135093688965 0.2518343925476074 0.5750928521156311
0.35492274165153503 0.21417619287967682 0.45986226201057434
0.35257187485694885 0.23027361929416656 0.4152999520301819
0.3999954164028168 0.21201486885547638 0.44491666555404663
0.3326312303543091 0.23445041477680206 0.4824523329734802
0.42786356806755066 0.23064394295215607 0.6069849133491516
0.35640767216682434 0.23295150697231293 0.44025319814682007
0.3299328684806824 0.17560100555419922 0.5158460736274719
0.357102632522583 0.1762619912624359 0.5099816918373108
0.378957599401474 0.36922067403793335 0.4920819103717804
0.30525484681129456 0.35654014348983765 0.41605162620544434
0.43909934163093567 0.26311546564102173 0.4492819309234619
0.2896762788295746 0.3401753306388855 0.49952232837677
0.24858249723911285 0.27510011196136475 0.42398709058761597
0.3240967094898224 0.1552196443080902 0.5724444389343262
0.33363378047943115 0.37164831161499023 0.4590689241886139
0.29065054655075073 0.3593568801879883 0.41429775953292847
0.34705179929733276 0.36570271849632263 0.41413062810897827
0.29701510071754456 0.3192330598831177 0.5564385056495667
0.23335465788841248 0.321656197309494 0.5428811311721802
0.27013587951660156 0.3224841058254242 0.5988955497741699
0.369904488325119 0.23104847967624664 0.5682423710823059
0.2711893618106842 0.3268986642360687 0.49287840723991394
0.38002660870552063 0.23392191529273987 0.5837490558624268
0.29506516456604004 0.37664124369621277 0.459994912147522
0.29447585344314575 0.24097906053066254 0.497443825006485
0.30419135093688965 0.2518343925476074 0.5750928521156311
0.35492274165153503 0.21417619287967682 0.45986226201057434
0.35257187485694885 0.23027361929416656 0.4152999520301819
0.3999954164028168 0.21201486885547638 0.44491666555404663
0.36616870760917664 0.22252242267131805 0.5767660140991211
0.4180929958820343 0.22331643104553223 0.5667462348937988
0.40756770968437195 0.3366795778274536 0.5229239463806152
0.38654372096061707 0.3304953873157501 0.4389908015727997
0.30382513999938965 0.19698525965213776 0.577582597732544
0.2969793975353241 0.1954747885465622 0.39886465668678284
0.2256413996219635 0.30209881067276 0.5600489377975464
0.3324330449104309 0.2882755994796753 0.4104369282722473
0.40939557552337646 0.21288242936134338 0.46052297949790955
0.2888777256011963 0.28566908836364746 0.5909116864204407
0.2980678975582123 0.24224896728992462 0.5004432201385498
0.4012696146965027 0.3353980481624603 0.5666256546974182
0.22037099301815033 0.32353833317756653 0.5338888764381409
0.3730401396751404 0.23290501534938812 0.5066518187522888
0.36050519347190857 0.3635355830192566 0.6104722023010254
0.3327256143093109 0.25053054094314575 0.59923255443573
0.28243401646614075 0.19141508638858795 0.4705289304256439
0.28786078095436096 0.24807968735694885 0.5546572208404541
0.37411656975746155 0.3675944209098816 0.5617703795433044
0.29819223284721375 0.1871746927499771 0.40188342332839966
0.3649587035179138 0.19252195954322815 0.42701491713523865
0.26217496395111084 0.29366981983184814 0.5501270890235901
0.22362759709358215 0.3198367953300476 0.5055423974990845
0.2358074188232422 0.3382624685764313 0.4311883747577667
0.3462863266468048 0.4126058518886566 0.4732890725135803
0.2964303195476532 0.3054136335849762 0.4746662378311157
0.33938318490982056 0.2160821557044983 0.5984005928039551
0.22537299990653992 0.2633885443210602 0.4772269129753113
0.28830671310424805 0.27489522099494934 0.502159595489502
0.3502572476863861 0.2860771715641022 0.5120206475257874
0.2878624498844147 0.2903949022293091 0.5180551409721375
0.35288697481155396 0.35440805554389954 0.4182559549808502
0.39346015453338623 0.32382363080978394 0.4668163061141968
0.32107698917388916 0.2769860029220581 0.45594921708106995
0.3130436837673187 0.15098723769187927 0.5288317203521729
0.24464812874794006 0.29008933901786804 0.5950843691825867
0.3882769048213959 0.2103874534368515 0.5642983317375183
0.243056058883667 0.30632323026657104 0.5289811491966248
0.3357594907283783 0.2672545909881592 0.4806685447692871
0.28954562544822693 0.3696494698524475 0.600736677646637
0.2922728359699249 0.17961737513542175 0.5392736196517944
0.27998846769332886 0.23799020051956177 0.5723327994346619
0.3706076443195343 0.3322489261627197 0.5108348727226257
0.3726261854171753 0.3200019896030426 0.47186997532844543
0.36845663189888 0.2697365880012512 0.4947580397129059
0.2801307439804077 0.2702026069164276 0.41061925888061523
0.35168811678886414 0.20389844477176666 0.5627574920654297
0.37984269857406616 0.34767839312553406 0.5047289729118347
0.4002305269241333 0.3551408052444458 0.44578608870506287
0.34961241483688354 0.19568651914596558 0.49991393089294434
0.3784693777561188 0.2434629648923874 0.49856409430503845
0.3055560290813446 0.19196386635303497 0.5758131146430969
0.3726186752319336 0.3045062720775604 0.4664441645145416
0.22227884829044342 0.24836844205856323 0.5864138007164001
0.27013587951660156 0.3224841058254242 0.5988955497741699
0.369904488325119 0.23104847967624664 0.5682423710823059
0.2711893618106842 0.3268986642360687 0.49287840723991394
0.38002660870552063 0.23392191529273987 0.5837490558624268
0.29506516456604004 0.37664124369621277 0.459994912147522
0.29447585344314575 0.24097906053066254 0.497443825006485
0.35786667466163635 0.3194958567619324 0.4978786110877991
0.4367455840110779 0.2834625244140625 0.4794880151748657
0.31839147210121155 0.3730333745479584 0.49207377433776855
0.3602482080459595 0.1943664252758026 0.4341394603252411
0.37053605914115906 0.2515377700328827 0.48980429768562317
0.4404332935810089 0.274722158908844 0.5988362431526184
0.36600804328918457 0.3396734893321991 0.4767412543296814
0.2407533973455429 0.2592846751213074 0.3968416452407837
0.28209641575813293 0.18988266587257385 0.5506021976470947
0.36192408204078674 0.26972782611846924 0.50145024061203
0.3298693597316742 0.17938992381095886 0.5666161775588989
0.3407016396522522 0.1702764630317688 0.5976191759109497
0.3182465434074402 0.3865315914154053 0.562341034412384
0.3906402587890625 0.32934391498565674 0.42697152495384216
0.33107683062553406 0.2464611828327179 0.5690807700157166
0.2813839912414551 0.31023114919662476 0.580809473991394
0.28844931721687317 0.30707478523254395 0.5148582458496094
0.2958681583404541 0.3528856933116913 0.5366981625556946
0.298304945230484 0.235075905919075 0.40837934613227844
0.2986103892326355 0.3011417090892792 0.537158191204071
0.25912168622016907 0.2469213604927063 0.4907340705394745
0.3589666783809662 0.23612080514431 0.43526947498321533
0.33996424078941345 0.20846371352672577 0.553775429725647
0.22287432849407196 0.30692315101623535 0.4331480860710144
0.25927093625068665 0.3108476996421814 0.5161647200584412
0.3468719720840454 0.19318708777427673 0.517431378364563
0.27165985107421875 0.2991037368774414 0.5943247079849243
0.29189780354499817 0.21563078463077545 0.4309931993484497
0.31201112270355225 0.1664675772190094 0.5038419961929321
0.37220826745033264 0.26236626505851746 0.44234129786491394
0.4198343753814697 0.27188125252723694 0.4831496477127075
0.25721704959869385 0.23828350007534027 0.5425122976303101
0.43469110131263733 0.2708442807197571 0.40994054079055786
0.3110164701938629 0.3427114188671112 0.5749846696853638
0.30115237832069397 0.16047102212905884 0.564647376537323
0.22746041417121887 0.31821441650390625 0.533528208732605
0.436692476272583 0.24789249897003174 0.4503353238105774
0.3005814552307129 0.33093222975730896 0.5842558145523071
0.3454800844192505 0.3280811607837677 0.578021228313446
0.3359164297580719 0.2513023018836975 0.5358274579048157
0.40703123807907104 0.28246355056762695 0.5738568902015686
0.35620078444480896 0.3344247341156006 0.6100103259086609
0.3431493639945984 0.40792256593704224 0.4263717830181122
0.41708680987358093 0.2500268220901489 0.4142894148826599
0.3468278646469116 0.22948193550109863 0.49857234954833984
0.4332057237625122 0.24564477801322937 0.45296967029571533
0.3923763334751129 0.2880888283252716 0.4223484992980957
0.3775682747364044 0.2725990116596222 0.47087886929512024
0.37172141671180725 0.2188616394996643 0.45141705870628357
0.42681536078453064 0.25457075238227844 0.5877505540847778
0.33600202202796936 0.16315481066703796 0.4314991533756256
0.2899324297904968 0.23681971430778503 0.5227850079536438
0.4513484239578247 0.29882729053497314 0.4289602041244507
0.3993317484855652 0.25296586751937866 0.5885869860649109
0.4324936866760254 0.27525046467781067 0.428065687417984
0.4050186276435852 0.26652294397354126 0.5114047527313232
0.3144267499446869 0.2686753273010254 0.4225482642650604
0.3168415427207947 0.263073205947876 0.5537805557250977
0.439762681722641 0.23806042969226837 0.5170428156852722
0.32214486598968506 0.25325533747673035 0.4718262851238251
0.32897815108299255 0.247117280960083 0.5420078039169312
0.30468669533729553 0.20088188350200653 0.41702497005462646
0.3621543049812317 0.20187032222747803 0.5537926554679871
0.30499163269996643 0.34766843914985657 0.5967676043510437
0.395144522190094 0.24567310512065887 0.4518546462059021
0.27204573154449463 0.2519841492176056 0.5179156064987183
0.2500189542770386 0.31264403462409973 0.4504287838935852
0.36309048533439636 0.23066477477550507 0.4342776834964752
0.36711856722831726 0.2719813883304596 0.5997092127799988
0.3597263991832733 0.27244722843170166 0.6036838293075562
0.2976442873477936 0.18803152441978455 0.5842698812484741
0.26395726203918457 0.23715545237064362 0.491916686296463
0.45225411653518677 0.25534743070602417 0.5681740045547485
0.34571346640586853 0.27977022528648376 0.5409504771232605
0.2574797570705414 0.2527649700641632 0.4273717999458313
0.3097132742404938 0.32086220383644104 0.6072067022323608
0.33662596344947815 0.35798439383506775 0.5934137105941772
0.2859852612018585 0.29325923323631287 0.4979504644870758
0.34947630763053894 0.37638595700263977 0.45263421535491943
0.26152974367141724 0.34395959973335266 0.5630757808685303
0.28037869930267334 0.2189856469631195 0.5575664639472961
0.4221589267253876 0.2522507309913635 0.5755017995834351
0.32152339816093445 0.15376627445220947 0.5275012850761414
0.3359190821647644 0.2951544225215912 0.5023713707923889
0.2715821862220764 0.23258621990680695 0.520114541053772
0.2550048530101776 0.2347162663936615 0.5840508341789246
0.32310882210731506 0.3934447765350342 0.6073268055915833
0.30292192101478577 0.2908739149570465 0.4563017785549164
0.3358488976955414 0.25733673572540283 0.5602973699569702
0.27626165747642517 0.3095613420009613 0.4432106614112854
0.32288506627082825 0.16425539553165436 0.4350067675113678
0.4259771406650543 0.3186611831188202 0.4292406439781189
0.31631818413734436 0.24728508293628693 0.514274537563324
0.382207989692688 0.21213313937187195 0.5661177039146423
0.3677842915058136 0.3854885697364807 0.5025544762611389
0.32276004552841187 0.26838186383247375 0.4631553590297699
0.3597579896450043 0.23931989073753357 0.5896081924438477
0.336210161447525 0.2620876133441925 0.43115565180778503
0.3335915207862854 0.1559576392173767 0.4563024938106537
0.28634509444236755 0.279095858335495 0.4516868591308594
0.3839265704154968 0.24371391534805298 0.5665050148963928
0.31809738278388977 0.30930495262145996 0.432017058134079
0.39054417610168457 0.2864314019680023 0.4378851652145386
0.37589389085769653 0.26189732551574707 0.41172364354133606
0.2509351372718811 0.2301272302865982 0.49741604924201965
0.33662018179893494 0.34539419412612915 0.4769073724746704
0.33788207173347473 0.2691977024078369 0.46885034441947937
0.24848122894763947 0.29948389530181885 0.5956053137779236
0.36848267912864685 0.37709590792655945 0.4574345648288727
0.2881644666194916 0.23871362209320068 0.5284643769264221
0.31415489315986633 0.25899747014045715 0.4443390369415283
0.31539425253868103 0.14799730479717255 0.5297603011131287
0.3626638352870941 0.3106444776058197 0.4910336434841156
0.28020432591438293 0.21821005642414093 0.5243966579437256
0.37591004371643066 0.3141863942146301 0.5776798129081726
0.3284880518913269 0.29688891768455505 0.6000431776046753
0.45542779564857483 0.25333064794540405 0.5008562207221985
0.41732239723205566 0.25100505352020264 0.5964862108230591
0.3751748204231262 0.23762544989585876 0.4790208637714386
0.20482628047466278 0.2794398367404938 0.553235650062561
0.3865185081958771 0.2956492304801941 0.5932315587997437
0.43274986743927 0.26402369141578674 0.408864825963974
0.33961209654808044 0.2978178858757019 0.5220112800598145
0.22102096676826477 0.2759637236595154 0.5339233875274658
0.3135159909725189 0.1656714677810669 0.5657629370689392
0.3334323465824127 0.1840672492980957 0.4316385090351105
0.3166830539703369 0.20533108711242676 0.4555615782737732
0.35365089774131775 0.27914097905158997 0.5146034359931946
0.23577386140823364 0.33744874596595764 0.42414218187332153
0.31039151549339294 0.27054092288017273 0.4721497595310211
0.31515151262283325 0.31461676955223083 0.4785382151603699
0.3507033586502075 0.23016782104969025 0.5256274342536926
0.3822678327560425 0.30042925477027893 0.47495612502098083
0.3906687796115875 0.22886820137500763 0.43434035778045654
0.21857918798923492 0.30442944169044495 0.5125874876976013
0.3877696692943573 0.3488323390483856 0.44818440079689026
0.3808847665786743 0.254457026720047 0.5540478825569153
0.3233136832714081 0.1680496335029602 0.39652925729751587
0.36066824197769165 0.38867777585983276 0.5348782539367676
0.2631826400756836 0.28193482756614685 0.41765183210372925
0.2862696051597595 0.28874558210372925 0.5869426131248474
0.2970570921897888 0.2494080662727356 0.46314841508865356
0.26401159167289734 0.2265353500843048 0.43449410796165466
0.4627244174480438 0.24959050118923187 0.5594947934150696
0.2163664698600769 0.3132322430610657 0.45577555894851685
0.33000656962394714 0.341604620218277 0.43898001313209534
0.39758291840553284 0.27230319380760193 0.5475227236747742
0.38198724389076233 0.2507217228412628 0.5886000990867615
0.37237346172332764 0.34903791546821594 0.5352029800415039
0.2841719090938568 0.1764674335718155 0.5415665507316589
0.2205018252134323 0.2965565323829651 0.47481289505958557
0.3454371690750122 0.3729473650455475 0.44575875997543335
0.4228672981262207 0.2978958785533905 0.4136711657047272
0.3540036082267761 0.2103487104177475 0.49193358421325684
0.2993324100971222 0.3697579503059387 0.414652943611145
0.33301493525505066 0.2649081349372864 0.5397130846977234
0.3288239538669586 0.32252636551856995 0.5604910254478455
0.30809485912323 0.3771449029445648 0.568648636341095
0.43478840589523315 0.2269160896539688 0.5537166595458984
0.33495861291885376 0.2217746376991272 0.5918998122215271
0.37094977498054504 0.30891650915145874 0.45120862126350403
0.36865976452827454 0.2197236269712448 0.43187904357910156
0.25927233695983887 0.3015576899051666 0.4024548828601837
0.35256415605545044 0.22781381011009216 0.5955473184585571
0.2576701045036316 0.34859779477119446 0.45798301696777344
0.34265580773353577 0.3638612627983093 0.4707777202129364
0.22853580117225647 0.2624538540840149 0.4773826599121094
0.38551780581474304 0.26025131344795227 0.5236072540283203
0.4469146430492401 0.2500390112400055 0.49176618456840515
0.27460888028144836 0.3342994153499603 0.4235798716545105
0.3468719720840454 0.19318708777427673 0.517431378364563
0.3991471230983734 0.221422478556633 0.406380295753479
0.2859455347061157 0.26856371760368347 0.5392019748687744
0.4545965790748596 0.25417011976242065 0.4732820391654968
0.30115237832069397 0.16047102212905884 0.564647376537323
0.22746041417121887 0.31821441650390625 0.533528208732605
0.436692476272583 0.24789249897003174 0.4503353238105774
0.3005814552307129 0.33093222975730896 0.5842558145523071
0.3454800844192505 0.3280811607837677 0.578021228313446
0.3359164297580719 0.2513023018836975 0.5358274579048157
0.40703123807907104 0.28246355056762695 0.5738568902015686
0.35620078444480896 0.3344247341156006 0.6100103259086609
0.3361240327358246 0.277934730052948 0.5218747854232788
0.43888333439826965 0.29133838415145874 0.471871554851532
0.3858085572719574 0.2762123942375183 0.5669477581977844
0.3513844907283783 0.40652862191200256 0.5326412320137024
0.311490535736084 0.20475296676158905 0.4355102479457855
0.2429666966199875 0.2713690400123596 0.4597148895263672
0.3730476498603821 0.39696118235588074 0.4272955656051636
0.4300656318664551 0.2656528949737549 0.5540770292282104
0.27796491980552673 0.3285180926322937 0.575777530670166
0.3369571566581726 0.33712533116340637 0.46485191583633423
0.3614926338195801 0.3469030261039734 0.5536473393440247
0.329182505607605 0.21504102647304535 0.5900253653526306
0.28457915782928467 0.2713923156261444 0.48254579305648804
0.2284708172082901 0.28404542803764343 0.5045958757400513
0.34356263279914856 0.2592753469944 0.4835483431816101
0.28763729333877563 0.3035489618778229 0.5964715480804443
0.4342130422592163 0.23216137290000916 0.4755170941352844
0.32746365666389465 0.2711712121963501 0.43723630905151367
0.29749351739883423 0.29180631041526794 0.5308290123939514
0.3492301404476166 0.31985560059547424 0.520879328250885
0.42897725105285645 0.2847227156162262 0.44260329008102417
0.2407533973455429 0.2592846751213074 0.3968416452407837
0.28209641575813293 0.18988266587257385 0.5506021976470947
0.39708998799324036 0.26642274856567383 0.47648072242736816
0.26537463068962097 0.2146826684474945 0.5734201073646545
0.3321807384490967 0.18477198481559753 0.5365247130393982
0.32884398102760315 0.36090511083602905 0.49668392539024353
0.2912251949310303 0.3122051954269409 0.6006357669830322
0.4213712215423584 0.3098437786102295 0.5580853223800659
0.4408130943775177 0.29083600640296936 0.4297940731048584
0.43182647228240967 0.26285743713378906 0.483401894569397
0.38017377257347107 0.24162544310092926 0.4680252969264984
0.269199013710022 0.2626335918903351 0.5887797474861145
0.2613198757171631 0.28541991114616394 0.5260087847709656
0.22012853622436523 0.30411824584007263 0.5137690901756287
0.21854951977729797 0.279646635055542 0.4609912633895874
0.45714157819747925 0.26429784297943115 0.48832404613494873
0.3686665892601013 0.27706241607666016 0.45184531807899475
0.25071069598197937 0.21362175047397614 0.5890531539916992
0.30809485912323 0.3771449029445648 0.568648636341095
0.43478840589523315 0.2269160896539688 0.5537166595458984
0.33495861291885376 0.2217746376991272 0.5918998122215271
0.37094977498054504 0.30891650915145874 0.45120862126350403
0.36865976452827454 0.2197236269712448 0.43187904357910156
0.25927233695983887 0.3015576899051666 0.4024548828601837
0.35256415605545044 0.22781381011009216 0.5955473184585571
0.2576701045036316 0.34859779477119446 0.45798301696777344
0.34265580773353577 0.3638612627983093 0.4707777202129364
0.22853580117225647 0.2624538540840149 0.4773826599121094
0.38551780581474304 0.26025131344795227 0.5236072540283203
0.4469146430492401 0.2500390112400055 0.49176618456840515
0.27460888028144836 0.3342994153499603 0.4235798716545105
0.42157742381095886 0.2573598325252533 0.4585602581501007
0.33465778827667236 0.1830437332391739 0.5629908442497253
0.31927335262298584 0.3887503743171692 0.6117732524871826
0.21936042606830597 0.30230143666267395 0.5732385516166687
0.37548571825027466 0.3291647732257843 0.5034247040748596
0.4273608326911926 0.24171657860279083 0.463220477104187
0.25460007786750793 0.2526550889015198 0.46359774470329285
0.36318907141685486 0.39000415802001953 0.4495786726474762
0.3046732246875763 0.2733992636203766 0.5423375368118286
0.36660003662109375 0.3179759383201599 0.5951477289199829
0.28856199979782104 0.2831856906414032 0.4656987488269806
0.3674788773059845 0.3024594187736511 0.5966235995292664
0.26943814754486084 0.2955387532711029 0.5090851783752441
0.3875086009502411 0.22264806926250458 0.5167729258537292
0.3610804080963135 0.37950775027275085 0.4637240767478943
0.30809485912323 0.3771449029445648 0.568648636341095
0.43478840589523315 0.2269160896539688 0.5537166595458984
0.33495861291885376 0.2217746376991272 0.5918998122215271
0.37094977498054504 0.30891650915145874 0.45120862126350403
0.36865976452827454 0.2197236269712448 0.43187904357910156
0.25927233695983887 0.3015576899051666 0.4024548828601837
0.35256415605545044 0.22781381011009216 0.5955473184585571
0.2576701045036316 0.34859779477119446 0.45798301696777344
0.34265580773353577 0.3638612627983093 0.4707777202129364
0.22853580117225647 0.2624538540840149 0.4773826599121094
0.38551780581474304 0.26025131344795227 0.5236072540283203
0.4469146430492401 0.2500390112400055 0.49176618456840515
0.27460888028144836 0.3342994153499603 0.4235798716545105
0.33026307821273804 0.2731872797012329 0.4375609755516052
0.38855862617492676 0.21052135527133942 0.4973123073577881
0.22721651196479797 0.2891051471233368 0.5658239126205444
0.4502207338809967 0.2503054440021515 0.46617841720581055
0.34506186842918396 0.40975871682167053 0.46770432591438293
0.382207989692688 0.21213313937187195 0.5661177039146423
0.3677842915058136 0.3854885697364807 0.5025544762611389
0.32276004552841187 0.26838186383247375 0.4631553590297699
0.3597579896450043 0.23931989073753357 0.5896081924438477
0.336210161447525 0.2620876133441925 0.43115565180778503
0.3335915207862854 0.1559576392173767 0.4563024938106537
0.28634509444236755 0.279095858335495 0.4516868591308594
0.38739967346191406 0.326020747423172 0.5531505942344666
0.20589791238307953 0.29664480686187744 0.45923179388046265
0.2771059274673462 0.24090014398097992 0.5202904939651489
0.33544859290122986 0.19541826844215393 0.5209192037582397
0.3025127947330475 0.16084052622318268 0.5124481916427612
0.3514993488788605 0.2620408236980438 0.44618234038352966
0.4339677393436432 0.26422831416130066 0.4492392838001251
0.4461154043674469 0.24201887845993042 0.43412286043167114
0.3689161539077759 0.33956754207611084 0.4507167935371399
0.33535391092300415 0.2747691571712494 0.5496355891227722
0.3521813750267029 0.31907835602760315 0.42818230390548706
0.2513476312160492 0.33197271823883057 0.5570998787879944
0.3419106900691986 0.4063832461833954 0.5449832677841187
0.32374852895736694 0.16479544341564178 0.4208565950393677
0.3967866897583008 0.2747643291950226 0.602035641670227
0.30734631419181824 0.37587040662765503 0.45455318689346313
0.3515106439590454 0.21351973712444305 0.45994654297828674
0.26539158821105957 0.31948626041412354 0.5566259026527405
0.33188068866729736 0.2546631395816803 0.48993629217147827
0.2677234411239624 0.2712306082248688 0.4539727568626404
0.37090253829956055 0.30543777346611023 0.4160105288028717
0.4157012104988098 0.3121005594730377 0.5808520317077637
0.3165439963340759 0.32835495471954346 0.5014589428901672
0.3381906747817993 0.29012125730514526 0.4622093439102173
0.22746041417121887 0.31821441650390625 0.533528208732605
0.3621543049812317 0.20187032222747803 0.5537926554679871
0.30499163269996643 0.34766843914985657 0.5967676043510437
0.395144522190094 0.24567310512065887 0.4518546462059021
0.27204573154449463 0.2519841492176056 0.5179156064987183
0.2500189542770386 0.31264403462409973 0.4504287838935852
0.36309048533439636 0.23066477477550507 0.4342776834964752
0.36711856722831726 0.2719813883304596 0.5997092127799988
0.3597263991832733 0.27244722843170166 0.6036838293075562
0.45225411653518677 0.25534743070602417 0.5681740045547485
0.27219563722610474 0.32332006096839905 0.4662307798862457
0.2317633181810379 0.285936176776886 0.5834011435508728
0.35062843561172485 0.1743529886007309 0.5861681699752808
0.33941200375556946 0.29287031292915344 0.5329855680465698
0.43440115451812744 0.28518664836883545 0.4679492115974426
0.4603464901447296 0.2623009979724884 0.5326834917068481
0.3497280478477478 0.19015748798847198 0.4743238389492035
0.20951049029827118 0.3163529932498932 0.4601041078567505
0.32374852895736694 0.16479544341564178 0.4208565950393677
0.3967866897583008 0.2747643291950226 0.602035641670227
0.30734631419181824 0.37587040662765503 0.45455318689346313
0.30385395884513855 0.22376832365989685 0.440659761428833
0.2537926137447357 0.2510160803794861 0.5007732510566711
0.4437471032142639 0.25260409712791443 0.48298001289367676
0.2593511939048767 0.3236735165119171 0.5315074920654297
0.3820088505744934 0.3083847165107727 0.4743714928627014
0.33528733253479004 0.20745034515857697 0.4834502637386322
0.400566428899765 0.20224067568778992 0.6035188436508179
0.3381906747817993 0.29012125730514526 0.4622093439102173
0.26920846104621887 0.22047685086727142 0.5395543575286865
0.3813139796257019 0.29827049374580383 0.5068313479423523
0.3171408474445343 0.31527459621429443 0.5062776803970337
0.436692476272583 0.24789249897003174 0.4503353238105774
0.30499163269996643 0.34766843914985657 0.5967676043510437
0.395144522190094 0.24567310512065887 0.4518546462059021
0.27204573154449463 0.2519841492176056 0.5179156064987183
0.2500189542770386 0.31264403462409973 0.4504287838935852
0.36309048533439636 0.23066477477550507 0.4342776834964752
0.36711856722831726 0.2719813883304596 0.5997092127799988
0.23033270239830017 0.28935354948043823 0.42483729124069214
0.27219563722610474 0.32332006096839905 0.4662307798862457
0.2317633181810379 0.285936176776886 0.5834011435508728
0.35062843561172485 0.1743529886007309 0.5861681699752808
0.22863417863845825 0.27419817447662354 0.5414484739303589
0.2861338257789612 0.28764671087265015 0.4372809827327728
0.21250832080841064 0.29078516364097595 0.5749320983886719
0.32374852895736694 0.16479544341564178 0.4208565950393677
0.3967866897583008 0.2747643291950226 0.602035641670227
0.30734631419181824 0.37587040662765503 0.45455318689346313
0.3515106439590454 0.21351973712444305 0.45994654297828674
0.35151076316833496 0.21351966261863708 0.4599466919898987
0.4437471032142639 0.25260409712791443 0.48298001289367676
0.2593511939048767 0.3236735165119171 0.5315074920654297
0.3820088505744934 0.3083847165107727 0.4743714928627014
0.29348689317703247 0.35441944003105164 0.5477288961410522
0.4157012104988098 0.3121005594730377 0.5808520317077637
0.400566428899765 0.20224067568778992 0.6035188436508179
0.2301371842622757 0.25054800510406494 0.531830906867981
0.26920846104621887 0.22047685086727142 0.5395543575286865
0.3171408474445343 0.31527459621429443 0.5062776803970337
0.3676627278327942 0.20113424956798553 0.4502354562282562
0.30854669213294983 0.28607112169265747 0.4421706795692444
0.3842027187347412 0.22095268964767456 0.42926114797592163
0.38551679253578186 0.36836671829223633 0.48023876547813416
0.43888333439826965 0.29133838415145874 0.471871554851532
0.41637369990348816 0.296718955039978 0.5159820318222046
0.37681230902671814 0.31689131259918213 0.5293139815330505
0.35902708768844604 0.2799586057662964 0.5484120845794678
0.28498712182044983 0.3576814830303192 0.5066797137260437
0.30351728200912476 0.3735342025756836 0.4418468177318573
0.3410714864730835 0.29582518339157104 0.5816832184791565
0.390097439289093 0.3404087424278259 0.5575054883956909
0.38567879796028137 0.21281319856643677 0.4286210238933563
0.35646378993988037 0.3938460350036621 0.43960192799568176
0.2277454286813736 0.2915726602077484 0.45098018646240234
0.28824368119239807 0.3421095609664917 0.4854223132133484
0.3730016350746155 0.19704416394233704 0.47835543751716614
0.35630467534065247 0.24362526834011078 0.48276981711387634
0.33020201325416565 0.1603499799966812 0.5291740894317627
0.3758493661880493 0.2632248103618622 0.597905695438385
0.286639004945755 0.3204505741596222 0.5121709704399109
0.27941659092903137 0.3511081039905548 0.4620234966278076
0.2635853588581085 0.21789130568504333 0.5332744121551514
0.31186607480049133 0.20063695311546326 0.501741349697113
0.24253492057323456 0.28277409076690674 0.5734753012657166
0.31765016913414 0.20978686213493347 0.42278239130973816
0.3120950758457184 0.25516173243522644 0.5530219674110413
0.41955849528312683 0.30301734805107117 0.5290795564651489
0.31273162364959717 0.15482527017593384 0.4473915696144104
0.26084429025650024 0.25811877846717834 0.5137304663658142
0.2553975582122803 0.2905682623386383 0.473784863948822
0.27165913581848145 0.2278660088777542 0.5892454385757446
0.3990429937839508 0.25399264693260193 0.591102659702301
0.26249831914901733 0.3052232563495636 0.5234988927841187
0.36766722798347473 0.38302382826805115 0.5388695597648621
0.2395903319120407 0.2769670784473419 0.5785887837409973
0.30499163269996643 0.34766843914985657 0.5967676043510437
0.2185778170824051 0.3095449209213257 0.489452987909317
0.3185340464115143 0.31139224767684937 0.43099915981292725
0.24014386534690857 0.2581852972507477 0.4810677170753479
0.3570118248462677 0.41271325945854187 0.42464300990104675
0.3280898332595825 0.3085702657699585 0.43774938583374023
0.3487584590911865 0.26800280809402466 0.47840702533721924
0.3493902087211609 0.1928456723690033 0.4701109826564789
0.3295648396015167 0.16538845002651215 0.4678594172000885
0.3610580861568451 0.33192333579063416 0.5508742928504944
0.3912646770477295 0.2701895236968994 0.5030019283294678
0.3119407594203949 0.34082069993019104 0.5177545547485352
0.36343032121658325 0.18121303617954254 0.3996019959449768
0.27047792077064514 0.21587520837783813 0.5153123140335083
0.2824270725250244 0.23100703954696655 0.5905349850654602
0.3846191465854645 0.2945154011249542 0.5073244571685791
0.42425012588500977 0.24130427837371826 0.5672385692596436
0.2806793749332428 0.2600017488002777 0.4913020730018616
0.3247429430484772 0.19712230563163757 0.4837587773799896
0.24193233251571655 0.33391109108924866 0.5075826048851013
0.37376219034194946 0.36221814155578613 0.592248797416687
0.3716293275356293 0.2721850872039795 0.4531312584877014
0.38918015360832214 0.2183661311864853 0.5710353255271912
0.36245912313461304 0.3191596567630768 0.5964558720588684
0.3089612126350403 0.3776094317436218 0.4895268678665161
0.32700037956237793 0.1892402023077011 0.5886256694793701
0.3653659522533417 0.381366491317749 0.5478380918502808
0.37173858284950256 0.2445801943540573 0.5915009379386902
0.3881339132785797 0.2496730387210846 0.5036536455154419
0.33140766620635986 0.3551460802555084 0.4476984441280365
0.30736538767814636 0.3540163040161133 0.564494252204895
0.39777132868766785 0.25881433486938477 0.5618798136711121
0.38855862617492676 0.21052135527133942 0.4973123073577881
0.38476505875587463 0.21399863064289093 0.5072820782661438
0.2857445478439331 0.2621363401412964 0.5593658685684204
0.41637369990348816 0.296718955039978 0.5159820318222046
0.37681230902671814 0.31689131259918213 0.5293139815330505
0.35902708768844604 0.2799586057662964 0.5484120845794678
0.28498712182044983 0.3576814830303192 0.5066797137260437
0.30351728200912476 0.3735342025756836 0.4418468177318573
0.3410714864730835 0.29582518339157104 0.5816832184791565
0.390097439289093 0.3404087424278259 0.5575054883956909
0.38567879796028137 0.21281319856643677 0.4286210238933563
0.35646378993988037 0.3938460350036621 0.43960192799568176
0.2277454286813736 0.2915726602077484 0.45098018646240234
0.28824368119239807 0.3421095609664917 0.4854223132133484
0.3730016350746155 0.19704416394233704 0.47835543751716614
0.3348858654499054 0.223408505320549 0.5845058560371399
0.4117596745491028 0.22720877826213837 0.5468327403068542
0.2407245635986328 0.28618472814559937 0.5952394008636475
0.310763418674469 0.20801681280136108 0.5079053640365601
0.2308831810951233 0.2878058850765228 0.4031330347061157
0.3577777147293091 0.3941938579082489 0.5309091806411743
0.3175840377807617 0.16718757152557373 0.41595950722694397
0.34775304794311523 0.31721776723861694 0.4626483917236328
0.3612383306026459 0.23292852938175201 0.5624253153800964
0.37235578894615173 0.26560908555984497 0.40703049302101135
0.31772035360336304 0.3541141748428345 0.5767577886581421
0.37181413173675537 0.4032306373119354 0.4268821179866791
0.3376762568950653 0.3619324266910553 0.5685079097747803
0.3276333808898926 0.1589525192975998 0.44175267219543457
0.245618537068367 0.3070632219314575 0.40796467661857605
0.3365709185600281 0.3410373032093048 0.5851051211357117
0.3048210144042969 0.2271803915500641 0.5119414329528809
0.22721651196479797 0.2891051471233368 0.5658239126205444
0.3493902087211609 0.1928456723690033 0.4701109826564789
0.3295648396015167 0.16538845002651215 0.4678594172000885
0.3610580861568451 0.33192333579063416 0.5508742928504944
0.3912646770477295 0.2701895236968994 0.5030019283294678
0.3119407594203949 0.34082069993019104 0.5177545547485352
0.36343032121658325 0.18121303617954254 0.3996019959449768
0.27047792077064514 0.21587520837783813 0.5153123140335083
0.2824270725250244 0.23100703954696655 0.5905349850654602
0.3846191465854645 0.2945154011249542 0.5073244571685791
0.3916475176811218 0.2913408577442169 0.4559045135974884
0.42440903186798096 0.24157975614070892 0.5669921040534973
0.2516253590583801 0.23796705901622772 0.4873960614204407
0.33820515871047974 0.15798085927963257 0.5941985249519348
0.34911617636680603 0.25155580043792725 0.5093249082565308
0.35847368836402893 0.3608284592628479 0.47860586643218994
0.358556866645813 0.3876457214355469 0.4567144811153412
0.23392073810100555 0.2876599431037903 0.5166502594947815
0.38918015360832214 0.2183661311864853 0.5710353255271912
0.36245912313461304 0.3191596567630768 0.5964558720588684
0.3089612126350403 0.3776094317436218 0.4895268678665161
0.32700037956237793 0.1892402023077011 0.5886256694793701
0.3653659522533417 0.381366491317749 0.5478380918502808
0.37173858284950256 0.2445801943540573 0.5915009379386902
0.3881339132785797 0.2496730387210846 0.5036536455154419
0.3013414442539215 0.21028642356395721 0.5357568860054016
0.2950417101383209 0.3274172246456146 0.5801712870597839
0.30736538767814636 0.3540163040161133 0.564494252204895
0.39777132868766785 0.25881433486938477 0.5618798136711121
0.25192704796791077 0.29243913292884827 0.5806000828742981
0.32951000332832336 0.3909633457660675 0.6109370589256287
0.2614038288593292 0.3514424264431 0.4941384792327881
0.4469146430492401 0.2500390112400055 0.49176618456840515
0.3493902087211609 0.1928456723690033 0.4701109826564789
0.3912646770477295 0.2701895236968994 0.5030019283294678
0.3119407594203949 0.34082069993019104 0.5177545547485352
0.36343032121658325 0.18121303617954254 0.3996019959449768
0.27047792077064514 0.21587520837783813 0.5153123140335083
0.2824270725250244 0.23100703954696655 0.5905349850654602
0.3916475176811218 0.2913408577442169 0.4559045135974884
0.42440903186798096 0.24157975614070892 0.5669921040534973
0.2516253590583801 0.23796705901622772 0.4873960614204407
0.33820515871047974 0.15798085927963257 0.5941985249519348
0.34911617636680603 0.25155580043792725 0.5093249082565308
0.35847368836402893 0.3608284592628479 0.47860586643218994
0.358556866645813 0.3876457214355469 0.4567144811153412
0.23392073810100555 0.2876599431037903 0.5166502594947815
0.3992753028869629 0.23107095062732697 0.4873274266719818
0.2957468032836914 0.36690545082092285 0.5060932040214539
0.2500629425048828 0.24283695220947266 0.5906902551651001
0.31607726216316223 0.2364950329065323 0.5269762277603149
0.2160535305738449 0.2805892825126648 0.47978416085243225
0.30717232823371887 0.31789082288742065 0.5444676876068115
0.3906376361846924 0.21392396092414856 0.5819250345230103
0.32769840955734253 0.2926311194896698 0.5056132078170776
0.4166191518306732 0.2188262641429901 0.4673897325992584
0.30736538767814636 0.3540163040161133 0.564494252204895
0.39777132868766785 0.25881433486938477 0.5618798136711121
0.25192704796791077 0.29243913292884827 0.5806000828742981
0.32951000332832336 0.3909633457660675 0.6109370589256287
0.2614038288593292 0.3514424264431 0.4941384792327881
0.39462536573410034 0.2753649353981018 0.45730188488960266
0.3396182656288147 0.16071996092796326 0.4759347438812256
0.3283630609512329 0.2633068859577179 0.5895920991897583
0.24550671875476837 0.3279522657394409 0.4037049114704132
0.390097439289093 0.3404087424278259 0.5575054883956909
0.38567879796028137 0.21281319856643677 0.4286210238933563
0.35646378993988037 0.3938460350036621 0.43960192799568176
0.2277454286813736 0.2915726602077484 0.45098018646240234
0.28824368119239807 0.3421095609664917 0.4854223132133484
0.3730016350746155 0.19704416394233704 0.47835543751716614
0.35630467534065247 0.24362526834011078 0.48276981711387634
0.33020201325416565 0.1603499799966812 0.5291740894317627
0.3758493661880493 0.2632248103618622 0.597905695438385
0.32078975439071655 0.19451063871383667 0.4476551413536072
0.3235231041908264 0.338839590549469 0.5705377459526062
0.3713020980358124 0.21091017127037048 0.5637028217315674
0.3211649954319 0.22064191102981567 0.4166604280471802
0.2774917483329773 0.2029256969690323 0.46831953525543213
0.26579663157463074 0.3394187092781067 0.42493125796318054
0.2653789222240448 0.3013509511947632 0.4214639961719513
0.2805650234222412 0.2857656478881836 0.5553388595581055
0.3850212097167969 0.21843665838241577 0.49463826417922974
0.3840518295764923 0.26302656531333923 0.46143507957458496
0.37769195437431335 0.3646218776702881 0.5182814598083496
0.3564004898071289 0.30116507411003113 0.47026804089546204
0.33396998047828674 0.29809755086898804 0.459642618894577
0.40925130248069763 0.2625866234302521 0.4372166395187378
0.24931806325912476 0.24047796428203583 0.5197104811668396
0.40475335717201233 0.26972630620002747 0.48530128598213196
0.3528665006160736 0.39419713616371155 0.4465642273426056
0.18480859696865082 0.2977801561355591 0.5887373089790344
0.3208739757537842 0.20106643438339233 0.5882077813148499
0.41938477754592896 0.24922335147857666 0.5402145385742188
0.29924729466438293 0.19893993437290192 0.5744324922561646
0.25978797674179077 0.32396742701530457 0.5321184396743774
0.33026307821273804 0.2731872797012329 0.4375609755516052
0.35630467534065247 0.24362526834011078 0.48276981711387634
0.33020201325416565 0.1603499799966812 0.5291740894317627
0.3758493661880493 0.2632248103618622 0.597905695438385
0.286639004945755 0.3204505741596222 0.5121709704399109
0.27941659092903137 0.3511081039905548 0.4620234966278076
0.2635853588581085 0.21789130568504333 0.5332744121551514
0.31186607480049133 0.20063695311546326 0.501741349697113
0.24253492057323456 0.28277409076690674 0.5734753012657166
0.31765016913414 0.20978686213493347 0.42278239130973816
0.3120950758457184 0.25516173243522644 0.5530219674110413
0.41955849528312683 0.30301734805107117 0.5290795564651489
0.31273162364959717 0.15482527017593384 0.4473915696144104
0.26084429025650024 0.25811877846717834 0.5137304663658142
0.2553975582122803 0.2905682623386383 0.473784863948822
0.2795542776584625 0.23348024487495422 0.5145355463027954
0.36537814140319824 0.36934903264045715 0.4290410280227661
0.33634233474731445 0.37582656741142273 0.5763360857963562
0.33788788318634033 0.2060808539390564 0.4644688069820404
0.3664897084236145 0.37368008494377136 0.48009955883026123
0.34295663237571716 0.2362489551305771 0.5234935879707336
0.30060890316963196 0.318899929523468 0.5851399898529053
0.3296995460987091 0.3899647891521454 0.44712477922439575
0.3571482300758362 0.4122330844402313 0.45485594868659973
0.26763713359832764 0.34320932626724243 0.5258752703666687
0.35176530480384827 0.20152373611927032 0.4376085698604584
0.30575549602508545 0.28429725766181946 0.6006860136985779
0.34920695424079895 0.28600621223449707 0.565032958984375
0.3484211266040802 0.25558626651763916 0.48940548300743103
0.31639763712882996 0.23905245959758759 0.42272526025772095
0.38948526978492737 0.208717480301857 0.571345865726471
0.32658901810646057 0.25419896841049194 0.4853759706020355
0.33026307821273804 0.2731872797012329 0.4375609755516052
0.2975980341434479 0.22984017431735992 0.537675142288208
0.2590963840484619 0.34792184829711914 0.5381954312324524
0.23558470606803894 0.2726682722568512 0.5034177303314209
0.3619804084300995 0.3805074095726013 0.5385743975639343
0.31778568029403687 0.15203896164894104 0.5021934509277344
0.34288492798805237 0.24986812472343445 0.46145159006118774
0.45064082741737366 0.29082101583480835 0.44729048013687134
0.24514135718345642 0.3291812241077423 0.5261645317077637
0.33005446195602417 0.16687437891960144 0.5612701773643494
0.3048210144042969 0.2271803915500641 0.5119414329528809
0.33127084374427795 0.2933060824871063 0.6053903698921204
0.3638212978839874 0.3390292227268219 0.4228878617286682
0.40986502170562744 0.22986944019794464 0.5910966396331787
0.3107245862483978 0.1699661910533905 0.5209462642669678
0.3777809143066406 0.18441826105117798 0.565552830696106
0.38904258608818054 0.33782169222831726 0.6052730083465576
0.2753785252571106 0.22623483836650848 0.4910508394241333
0.32027706503868103 0.22897392511367798 0.5517765879631042
0.3938940465450287 0.2104954570531845 0.40168702602386475
0.31502822041511536 0.2751915156841278 0.5946660041809082
0.3200635015964508 0.21703407168388367 0.4920348823070526
0.3803728222846985 0.19877280294895172 0.526462197303772
0.45969676971435547 0.2686057686805725 0.4534016251564026
0.28788381814956665 0.21412678062915802 0.4882875978946686
0.217374786734581 0.2760581076145172 0.4786248803138733
0.34331706166267395 0.16336040198802948 0.5327038168907166
0.328183650970459 0.19546224176883698 0.5846430659294128
0.2918309271335602 0.24925759434700012 0.41156190633773804
0.28398752212524414 0.23035547137260437 0.5093263983726501
0.3138713240623474 0.2901971638202667 0.5481857061386108
0.3040555715560913 0.1743190735578537 0.47898221015930176
0.38855862617492676 0.21052135527133942 0.4973123073577881
0.34502193331718445 0.3743802607059479 0.5703345537185669
0.3155772387981415 0.36369433999061584 0.5009143948554993
0.30663684010505676 0.33399710059165955 0.5413854718208313
0.3167175054550171 0.1993573158979416 0.4499565362930298
0.31282472610473633 0.31989338994026184 0.4436044991016388
0.4267871379852295 0.3213128447532654 0.4252359867095947
0.31738725304603577 0.29265880584716797 0.5387248396873474
0.4205767810344696 0.30270645022392273 0.47899916768074036
0.2395702749490738 0.28439566493034363 0.4475803077220917
0.27629804611206055 0.3468366265296936 0.4408920109272003
0.45889416337013245 0.2573319971561432 0.45789825916290283
0.24855999648571014 0.24259129166603088 0.45734062790870667
0.27928245067596436 0.3092094659805298 0.5646519660949707
0.3920009434223175 0.28739672899246216 0.5121217966079712
0.31521135568618774 0.2620013356208801 0.5863902568817139
0.4389864504337311 0.2829233407974243 0.5102996230125427
0.3517996668815613 0.2998855710029602 0.5199643969535828
0.34864190220832825 0.3202340006828308 0.6008445024490356
0.3271869719028473 0.3176393210887909 0.5416930317878723
0.24499006569385529 0.3326973021030426 0.4365508556365967
0.2933105230331421 0.31839847564697266 0.4926184415817261
0.36257341504096985 0.36889681220054626 0.5802454948425293
0.33789947628974915 0.27266958355903625 0.42338141798973083
0.3137134909629822 0.2565918266773224 0.5637176036834717
