ply
format ascii 1.0
element vertex 831
property float x
property float y
property float z
end_header
0.7249528765678406 0.21534743905067444 0.5683978796005249
0.8115530610084534 0.2019890695810318 0.48306748270988464
0.7293117046356201 0.22154073417186737 0.5337012410163879
0.7619309425354004 0.24384690821170807 0.5656960606575012
0.7418034076690674 0.16292881965637207 0.4277332127094269
0.8712347149848938 0.33718225359916687 0.41049641370773315
0.7940660715103149 0.28709638118743896 0.5018021464347839
0.7608444690704346 0.1791301816701889 0.5642358660697937
0.8293066620826721 0.2755448520183563 0.5380417108535767
0.7904019355773926 0.1891569197177887 0.49890100955963135
0.8308542966842651 0.21672533452510834 0.558459460735321
0.725734293460846 0.23978883028030396 0.5895122289657593
0.8337402939796448 0.20243945717811584 0.3820126950740814
0.7225723266601562 0.2973801791667938 0.4261476397514343
0.8574703931808472 0.3082239031791687 0.5630461573600769
0.8584375977516174 0.2705344557762146 0.424604207277298
0.7846577167510986 0.21364673972129822 0.4373244643211365
0.7339756488800049 0.1977476179599762 0.43491271138191223
0.8567587733268738 0.2768164575099945 0.5244748592376709
0.7790964841842651 0.12788890302181244 0.5066995024681091
0.8757454752922058 0.20514622330665588 0.4111407697200775
0.6891906261444092 0.2696431875228882 0.5236814022064209
0.7824259996414185 0.12231627106666565 0.49058499932289124
0.7429462671279907 0.15962933003902435 0.3946010172367096
0.8972951173782349 0.1948474645614624 0.5511608123779297
0.717984139919281 0.2587650418281555 0.49358609318733215
0.7757467031478882 0.19852924346923828 0.5259812474250793
0.7250416874885559 0.23997680842876434 0.501106321811676
0.7081106901168823 0.2932227849960327 0.43124181032180786
0.8015530109405518 0.2267361730337143 0.4073418378829956
0.8811805248260498 0.3223159909248352 0.5606600046157837
0.6877074837684631 0.2727119028568268 0.49150916934013367
0.8670613169670105 0.15585140883922577 0.5718597173690796
0.8849736452102661 0.2292478084564209 0.5150232315063477
0.8546191453933716 0.23424284160137177 0.5159858465194702
0.8290495276451111 0.13775265216827393 0.5172111988067627
0.7778821587562561 0.27997687458992004 0.4994341731071472
0.8486389517784119 0.2019181251525879 0.5729419589042664
0.8139826655387878 0.3374543786048889 0.4239896237850189
0.8103240728378296 0.317558616399765 0.474576860666275
0.8475362062454224 0.30923959612846375 0.5865285992622375
0.821152925491333 0.2984025478363037 0.5542478561401367
0.769351601600647 0.22221533954143524 0.4354725480079651
0.7933045625686646 0.16577239334583282 0.4023415148258209
0.8296879529953003 0.19423477351665497 0.412189245223999
0.7406165599822998 0.20315222442150116 0.5388421416282654
0.8546783924102783 0.3252074122428894 0.5627029538154602
0.7963937520980835 0.19592392444610596 0.39283278584480286
0.8476127982139587 0.15061919391155243 0.47269487380981445
0.8087707757949829 0.18635475635528564 0.4942142367362976
0.876660943031311 0.25255370140075684 0.4026201367378235
0.8263644576072693 0.21102361381053925 0.5229595899581909
0.8737016320228577 0.31651046872138977 0.4030474126338959
0.8446128368377686 0.26266366243362427 0.423662930727005
0.8881279826164246 0.24252313375473022 0.39129093289375305
0.8198954463005066 0.22421184182167053 0.45149633288383484
0.71819007396698 0.2558397650718689 0.43337419629096985
0.7852235436439514 0.19873987138271332 0.5565856099128723
0.8499425053596497 0.18076695501804352 0.4447377920150757
0.7210758328437805 0.19628944993019104 0.5227754712104797
0.7982326149940491 0.26755717396736145 0.4752613306045532
0.7495666742324829 0.208823099732399 0.4561159610748291
0.78419029712677 0.2224821001291275 0.57356196641922
0.8221678137779236 0.20152314007282257 0.41303011775016785
0.8685899972915649 0.30225667357444763 0.4111078977584839
0.738631010055542 0.21045836806297302 0.5765573382377625
0.8788407444953918 0.2432248592376709 0.530808687210083
0.8782922625541687 0.17422260344028473 0.5711632966995239
0.8376714587211609 0.15310420095920563 0.5048468708992004
0.73687744140625 0.2626669704914093 0.5482997298240662
0.7598647475242615 0.19765779376029968 0.4108523726463318
0.8211427330970764 0.18440724909305573 0.4614105224609375
0.8098509311676025 0.17957600951194763 0.5249211192131042
0.7724802494049072 0.14152687788009644 0.4979581832885742
0.8442272543907166 0.3166798949241638 0.5821177363395691
0.7214177250862122 0.2433031052350998 0.5407010316848755
0.7214177250862122 0.2433031052350998 0.5407010316848755
0.7915809750556946 0.17892058193683624 0.5301651954650879
0.8483710289001465 0.23447424173355103 0.4794439673423767
0.822104275226593 0.25578832626342773 0.5742849111557007
0.8863895535469055 0.26974424719810486 0.41481438279151917
0.7694595456123352 0.2816682755947113 0.544240415096283
0.8756215572357178 0.2374565750360489 0.523452639579773
0.8368969559669495 0.2539854347705841 0.5904194712638855
0.7899971008300781 0.23485130071640015 0.44603368639945984
0.8080437779426575 0.34826913475990295 0.479422390460968
0.7809032201766968 0.27068620920181274 0.5657216906547546
0.8023868203163147 0.2548839747905731 0.5015323758125305
0.8734790086746216 0.2652050256729126 0.5262397527694702
0.8396924734115601 0.3502357304096222 0.4221598505973816
0.7974777817726135 0.18851329386234283 0.4918568730354309
0.8429811596870422 0.20474117994308472 0.44829005002975464
0.8647610545158386 0.3419792354106903 0.5358428955078125
0.7407139539718628 0.20719143748283386 0.40684813261032104
0.807346522808075 0.21182256937026978 0.4632912278175354
0.7946921586990356 0.23263958096504211 0.5811143517494202
0.7815297842025757 0.22250902652740479 0.4344027042388916
0.7123317122459412 0.2217375636100769 0.5518372058868408
0.8609744906425476 0.3071892559528351 0.609508216381073
0.7791733741760254 0.30700424313545227 0.48074713349342346
0.8790492415428162 0.2982320189476013 0.5097469687461853
0.8501089811325073 0.36028632521629333 0.4812837839126587
0.7946474552154541 0.23293529450893402 0.43555089831352234
0.8751658201217651 0.3172067403793335 0.57077556848526
0.8843246698379517 0.23568713665008545 0.38360777497291565
0.7544487118721008 0.223295658826828 0.5251263976097107
0.8638441562652588 0.26958373188972473 0.39129775762557983
0.8154894113540649 0.20321069657802582 0.544022798538208
0.7876381278038025 0.17775875329971313 0.3996327519416809
0.7554309964179993 0.23752523958683014 0.5345697999000549
0.8370039463043213 0.16999928653240204 0.5469799637794495
0.8796520233154297 0.3002379536628723 0.4555792808532715
0.8944841623306274 0.2061184197664261 0.55607008934021
0.8087366819381714 0.3613278567790985 0.452645480632782
0.7848151326179504 0.2854624390602112 0.4309805929660797
0.869600772857666 0.1709018349647522 0.4512277841567993
0.8008813261985779 0.13585783541202545 0.4869753122329712
0.7227798104286194 0.29978466033935547 0.4559577703475952
0.8499602675437927 0.16132989525794983 0.5749503970146179
0.79698646068573 0.28170427680015564 0.4302177131175995
0.8813700675964355 0.1866617500782013 0.5434256196022034
0.7953041195869446 0.14277900755405426 0.41036972403526306
0.7658171653747559 0.267010897397995 0.5067899227142334
0.8598791360855103 0.2865108251571655 0.5632103681564331
0.8460689187049866 0.27162274718284607 0.4561505615711212
0.7737908959388733 0.34357213973999023 0.43292689323425293
0.7916236519813538 0.12649086117744446 0.5030307769775391
0.8926294445991516 0.18467575311660767 0.5196008086204529
0.8090585470199585 0.30524197220802307 0.5833038687705994
0.8832626938819885 0.20241780579090118 0.5782463550567627
0.7165701985359192 0.19878004491329193 0.4758479595184326
0.8097425103187561 0.18565239012241364 0.42635899782180786
0.8121631741523743 0.2744691073894501 0.40603235363960266
0.8188765645027161 0.22798514366149902 0.4026919901371002
0.7994643449783325 0.22162961959838867 0.5076589584350586
0.834439218044281 0.29618892073631287 0.538971483707428
0.701744019985199 0.2647431194782257 0.47870901226997375
0.8622139096260071 0.28536197543144226 0.47162508964538574
0.7922128438949585 0.15606093406677246 0.4689483046531677
0.853848397731781 0.24699783325195312 0.4390067458152771
0.7330007553100586 0.16915491223335266 0.412471741437912
0.8881586790084839 0.24895192682743073 0.4559367597103119
0.7471880912780762 0.24261465668678284 0.5548118948936462
0.8384972214698792 0.2305915653705597 0.5434924364089966
0.7601150274276733 0.1621064990758896 0.44874218106269836
0.7441568374633789 0.1539730727672577 0.5327810049057007
0.7313156723976135 0.20456993579864502 0.5855435132980347
0.7934770584106445 0.24748682975769043 0.5655961632728577
0.8711697459220886 0.288209468126297 0.47443893551826477
0.7960558533668518 0.21630211174488068 0.5527353882789612
0.7830584645271301 0.17280161380767822 0.5548070073127747
0.8636258840560913 0.19981291890144348 0.5059950351715088
0.8816837072372437 0.25153034925460815 0.4859047830104828
0.766109824180603 0.29219427704811096 0.5328662395477295
0.8843246698379517 0.23568713665008545 0.38360777497291565
0.7544487118721008 0.223295658826828 0.5251263976097107
0.8638441562652588 0.26958373188972473 0.39129775762557983
0.8154894113540649 0.20321069657802582 0.544022798538208
0.7554309964179993 0.23752523958683014 0.5345697999000549
0.8370039463043213 0.16999928653240204 0.5469799637794495
0.8796520233154297 0.3002379536628723 0.4555792808532715
0.7524867653846741 0.18551833927631378 0.5137223601341248
0.8944841623306274 0.2061184197664261 0.55607008934021
0.7848151326179504 0.2854624390602112 0.4309805929660797
0.869600772857666 0.1709018349647522 0.4512277841567993
0.869600772857666 0.1709018349647522 0.4512277841567993
0.8008813261985779 0.13585783541202545 0.4869753122329712
0.7227798104286194 0.29978466033935547 0.4559577703475952
0.8499602675437927 0.16132989525794983 0.5749503970146179
0.79698646068573 0.28170427680015564 0.4302177131175995
0.819848358631134 0.16800393164157867 0.4542122483253479
0.8813700675964355 0.1866617500782013 0.5434256196022034
0.7878393530845642 0.2848197817802429 0.500046968460083
0.8369203805923462 0.3602607250213623 0.46175429224967957
0.7963422536849976 0.17922037839889526 0.4021732211112976
0.7695295214653015 0.13790348172187805 0.4143739640712738
0.6952561736106873 0.2814677655696869 0.4492679834365845
0.8221264481544495 0.3500497341156006 0.461893230676651
0.7756792306900024 0.19889704883098602 0.3941900134086609
0.7249528765678406 0.21534743905067444 0.5683978796005249
0.8115530610084534 0.2019890695810318 0.48306748270988464
0.8537742495536804 0.29265302419662476 0.46561282873153687
0.8828473091125488 0.23931927978992462 0.4435167610645294
0.7237163186073303 0.3053171634674072 0.47724777460098267
0.7387263178825378 0.19458667933940887 0.529177725315094
0.7689478993415833 0.16085317730903625 0.5119228959083557
0.7387263178825378 0.19458667933940887 0.529177725315094
0.7488104104995728 0.23885534703731537 0.5959554314613342
0.7829370498657227 0.1633467823266983 0.5017275810241699
0.722144365310669 0.24987034499645233 0.4481036067008972
0.8518298268318176 0.33965057134628296 0.48974260687828064
0.725734293460846 0.23978883028030396 0.5895122289657593
0.8337402939796448 0.20243945717811584 0.3820126950740814
0.7225723266601562 0.2973801791667938 0.4261476397514343
0.8574703931808472 0.3082239031791687 0.5630461573600769
0.8584375977516174 0.2705344557762146 0.424604207277298
0.7846577167510986 0.21364673972129822 0.4373244643211365
0.7339756488800049 0.1977476179599762 0.43491271138191223
0.8567587733268738 0.2768164575099945 0.5244748592376709
0.7790964841842651 0.12788890302181244 0.5066995024681091
0.8757454752922058 0.20514622330665588 0.4111407697200775
0.6891906261444092 0.2696431875228882 0.5236814022064209
0.6891906261444092 0.2696431875228882 0.5236814022064209
0.7824259996414185 0.12231627106666565 0.49058499932289124
0.7429462671279907 0.15962933003902435 0.3946010172367096
0.8972951173782349 0.1948474645614624 0.5511608123779297
0.7257531881332397 0.23015671968460083 0.5919482111930847
0.7433285117149353 0.2504297196865082 0.5952532887458801
0.7580574154853821 0.12521956861019135 0.45737937092781067
0.852695107460022 0.23592305183410645 0.5102366805076599
0.7904602289199829 0.1424884796142578 0.3767879009246826
0.7997678518295288 0.2578246295452118 0.5077698230743408
0.7735306024551392 0.2011106312274933 0.5324583649635315
0.8494387269020081 0.16110900044441223 0.4334206283092499
0.7491486668586731 0.27575963735580444 0.5383206009864807
0.799807071685791 0.1969144344329834 0.4592982232570648
0.798354983329773 0.15493902564048767 0.4398380517959595
0.8186845183372498 0.3364625871181488 0.4264526665210724
0.7756227850914001 0.32104918360710144 0.5148643255233765
0.8848333954811096 0.28111350536346436 0.5875512957572937
0.8564199209213257 0.2987865209579468 0.4987431764602661
0.8566227555274963 0.22867101430892944 0.5679478645324707
0.8775681257247925 0.3328777849674225 0.5029102563858032
0.707063615322113 0.23682670295238495 0.46130532026290894
0.775015652179718 0.11056672781705856 0.5227513909339905
0.8368679881095886 0.2995637357234955 0.45044034719467163
0.8484927415847778 0.23940476775169373 0.5592690706253052
0.7318288683891296 0.22419217228889465 0.4425427317619324
0.834022045135498 0.17149390280246735 0.4421994686126709
0.8161375522613525 0.17387543618679047 0.42439788579940796
0.8675382137298584 0.32554975152015686 0.42983362078666687
0.8379479646682739 0.1849842518568039 0.3855346441268921
0.7082048654556274 0.23923207819461823 0.5684953331947327
0.8319970369338989 0.32057708501815796 0.423908531665802
0.762437641620636 0.1261758655309677 0.5254327058792114
0.8131295442581177 0.2076335847377777 0.5893135070800781
0.7669298648834229 0.29942476749420166 0.4317045509815216
0.7486950755119324 0.167384073138237 0.4288822114467621
0.8499425053596497 0.18076695501804352 0.4447377920150757
0.7210758328437805 0.19628944993019104 0.5227754712104797
0.7982326149940491 0.26755717396736145 0.4752613306045532
0.7495666742324829 0.208823099732399 0.4561159610748291
0.7495666742324829 0.208823099732399 0.4561159610748291
0.78419029712677 0.2224821001291275 0.57356196641922
0.8221678137779236 0.20152314007282257 0.41303011775016785
0.7843262553215027 0.23650623857975006 0.5362150073051453
0.8299566507339478 0.14031559228897095 0.548649787902832
0.8685899972915649 0.30225667357444763 0.4111078977584839
0.738631010055542 0.21045836806297302 0.5765573382377625
0.8747272491455078 0.18988138437271118 0.4759221374988556
0.8581979274749756 0.3143097162246704 0.4320268929004669
0.7515714764595032 0.17086637020111084 0.4896300733089447
0.8739645481109619 0.2263554483652115 0.4598793089389801
0.7757208943367004 0.14681415259838104 0.5142215490341187
0.7422289252281189 0.20017804205417633 0.5657271146774292
0.8264575600624084 0.1547316163778305 0.4194224178791046
0.7890378832817078 0.18313100934028625 0.42671120166778564
0.706421971321106 0.2522777318954468 0.42797133326530457
0.7615995407104492 0.23119722306728363 0.5062523484230042
0.823034942150116 0.35189342498779297 0.45605313777923584
0.714379608631134 0.2805596888065338 0.4701541066169739
0.7756227850914001 0.32104918360710144 0.5148643255233765
0.8848333954811096 0.28111350536346436 0.5875512957572937
0.762445330619812 0.22869588434696198 0.5100846886634827
0.8564199209213257 0.2987865209579468 0.4987431764602661
0.8566227555274963 0.22867101430892944 0.5679478645324707
0.8012146949768066 0.2967858612537384 0.5993947386741638
0.8775681257247925 0.3328777849674225 0.5029102563858032
0.707063615322113 0.23682670295238495 0.46130532026290894
0.775015652179718 0.11056672781705856 0.5227513909339905
0.8368679881095886 0.2995637357234955 0.45044034719467163
0.8484927415847778 0.23940476775169373 0.5592690706253052
0.7318288683891296 0.22419217228889465 0.4425427317619324
0.834022045135498 0.17149390280246735 0.4421994686126709
0.7318288683891296 0.22419217228889465 0.4425427317619324
0.8675382137298584 0.32554975152015686 0.42983362078666687
0.8379479646682739 0.1849842518568039 0.3855346441268921
0.7082048654556274 0.23923207819461823 0.5684953331947327
0.8319970369338989 0.32057708501815796 0.423908531665802
0.7242486476898193 0.284524142742157 0.4653494656085968
0.7669298648834229 0.29942476749420166 0.4317045509815216
0.7299111485481262 0.26558229327201843 0.504622220993042
0.7243180274963379 0.21288909018039703 0.44940391182899475
0.7797617316246033 0.1905980259180069 0.4604010581970215
0.7880756258964539 0.20475050806999207 0.3975279927253723
0.7284581661224365 0.21616491675376892 0.6018210649490356
0.8501750826835632 0.14065155386924744 0.4881722331047058
0.8874315023422241 0.26045337319374084 0.5817342400550842
0.7658984661102295 0.15650756657123566 0.4992888569831848
0.7854222655296326 0.17077980935573578 0.5663891434669495
0.7136460542678833 0.29134470224380493 0.44093331694602966
0.7683332562446594 0.2687286138534546 0.46499907970428467
0.7136460542678833 0.29134470224380493 0.44093331694602966
0.8298615217208862 0.25496259331703186 0.5208194255828857
0.8361799716949463 0.35693714022636414 0.43080633878707886
0.8759461641311646 0.275510311126709 0.41196221113204956
0.7628953456878662 0.11627893149852753 0.46021828055381775
0.7681997418403625 0.15992243587970734 0.5071061849594116
0.8190781474113464 0.27089232206344604 0.48352697491645813
0.7438033223152161 0.2713806629180908 0.5786696672439575
0.8473877906799316 0.22835280001163483 0.5457120537757874
0.8404107689857483 0.19549088180065155 0.5313627123832703
0.7785987854003906 0.22578677535057068 0.4184117317199707
0.7440603971481323 0.24770452082157135 0.43365809321403503
0.801380455493927 0.15371698141098022 0.5740734934806824
0.7272099256515503 0.20624437928199768 0.564017117023468
0.7439426183700562 0.20514202117919922 0.4972921311855316
0.7622213959693909 0.29918229579925537 0.43264609575271606
0.7673740983009338 0.14338909089565277 0.542592465877533
0.7933657765388489 0.27411696314811707 0.6006911396980286
0.773648738861084 0.15893974900245667 0.4869384765625
0.7113460898399353 0.20541682839393616 0.5822354555130005
0.8731514811515808 0.26788511872291565 0.42330676317214966
0.8369203805923462 0.3602607250213623 0.46175429224967957
0.8501750826835632 0.14065155386924744 0.4881722331047058
0.8874315023422241 0.26045337319374084 0.5817342400550842
0.7658984661102295 0.15650756657123566 0.4992888569831848
0.7854222655296326 0.17077980935573578 0.5663891434669495
0.7191128134727478 0.2966848611831665 0.43110325932502747
0.7781948447227478 0.22003553807735443 0.5065563321113586
0.7606935501098633 0.18791928887367249 0.5361425876617432
0.8414584994316101 0.16316910088062286 0.5105411410331726
0.7234471440315247 0.2150907814502716 0.4481154978275299
0.7136460542678833 0.29134470224380493 0.44093331694602966
0.8298615217208862 0.25496259331703186 0.5208194255828857
0.8361799716949463 0.35693714022636414 0.43080633878707886
0.8759461641311646 0.275510311126709 0.41196221113204956
0.7628953456878662 0.11627893149852753 0.46021828055381775
0.7681997418403625 0.15992243587970734 0.5071061849594116
0.8190781474113464 0.27089232206344604 0.48352697491645813
0.7438033223152161 0.2713806629180908 0.5786696672439575
0.8473877906799316 0.22835280001163483 0.5457120537757874
0.8404107689857483 0.19549088180065155 0.5313627123832703
0.7785987854003906 0.22578677535057068 0.4184117317199707
0.8180603384971619 0.16953304409980774 0.4825310707092285
0.8716394305229187 0.31112873554229736 0.613519012928009
0.8350191116333008 0.31486430764198303 0.5982182621955872
0.8635127544403076 0.26578715443611145 0.47325634956359863
0.7636327743530273 0.27427148818969727 0.44236427545547485
0.7664273977279663 0.23529161512851715 0.4844505488872528
0.8574270009994507 0.2211504429578781 0.4418356716632843
0.8588553071022034 0.317798912525177 0.5502833724021912
0.7452773451805115 0.14921948313713074 0.386328786611557
0.6983504891395569 0.2497534453868866 0.4540982246398926
0.8638629913330078 0.3024992048740387 0.46697816252708435
0.7203994393348694 0.25335824489593506 0.49190613627433777
0.8157921433448792 0.3164798617362976 0.610215425491333
0.8410940170288086 0.20019342005252838 0.4588727653026581
0.844612717628479 0.3518826961517334 0.4296613037586212
0.7595943212509155 0.17270435392856598 0.5222673416137695
0.8143522143363953 0.26744964718818665 0.45457035303115845
0.820027768611908 0.17019212245941162 0.48019635677337646
0.8303506374359131 0.20274002850055695 0.5407431125640869
0.8243644833564758 0.24658352136611938 0.3896021246910095
0.7313772439956665 0.26612159609794617 0.45372000336647034
0.8290494680404663 0.16201156377792358 0.527841329574585
0.7981657385826111 0.12218232452869415 0.5330595970153809
0.7558544278144836 0.2396983653306961 0.5348455309867859
0.6990569829940796 0.25628718733787537 0.5263506770133972
0.7639025449752808 0.3213461935520172 0.4398678243160248
0.7243180274963379 0.21288909018039703 0.44940391182899475
0.7797617316246033 0.1905980259180069 0.4604010581970215
0.7880756258964539 0.20475050806999207 0.3975279927253723
0.7284581661224365 0.21616491675376892 0.6018210649490356
0.8501750826835632 0.14065155386924744 0.4881722331047058
0.8874315023422241 0.26045337319374084 0.5817342400550842
0.7658984661102295 0.15650756657123566 0.4992888569831848
0.7854222655296326 0.17077980935573578 0.5663891434669495
0.7191128134727478 0.2966848611831665 0.43110325932502747
0.7781948447227478 0.22003553807735443 0.5065563321113586
0.7606935501098633 0.18791928887367249 0.5361425876617432
0.8414584994316101 0.16316910088062286 0.5105411410331726
0.7234471440315247 0.2150907814502716 0.4481154978275299
0.7136460542678833 0.29134470224380493 0.44093331694602966
0.8298615217208862 0.25496259331703186 0.5208194255828857
0.8361799716949463 0.35693714022636414 0.43080633878707886
0.8759461641311646 0.275510311126709 0.41196221113204956
0.7486950755119324 0.167384073138237 0.4288822114467621
0.850904107093811 0.3058308959007263 0.4090629518032074
0.8456077575683594 0.3453045189380646 0.4521756172180176
0.8747968673706055 0.3170832693576813 0.4802424907684326
0.7967535257339478 0.2517537772655487 0.595477283000946
0.7746778130531311 0.11687790602445602 0.5415465235710144
0.8535601496696472 0.2219027876853943 0.5518190860748291
0.8575144410133362 0.15181779861450195 0.5607326626777649
0.8700198531150818 0.17141570150852203 0.4937368333339691
0.7666233777999878 0.26571667194366455 0.47580966353416443
0.858843207359314 0.1533661037683487 0.5124958157539368
0.7161034345626831 0.2180730253458023 0.6058512926101685
0.8417549729347229 0.31566572189331055 0.5140619277954102
0.8448880314826965 0.29536259174346924 0.5822782516479492
0.7055184841156006 0.27809926867485046 0.5028656125068665
0.8731206655502319 0.21280018985271454 0.42703840136528015
0.8337905406951904 0.25218552350997925 0.5545408725738525
0.7673740983009338 0.14338909089565277 0.542592465877533
0.7380964756011963 0.1635153442621231 0.4799434542655945
0.8091195225715637 0.3299342095851898 0.43026477098464966
0.7304961085319519 0.23547004163265228 0.5619631409645081
0.8754147887229919 0.20900119841098785 0.5417856574058533
0.8422082662582397 0.3371829092502594 0.5798634886741638
0.7918981313705444 0.22469718754291534 0.5741899609565735
0.8609597086906433 0.17116600275039673 0.4440058171749115
0.8626962900161743 0.21231871843338013 0.5496604442596436
0.6882236003875732 0.30082717537879944 0.4395807385444641
0.7906360030174255 0.16690024733543396 0.46304598450660706
0.792942225933075 0.24473881721496582 0.40843626856803894
0.831305205821991 0.2978399693965912 0.4111959636211395
0.7681244611740112 0.11937924474477768 0.5613716244697571
0.7910252809524536 0.14112572371959686 0.5319114923477173
0.8788407444953918 0.2432248592376709 0.530808687210083
0.797106921672821 0.24584725499153137 0.5601534247398376
0.8028242588043213 0.2907809019088745 0.5261088609695435
0.7116189002990723 0.23055188357830048 0.44383934140205383
0.813625693321228 0.14727269113063812 0.40386340022087097
0.8526071310043335 0.21155166625976562 0.5818913578987122
0.8237420916557312 0.14657346904277802 0.47562938928604126
0.7763395309448242 0.16067178547382355 0.4299681782722473
0.6883148550987244 0.2636401355266571 0.5087506175041199
0.8157995343208313 0.23198847472667694 0.4647373557090759
0.8691803812980652 0.16357992589473724 0.4711150825023651
0.7516680359840393 0.14689789712429047 0.3793815076351166
0.7555148601531982 0.23984141647815704 0.5144808888435364
0.8032499551773071 0.3063510060310364 0.6151486039161682
0.7319295406341553 0.20527106523513794 0.41626060009002686
0.8791234493255615 0.24265678226947784 0.37897050380706787
0.7448786497116089 0.184965580701828 0.41213101148605347
0.870402991771698 0.3158824145793915 0.44199037551879883
0.8160561323165894 0.21538719534873962 0.5355990529060364
0.73475581407547 0.20477016270160675 0.4398060142993927
0.8307387828826904 0.23171141743659973 0.550001859664917
0.766552209854126 0.1912306249141693 0.47525516152381897
0.7533601522445679 0.32416367530822754 0.4265800416469574
0.7533601522445679 0.32416367530822754 0.4265800416469574
0.7564808130264282 0.14378134906291962 0.4239357113838196
0.7796717286109924 0.148794487118721 0.4368804097175598
0.7435742020606995 0.1730157881975174 0.4142463803291321
0.7945319414138794 0.22702495753765106 0.39528897404670715
0.8133882880210876 0.180531308054924 0.5577247738838196
0.858025312423706 0.17306269705295563 0.5122166872024536
0.858025312423706 0.17306269705295563 0.5122166872024536
0.7714236378669739 0.29179495573043823 0.42968881130218506
0.8863895535469055 0.26974424719810486 0.41481438279151917
0.7558544278144836 0.2396983653306961 0.5348455309867859
0.6990569829940796 0.25628718733787537 0.5263506770133972
0.8481239676475525 0.2745446264743805 0.41923829913139343
0.7639025449752808 0.3213461935520172 0.4398678243160248
0.7243180274963379 0.21288909018039703 0.44940391182899475
0.7797617316246033 0.1905980259180069 0.4604010581970215
0.7880756258964539 0.20475050806999207 0.3975279927253723
0.7284581661224365 0.21616491675376892 0.6018210649490356
0.8501750826835632 0.14065155386924744 0.4881722331047058
0.8874315023422241 0.26045337319374084 0.5817342400550842
0.7658984661102295 0.15650756657123566 0.4992888569831848
0.7854222655296326 0.17077980935573578 0.5663891434669495
0.7191128134727478 0.2966848611831665 0.43110325932502747
0.7781948447227478 0.22003553807735443 0.5065563321113586
0.7606935501098633 0.18791928887367249 0.5361425876617432
0.706950306892395 0.22721630334854126 0.43763595819473267
0.8034601807594299 0.28887465596199036 0.41803207993507385
0.7877753973007202 0.1643322855234146 0.5791307091712952
0.7333400845527649 0.2233329713344574 0.4806114435195923
0.761133074760437 0.271795392036438 0.45005419850349426
0.8798965811729431 0.19887687265872955 0.3992573320865631
0.7958590984344482 0.2008410543203354 0.5540637373924255
0.7624182105064392 0.1995863914489746 0.43153059482574463
0.850904107093811 0.3058308959007263 0.4090629518032074
0.7824859023094177 0.3037238121032715 0.5027134418487549
0.8237190842628479 0.19387643039226532 0.4589223563671112
0.8121526837348938 0.25910696387290955 0.4190046489238739
0.8066907525062561 0.19155287742614746 0.4261475205421448
0.8449422717094421 0.2784286439418793 0.5212677121162415
0.7137044668197632 0.28666988015174866 0.45408424735069275
0.852124810218811 0.2663876414299011 0.5679868459701538
0.8751766681671143 0.2515502870082855 0.4850691854953766
0.7191128134727478 0.2966848611831665 0.43110325932502747
0.7781948447227478 0.22003553807735443 0.5065563321113586
0.7606935501098633 0.18791928887367249 0.5361425876617432
0.8414584994316101 0.16316910088062286 0.5105411410331726
0.7234471440315247 0.2150907814502716 0.4481154978275299
0.7136460542678833 0.29134470224380493 0.44093331694602966
0.8856543302536011 0.25390785932540894 0.5374126434326172
0.891136884689331 0.24338200688362122 0.5695123672485352
0.7233150601387024 0.19370914995670319 0.5660791993141174
0.8865830898284912 0.2819176912307739 0.4099137783050537
0.7470422387123108 0.19084396958351135 0.5215006470680237
0.7480784058570862 0.21171431243419647 0.4217453896999359
0.8814042806625366 0.3123602867126465 0.4399124085903168
0.8360292911529541 0.23858608305454254 0.5636800527572632
0.7289705276489258 0.17214231193065643 0.5579115748405457
0.7540814876556396 0.18415793776512146 0.4648049473762512
0.6890233159065247 0.276802659034729 0.4649631381034851
0.8343905806541443 0.25028756260871887 0.5485774874687195
0.7979711890220642 0.20431223511695862 0.5448433756828308
0.7564444541931152 0.1368231326341629 0.39000463485717773
0.8812692165374756 0.27547013759613037 0.5136173963546753
0.789583683013916 0.24286314845085144 0.5809404253959656
0.7442931532859802 0.19335955381393433 0.437107652425766
0.8428453803062439 0.26074522733688354 0.5434367060661316
0.7146581411361694 0.27147841453552246 0.5315542817115784
0.8465621471405029 0.2969837784767151 0.5214247107505798
0.8607762455940247 0.3047654628753662 0.5421531796455383
0.8434617519378662 0.30836915969848633 0.5228692293167114
0.8826102018356323 0.23801347613334656 0.5881545543670654
0.749812126159668 0.2270025759935379 0.4571782350540161
0.8748041391372681 0.17003792524337769 0.4833894371986389
0.8712347149848938 0.33718225359916687 0.41049641370773315
0.7314687967300415 0.19640733301639557 0.3957626223564148
0.7787635922431946 0.24243997037410736 0.4996337890625
0.8628720641136169 0.1691017895936966 0.5580715537071228
0.850732684135437 0.13978812098503113 0.5479070544242859
0.8686328530311584 0.13973891735076904 0.5723158121109009
0.8469679355621338 0.17734910547733307 0.5230149030685425
0.7421793937683105 0.15050485730171204 0.5456247329711914
0.7567567229270935 0.3283442258834839 0.4398481547832489
0.8414451479911804 0.24207976460456848 0.44475507736206055
0.8460617065429688 0.2472493201494217 0.5030295848846436
0.791994035243988 0.34032097458839417 0.4883294403553009
0.8837972283363342 0.2713673412799835 0.4668157994747162
0.8864759802818298 0.23355108499526978 0.471334844827652
0.8905222415924072 0.23427198827266693 0.49485957622528076
0.8400554656982422 0.13450202345848083 0.5028664469718933
0.7732852697372437 0.20965424180030823 0.5822256207466125
0.7660521864891052 0.22783872485160828 0.5182920098304749
0.8584381937980652 0.14605285227298737 0.4921879768371582
0.8612805604934692 0.30754363536834717 0.5187972784042358
0.747321605682373 0.19133393466472626 0.40148666501045227
0.8566910624504089 0.2692050635814667 0.4874870181083679
0.7880808115005493 0.34620401263237 0.45152488350868225
0.883747935295105 0.22584326565265656 0.39408078789711
0.847195029258728 0.14173193275928497 0.5431191921234131
0.7405247092247009 0.22363141179084778 0.4448569715023041
0.8226205706596375 0.23958076536655426 0.5566110610961914
0.777431309223175 0.15890543162822723 0.4033074676990509
0.7274984121322632 0.20652656257152557 0.5596833229064941
0.8515239357948303 0.15653979778289795 0.5070230960845947
0.8384231328964233 0.2971128523349762 0.4009072184562683
0.8440510630607605 0.24150419235229492 0.54400634765625
0.8337402939796448 0.20243945717811584 0.3820126950740814
0.7136460542678833 0.29134470224380493 0.44093331694602966
0.8298615217208862 0.25496259331703186 0.5208194255828857
0.8361799716949463 0.35693714022636414 0.43080633878707886
0.8759461641311646 0.275510311126709 0.41196221113204956
0.7628953456878662 0.11627893149852753 0.46021828055381775
0.7681997418403625 0.15992243587970734 0.5071061849594116
0.8190781474113464 0.27089232206344604 0.48352697491645813
0.7438033223152161 0.2713806629180908 0.5786696672439575
0.8473877906799316 0.22835280001163483 0.5457120537757874
0.8404107689857483 0.19549088180065155 0.5313627123832703
0.7785987854003906 0.22578677535057068 0.4184117317199707
0.8180603384971619 0.16953304409980774 0.4825310707092285
0.8716394305229187 0.31112873554229736 0.613519012928009
0.8350191116333008 0.31486430764198303 0.5982182621955872
0.8635127544403076 0.26578715443611145 0.47325634956359863
0.7636327743530273 0.27427148818969727 0.44236427545547485
0.8760896325111389 0.2744779884815216 0.4789184629917145
0.8098169565200806 0.2586521804332733 0.5353475213050842
0.7506663203239441 0.14058619737625122 0.49055925011634827
0.8649197220802307 0.18229733407497406 0.4055062234401703
0.8786292672157288 0.22876115143299103 0.3924258053302765
0.7560011744499207 0.14723388850688934 0.571561872959137
0.76695716381073 0.22059598565101624 0.5090509653091431
0.8436140418052673 0.18621522188186646 0.5789546370506287
0.8618270754814148 0.22662828862667084 0.5475252270698547
0.8148916363716125 0.3312141001224518 0.5026929378509521
0.769989550113678 0.26558181643486023 0.5126879215240479
0.7417783141136169 0.20396827161312103 0.4600618779659271
0.7886444926261902 0.3315501809120178 0.4539315104484558
0.7149074673652649 0.263170063495636 0.5262365341186523
0.8928155303001404 0.18642239272594452 0.5766639113426208
0.7257531881332397 0.23015671968460083 0.5919482111930847
0.7136460542678833 0.29134470224380493 0.44093331694602966
0.8298615217208862 0.25496259331703186 0.5208194255828857
0.8361799716949463 0.35693714022636414 0.43080633878707886
0.8759461641311646 0.275510311126709 0.41196221113204956
0.7628953456878662 0.11627893149852753 0.46021828055381775
0.7681997418403625 0.15992243587970734 0.5071061849594116
0.8190781474113464 0.27089232206344604 0.48352697491645813
0.7438033223152161 0.2713806629180908 0.5786696672439575
0.8473877906799316 0.22835280001163483 0.5457120537757874
0.8404107689857483 0.19549088180065155 0.5313627123832703
0.7785987854003906 0.22578677535057068 0.4184117317199707
0.8180603384971619 0.16953304409980774 0.4825310707092285
0.8716394305229187 0.31112873554229736 0.613519012928009
0.8350191116333008 0.31486430764198303 0.5982182621955872
0.8635127544403076 0.26578715443611145 0.47325634956359863
0.7636327743530273 0.27427148818969727 0.44236427545547485
0.8760896325111389 0.2744779884815216 0.4789184629917145
0.8098169565200806 0.2586521804332733 0.5353475213050842
0.8279058933258057 0.11369023472070694 0.5489633083343506
0.853164553642273 0.2645082175731659 0.4423119127750397
0.8197131752967834 0.2848558723926544 0.5714940428733826
0.7769691944122314 0.1338272988796234 0.5095564126968384
0.7875117063522339 0.3408815562725067 0.43560126423835754
0.8374196887016296 0.24774383008480072 0.590606689453125
0.820098340511322 0.20435510575771332 0.430342435836792
0.7795708775520325 0.2699151039123535 0.49300187826156616
0.8148916363716125 0.3312141001224518 0.5026929378509521
0.7366841435432434 0.2953532040119171 0.4739624261856079
0.8157007694244385 0.11280836910009384 0.539538562297821
0.8816613554954529 0.2829614579677582 0.5994210839271545
0.8700198531150818 0.17141570150852203 0.4937368333339691
0.8287671208381653 0.32017436623573303 0.5901623368263245
0.766552209854126 0.1912306249141693 0.47525516152381897
0.7137886881828308 0.2055419236421585 0.4314762055873871
0.7774690985679626 0.17299607396125793 0.4142700135707855
0.7945319414138794 0.22702495753765106 0.39528897404670715
0.8133882880210876 0.180531308054924 0.5577247738838196
0.858025312423706 0.17306269705295563 0.5122166872024536
0.7714236378669739 0.29179495573043823 0.42968881130218506
0.8895442485809326 0.22359274327754974 0.38400599360466003
0.7400537729263306 0.23943491280078888 0.5664628148078918
0.7515320181846619 0.16989941895008087 0.46270957589149475
0.7209294438362122 0.2498437762260437 0.4897724986076355
0.8410940170288086 0.20019342005252838 0.4588727653026581
0.844612717628479 0.3518826961517334 0.4296613037586212
0.7595943212509155 0.17270435392856598 0.5222673416137695
0.8143522143363953 0.26744964718818665 0.45457035303115845
0.820027768611908 0.17019212245941162 0.48019635677337646
0.8303506374359131 0.20274002850055695 0.5407431125640869
0.8243644833564758 0.24658352136611938 0.3896021246910095
0.7313772439956665 0.26612159609794617 0.45372000336647034
0.8290494680404663 0.16201156377792358 0.527841329574585
0.7981657385826111 0.12218232452869415 0.5330595970153809
0.7558544278144836 0.2396983653306961 0.5348455309867859
0.6990569829940796 0.25628718733787537 0.5263506770133972
0.7639025449752808 0.3213461935520172 0.4398678243160248
0.7243180274963379 0.21288909018039703 0.44940391182899475
0.7797617316246033 0.1905980259180069 0.4604010581970215
0.8279058933258057 0.11369023472070694 0.5489633083343506
0.853164553642273 0.2645082175731659 0.4423119127750397
0.8197131752967834 0.2848558723926544 0.5714940428733826
0.7769691944122314 0.1338272988796234 0.5095564126968384
0.7875117063522339 0.3408815562725067 0.43560126423835754
0.8378772735595703 0.226226806640625 0.4387916922569275
0.8826102018356323 0.23801347613334656 0.5881545543670654
0.8064836859703064 0.27628737688064575 0.43197768926620483
0.8856393098831177 0.23395562171936035 0.4638274908065796
0.87908935546875 0.18659266829490662 0.5580725073814392
0.7622213959693909 0.29918229579925537 0.43264609575271606
0.7673740983009338 0.14338909089565277 0.542592465877533
0.7380964756011963 0.1635153442621231 0.4799434542655945
0.8091195225715637 0.3299342095851898 0.43026477098464966
0.7304961085319519 0.23547004163265228 0.5619631409645081
0.8754147887229919 0.20900119841098785 0.5417856574058533
0.8422082662582397 0.3371829092502594 0.5798634886741638
0.7918981313705444 0.22469718754291534 0.5741899609565735
0.8609597086906433 0.17116600275039673 0.4440058171749115
0.8626962900161743 0.21231871843338013 0.5496604442596436
0.6882236003875732 0.30082717537879944 0.4395807385444641
0.7144855260848999 0.26475265622138977 0.515580952167511
0.8887707591056824 0.2517821788787842 0.5049466490745544
0.8850656151771545 0.16212348639965057 0.5770808458328247
0.7491821050643921 0.15195676684379578 0.41966333985328674
0.8594953417778015 0.2528891861438751 0.5498946309089661
0.7523221373558044 0.16299669444561005 0.5836389660835266
0.7906360030174255 0.16690024733543396 0.46304598450660706
0.8892262578010559 0.2012196034193039 0.4099366366863251
0.7641043066978455 0.16689346730709076 0.40034380555152893
0.7818114161491394 0.2973896861076355 0.43316924571990967
0.831305205821991 0.2978399693965912 0.4111959636211395
0.80129474401474 0.18981890380382538 0.509716808795929
0.8304108381271362 0.30079376697540283 0.43633630871772766
0.7910252809524536 0.14112572371959686 0.5319114923477173
0.7285446524620056 0.2504928708076477 0.4553997814655304
0.849262535572052 0.24102918803691864 0.4155564606189728
0.7400537729263306 0.23943491280078888 0.5664628148078918
0.8417549729347229 0.31566572189331055 0.5140619277954102
0.8448880314826965 0.29536259174346924 0.5822782516479492
0.8546500205993652 0.2188934087753296 0.5922093987464905
0.7673740983009338 0.14338909089565277 0.542592465877533
0.7380964756011963 0.1635153442621231 0.4799434542655945
0.8091195225715637 0.3299342095851898 0.43026477098464966
0.8915396332740784 0.21055002510547638 0.3756895959377289
0.743006706237793 0.14310653507709503 0.3966951072216034
0.8360147476196289 0.253924697637558 0.42291250824928284
0.8321184515953064 0.30969056487083435 0.5258628726005554
0.7164999842643738 0.2417987883090973 0.417731910943985
0.8190712928771973 0.2123022824525833 0.5075719952583313
0.7906360030174255 0.16690024733543396 0.46304598450660706
0.8892262578010559 0.2012196034193039 0.4099366366863251
0.7641043066978455 0.16689346730709076 0.40034380555152893
0.7818114161491394 0.2973896861076355 0.43316924571990967
0.831305205821991 0.2978399693965912 0.4111959636211395
0.7681244611740112 0.11937924474477768 0.5613716244697571
0.7910252809524536 0.14112572371959686 0.5319114923477173
0.7285446524620056 0.2504928708076477 0.4553997814655304
0.849262535572052 0.24102918803691864 0.4155564606189728
0.8411079049110413 0.17648527026176453 0.48226842284202576
0.8669208884239197 0.2543559968471527 0.5998675227165222
0.7242034077644348 0.2062917947769165 0.5688203573226929
0.7283992767333984 0.194658562541008 0.5106372833251953
0.7815662622451782 0.3108145594596863 0.4469112455844879
0.7442454099655151 0.20946747064590454 0.4373224973678589
0.8260823488235474 0.2794688045978546 0.6008729338645935
0.7651855945587158 0.129848450422287 0.5160824060440063
0.790022075176239 0.1799551546573639 0.5804836750030518
0.7301445007324219 0.293631911277771 0.45289182662963867
0.7785987854003906 0.22578677535057068 0.4184117317199707
0.8816613554954529 0.2829614579677582 0.5994210839271545
0.8700198531150818 0.17141570150852203 0.4937368333339691
0.7666233777999878 0.26571667194366455 0.47580966353416443
0.7092946767807007 0.25623056292533875 0.5471820831298828
0.8532994389533997 0.26438432931900024 0.455558180809021
0.818500816822052 0.15434743463993073 0.49099549651145935
0.8059011697769165 0.12386907637119293 0.4557231366634369
0.7879007458686829 0.19267238676548004 0.39593809843063354
0.7778180241584778 0.2911008894443512 0.558414101600647
0.8873793482780457 0.2637806236743927 0.5664668679237366
0.7496994733810425 0.2456212192773819 0.5109004974365234
0.8224231004714966 0.2362390011548996 0.5708212852478027
0.8393527865409851 0.34387895464897156 0.5509857535362244
0.8366417288780212 0.19970546662807465 0.5331516265869141
0.692362904548645 0.27038460969924927 0.5020743012428284
0.8560385704040527 0.2946398854255676 0.49048104882240295
0.6913095712661743 0.2626982033252716 0.4734155535697937
0.7356547117233276 0.22386378049850464 0.5613130927085876
0.8099915385246277 0.16316603124141693 0.5436116456985474
0.7893865704536438 0.24217097461223602 0.46116018295288086
0.8474867939949036 0.16565358638763428 0.5472462773323059
0.8669208884239197 0.2543559968471527 0.5998675227165222
0.7242034077644348 0.2062917947769165 0.5688203573226929
0.7283992767333984 0.194658562541008 0.5106372833251953
0.7815662622451782 0.3108145594596863 0.4469112455844879
0.7442454099655151 0.20946747064590454 0.4373224973678589
0.8260823488235474 0.2794688045978546 0.6008729338645935
0.7651855945587158 0.129848450422287 0.5160824060440063
0.8674886226654053 0.2602875828742981 0.48470959067344666
0.7301445007324219 0.293631911277771 0.45289182662963867
0.819839596748352 0.17207100987434387 0.5599093437194824
0.8714606761932373 0.30171990394592285 0.5165367722511292
0.8759837746620178 0.15864798426628113 0.5031663179397583
0.7363020181655884 0.2353103756904602 0.4813028573989868
0.8641996383666992 0.22459474205970764 0.4562683701515198
0.8928635120391846 0.2160649299621582 0.4250921607017517
0.8516507744789124 0.269507497549057 0.4187660217285156
0.858843207359314 0.1533661037683487 0.5124958157539368
0.7161034345626831 0.2180730253458023 0.6058512926101685
0.8417549729347229 0.31566572189331055 0.5140619277954102
0.8448880314826965 0.29536259174346924 0.5822782516479492
0.7055184841156006 0.27809926867485046 0.5028656125068665
0.8731206655502319 0.21280018985271454 0.42703840136528015
0.8337905406951904 0.25218552350997925 0.5545408725738525
0.8809512853622437 0.17100974917411804 0.5276781320571899
0.8295621275901794 0.2177954763174057 0.4768531918525696
0.818500816822052 0.15434743463993073 0.49099549651145935
0.8059011697769165 0.12386907637119293 0.4557231366634369
0.7879007458686829 0.19267238676548004 0.39593809843063354
0.8239571452140808 0.29814425110816956 0.510075569152832
0.8049963712692261 0.2378646731376648 0.5065514445304871
0.7910025715827942 0.17656345665454865 0.38757747411727905
0.800561785697937 0.20596109330654144 0.5089753270149231
0.7954679131507874 0.24308329820632935 0.469998836517334
0.8241941332817078 0.2579491138458252 0.4824317991733551
0.7813377976417542 0.20471736788749695 0.585966944694519
0.7924210429191589 0.18603211641311646 0.5348409414291382
0.8333247900009155 0.15127679705619812 0.5547529458999634
0.8729106783866882 0.2817712724208832 0.5270333290100098
0.8418775200843811 0.2676633596420288 0.4585314095020294
0.7149106860160828 0.28117072582244873 0.46609988808631897
0.7391574382781982 0.3097233772277832 0.42476290464401245
0.7720919251441956 0.24349774420261383 0.48168113827705383
0.8580803871154785 0.20637987554073334 0.3763752281665802
0.7683868408203125 0.27174699306488037 0.43558579683303833
0.7428151369094849 0.27911248803138733 0.44430291652679443
0.7715222835540771 0.2434728443622589 0.5355912446975708
0.8574272990226746 0.3313809931278229 0.4682560861110687
0.8649195432662964 0.1769677996635437 0.5132949352264404
0.7816644310951233 0.25015324354171753 0.5198906064033508
0.7684030532836914 0.23854413628578186 0.4262752830982208
0.8830962181091309 0.221536323428154 0.4237259328365326
0.7125824093818665 0.3098289668560028 0.4292342960834503
0.7755114436149597 0.19894500076770782 0.5077077746391296
0.8239571452140808 0.29814425110816956 0.510075569152832
0.8049963712692261 0.2378646731376648 0.5065514445304871
0.7910025715827942 0.17656345665454865 0.38757747411727905
0.800561785697937 0.20596109330654144 0.5089753270149231
0.7954679131507874 0.24308329820632935 0.469998836517334
0.8241941332817078 0.2579491138458252 0.4824317991733551
0.7813377976417542 0.20471736788749695 0.585966944694519
0.7924210429191589 0.18603211641311646 0.5348409414291382
0.8333247900009155 0.15127679705619812 0.5547529458999634
0.8729106783866882 0.2817712724208832 0.5270333290100098
0.7451552152633667 0.25691425800323486 0.5632963180541992
0.798662006855011 0.3345372676849365 0.42164450883865356
0.7749056816101074 0.24124175310134888 0.5958356261253357
0.7770623564720154 0.2844278812408447 0.5665472745895386
0.7795200943946838 0.15865281224250793 0.5460012555122375
0.7555215358734131 0.14992833137512207 0.3969095051288605
0.7933133244514465 0.2937248647212982 0.5952636003494263
0.7998228669166565 0.14113527536392212 0.48371607065200806
0.839424192905426 0.2214711308479309 0.5483787655830383
0.7469470500946045 0.13517330586910248 0.3939211964607239
0.8601760268211365 0.24661925435066223 0.4217376112937927
0.8439450263977051 0.13527818024158478 0.5352943539619446
0.7247727513313293 0.273134708404541 0.42655110359191895
0.7365759611129761 0.22013935446739197 0.5301566123962402
0.8128758668899536 0.30459699034690857 0.4609815776348114
0.785863995552063 0.30132436752319336 0.556011974811554
0.8834040760993958 0.19642072916030884 0.469943106174469
0.7729671001434326 0.2060992270708084 0.5716699361801147
0.7396356463432312 0.2380131483078003 0.42428821325302124
0.8983038067817688 0.1962396651506424 0.4869648814201355
0.8676594495773315 0.27926740050315857 0.5434661507606506
0.7379612326622009 0.29149138927459717 0.4449935257434845
0.8327865600585938 0.17393340170383453 0.4560324251651764
0.8473365902900696 0.1527079939842224 0.4956205487251282
0.8237671852111816 0.34481149911880493 0.48247289657592773
0.8751290440559387 0.2045239508152008 0.5103878378868103
0.7088637351989746 0.22329914569854736 0.6065276265144348
0.7522594928741455 0.29910808801651 0.533805787563324
0.7927820682525635 0.26449865102767944 0.5393248796463013
0.803852915763855 0.16171063482761383 0.5139287710189819
0.7770743370056152 0.1387263685464859 0.4780636727809906
0.8615418672561646 0.34277576208114624 0.5398457646369934
0.7829087972640991 0.19258400797843933 0.5582457184791565
0.7252174615859985 0.29503607749938965 0.4303573668003082
0.7978431582450867 0.1193271204829216 0.4697982668876648
0.8013075590133667 0.338323712348938 0.4751889407634735
0.7754908204078674 0.22447563707828522 0.5837531685829163
0.7835865020751953 0.22790169715881348 0.5496122241020203
0.8505067825317383 0.18884237110614777 0.4481187164783478
0.8462123870849609 0.2268235832452774 0.4258929193019867
0.7658482193946838 0.24492953717708588 0.4837152361869812
0.8585321307182312 0.35545527935028076 0.48020821809768677
0.7629725337028503 0.24627554416656494 0.5440905690193176
0.8384231328964233 0.2971128523349762 0.4009072184562683
0.8303061127662659 0.18202750384807587 0.5039133429527283
0.8498232364654541 0.31607872247695923 0.5440195202827454
0.8267009258270264 0.12466395646333694 0.549206018447876
0.8336957693099976 0.3029894232749939 0.4397495985031128
0.862668514251709 0.27782928943634033 0.45591816306114197
