ply
format ascii 1.0
element vertex 835
property float x
property float y
property float z
end_header
0.41900837421417236 0.6957972645759583 0.5422005653381348
0.3421098291873932 0.6952568292617798 0.5202948451042175
0.4137957990169525 0.8114506602287292 0.5145699381828308
0.39770781993865967 0.6888580918312073 0.5912961959838867
0.3189166784286499 0.7698967456817627 0.5432060956954956
0.4279840588569641 0.6710916757583618 0.5801987648010254
0.40414848923683167 0.7186241149902344 0.4337046444416046
0.379063218832016 0.8353994488716125 0.5792558789253235
0.4301929473876953 0.8274880647659302 0.57236647605896
0.38363882899284363 0.7289344668388367 0.5677903890609741
0.2535181939601898 0.702135443687439 0.45990264415740967
0.3637096583843231 0.8227401971817017 0.46224844455718994
0.3443411588668823 0.7823822498321533 0.5421537756919861
0.3816848397254944 0.6936405301094055 0.577548086643219
0.44423145055770874 0.6855316162109375 0.48260805010795593
0.3351670205593109 0.7188452482223511 0.43462613224983215
0.39750802516937256 0.8401483297348022 0.4013866186141968
0.39312371611595154 0.7726939916610718 0.4797908365726471
0.38316380977630615 0.7715950608253479 0.4675387740135193
0.2994305491447449 0.6634436845779419 0.5054849982261658
0.307316392660141 0.8027351498603821 0.593837559223175
0.33299094438552856 0.7818812131881714 0.5735649466514587
0.41905415058135986 0.7452936768531799 0.41694894433021545
0.37474119663238525 0.7290632724761963 0.4031694829463959
0.3502066135406494 0.7519993185997009 0.4325104057788849
0.3207741677761078 0.853682279586792 0.5352420806884766
0.3344986140727997 0.6673757433891296 0.5200617909431458
0.2625643014907837 0.8487598896026611 0.42573508620262146
0.3926122784614563 0.6813337206840515 0.42705973982810974
0.43464624881744385 0.823478639125824 0.4778790771961212
0.41656073927879333 0.840428352355957 0.4417628049850464
0.28898704051971436 0.7272653579711914 0.43856823444366455
0.31488990783691406 0.6961854100227356 0.40885040163993835
0.40207549929618835 0.7222328782081604 0.4924042820930481
0.39089444279670715 0.7049305438995361 0.587547779083252
0.38750797510147095 0.8118146061897278 0.4293930232524872
0.35935771465301514 0.6980703473091125 0.4798651933670044
0.3810124397277832 0.8092020153999329 0.5404247641563416
0.26027363538742065 0.6926446557044983 0.5900554060935974
0.3102792501449585 0.8512825965881348 0.4712405800819397
0.38187411427497864 0.7181696891784668 0.47624561190605164
0.379859060049057 0.7504169344902039 0.5881193280220032
0.42077428102493286 0.7104446291923523 0.5256801843643188
0.3928625285625458 0.792673647403717 0.469052255153656
0.41940414905548096 0.8021290302276611 0.5927464962005615
0.2702729105949402 0.7478603720664978 0.4204288423061371
0.2986776828765869 0.7618173956871033 0.4133286774158478
0.28936949372291565 0.7527885437011719 0.5794603824615479
0.3410431444644928 0.7431460022926331 0.5054425597190857
0.4071938693523407 0.8445065021514893 0.46067604422569275
0.337639182806015 0.7494978904724121 0.578204870223999
0.39672937989234924 0.806988000869751 0.5276552438735962
0.3174206018447876 0.7750458717346191 0.47225722670555115
0.4089653491973877 0.815235435962677 0.4753016233444214
0.41665640473365784 0.8201496005058289 0.5506469011306763
0.38175952434539795 0.8334604501724243 0.5633574724197388
0.42473140358924866 0.7173742055892944 0.5865828990936279
0.2783316969871521 0.8100653290748596 0.5205870866775513
0.44032520055770874 0.696064293384552 0.5172993540763855
0.4150773286819458 0.8152890801429749 0.5510252118110657
0.3123694062232971 0.8505098819732666 0.42253103852272034
0.3465898931026459 0.7019324898719788 0.45792463421821594
0.338552325963974 0.7056503891944885 0.5417606830596924
0.40665721893310547 0.7256518602371216 0.5745808482170105
0.4322972893714905 0.6655990481376648 0.4967764914035797
0.25161510705947876 0.7799191474914551 0.5566223859786987
0.39031511545181274 0.8084796667098999 0.526470422744751
0.38851362466812134 0.8150233030319214 0.5596602559089661
0.3110741674900055 0.7841507792472839 0.5812651515007019
0.2932431101799011 0.7008935809135437 0.4964938461780548
0.3768378794193268 0.777795672416687 0.4845737814903259
0.2618011236190796 0.7368617653846741 0.47137489914894104
0.29838690161705017 0.8290322422981262 0.42239654064178467
0.258102685213089 0.7436233758926392 0.5626527070999146
0.40507474541664124 0.7299098968505859 0.5888357162475586
0.3338032066822052 0.728723406791687 0.5289334058761597
0.40927815437316895 0.777266263961792 0.5551095008850098
0.3226570785045624 0.7444113492965698 0.430745393037796
0.3903668522834778 0.836855411529541 0.5536699295043945
0.2927021086215973 0.8402130603790283 0.4169098138809204
0.4414267838001251 0.7445992827415466 0.5126361846923828
0.33465471863746643 0.7852194905281067 0.5366427898406982
0.32097697257995605 0.8552080988883972 0.43254145979881287
0.4055629372596741 0.7877628803253174 0.523546040058136
0.2743900418281555 0.6995073556900024 0.422293096780777
0.37759220600128174 0.796635091304779 0.4416802227497101
0.302175372838974 0.781074583530426 0.4806039035320282
0.36623165011405945 0.8326578736305237 0.5305866599082947
0.376703679561615 0.6911466121673584 0.5129120945930481
0.3185790479183197 0.7508824467658997 0.40070274472236633
0.38964077830314636 0.7873786091804504 0.584059476852417
0.3751012682914734 0.8450538516044617 0.4755885601043701
0.28098979592323303 0.7623630166053772 0.4446985125541687
0.39437878131866455 0.813744843006134 0.5078113675117493
0.2615862786769867 0.8297414779663086 0.5348014235496521
0.27557143568992615 0.6809027194976807 0.5430753231048584
0.3737582862377167 0.8259389400482178 0.5390161871910095
0.41527652740478516 0.7508203387260437 0.42700690031051636
0.27535200119018555 0.7811791300773621 0.4424816370010376
0.37062475085258484 0.6998891234397888 0.5970838069915771
0.4120205044746399 0.7395718693733215 0.4538496136665344
0.30621984601020813 0.7753058671951294 0.41516736149787903
0.29793253540992737 0.8228853940963745 0.41771188378334045
0.31776899099349976 0.6756358742713928 0.5091437697410583
0.393167108297348 0.7984555959701538 0.5964085459709167
0.35782885551452637 0.759618878364563 0.5375767350196838
0.4216746389865875 0.8029046654701233 0.5019655823707581
0.3510492742061615 0.808928370475769 0.41859427094459534
0.3687629699707031 0.8022945523262024 0.5104101300239563
0.4076487123966217 0.7075538039207458 0.4988618493080139
0.31342601776123047 0.8092631697654724 0.553636908531189
0.4326207935810089 0.8567723035812378 0.4809027314186096
0.4466829299926758 0.7459716796875 0.47595083713531494
0.3035079836845398 0.7965156435966492 0.5270448327064514
0.3452033996582031 0.8509793281555176 0.5326947569847107
0.4424394965171814 0.6751933097839355 0.4118409752845764
0.38823795318603516 0.7514776587486267 0.43796128034591675
0.3769463300704956 0.7602851390838623 0.4351835548877716
0.37819820642471313 0.841193437576294 0.47856059670448303
0.2611139416694641 0.6724783778190613 0.4481718838214874
0.2511204481124878 0.77835613489151 0.47568169236183167
0.402117520570755 0.7892140746116638 0.47714322805404663
0.4492183327674866 0.7772910594940186 0.45039474964141846
0.4142894446849823 0.8279349207878113 0.5239890813827515
0.41836845874786377 0.7349442839622498 0.48215585947036743
0.2998834550380707 0.8142657279968262 0.40521886944770813
0.3113575875759125 0.8561604022979736 0.5657212138175964
0.43507155776023865 0.6584373116493225 0.5113803744316101
0.40550878643989563 0.7755581140518188 0.4986323118209839
0.3730464279651642 0.7013652324676514 0.40746501088142395
0.35743993520736694 0.6782135963439941 0.45149776339530945
0.40360960364341736 0.6815885305404663 0.5549549460411072
0.399481862783432 0.8355841040611267 0.4143838584423065
0.4111230969429016 0.8035502433776855 0.587206244468689
0.2499741017818451 0.6913025379180908 0.4206621050834656
0.2803216576576233 0.665361225605011 0.43453508615493774
0.43063247203826904 0.7870789766311646 0.581591010093689
0.32742980122566223 0.8555394411087036 0.5981766581535339
0.3207741677761078 0.853682279586792 0.5352420806884766
0.3344986140727997 0.6673757433891296 0.5200617909431458
0.2625643014907837 0.8487598896026611 0.42573508620262146
0.3548436462879181 0.6933699250221252 0.41410982608795166
0.43464624881744385 0.823478639125824 0.4778790771961212
0.41656073927879333 0.840428352355957 0.4417628049850464
0.28898704051971436 0.7272653579711914 0.43856823444366455
0.31488990783691406 0.6961854100227356 0.40885040163993835
0.40207549929618835 0.7222328782081604 0.4924042820930481
0.39089444279670715 0.7049305438995361 0.587547779083252
0.38750797510147095 0.8118146061897278 0.4293930232524872
0.38750797510147095 0.8118146061897278 0.4293930232524872
0.35935771465301514 0.6980703473091125 0.4798651933670044
0.3810124397277832 0.8092020153999329 0.5404247641563416
0.26027363538742065 0.6926446557044983 0.5900554060935974
0.3102792501449585 0.8512825965881348 0.4712405800819397
0.38187411427497864 0.7181696891784668 0.47624561190605164
0.2547064423561096 0.8321304321289062 0.5020655393600464
0.27504870295524597 0.7751714587211609 0.5127451419830322
0.2992779314517975 0.7414710521697998 0.5759332180023193
0.4405384063720703 0.7331655621528625 0.5724266171455383
0.3941512405872345 0.7214929461479187 0.5775256156921387
0.37426090240478516 0.7024826407432556 0.5935877561569214
0.41900837421417236 0.6957972645759583 0.5422005653381348
0.3421098291873932 0.6952568292617798 0.5202948451042175
0.4137957990169525 0.8114506602287292 0.5145699381828308
0.39770781993865967 0.6888580918312073 0.5912961959838867
0.3189166784286499 0.7698967456817627 0.5432060956954956
0.4279840588569641 0.6710916757583618 0.5801987648010254
0.27571901679039 0.840377688407898 0.40245410799980164
0.30018487572669983 0.8160057067871094 0.5361254811286926
0.35197848081588745 0.8245552182197571 0.472391813993454
0.3189166784286499 0.7698967456817627 0.5432060956954956
0.4279840588569641 0.6710916757583618 0.5801987648010254
0.27571901679039 0.840377688407898 0.40245410799980164
0.30018487572669983 0.8160057067871094 0.5361254811286926
0.2752881944179535 0.8101703524589539 0.47549179196357727
0.40507474541664124 0.7299098968505859 0.5888357162475586
0.3338032066822052 0.728723406791687 0.5289334058761597
0.40927815437316895 0.777266263961792 0.5551095008850098
0.3226570785045624 0.7444113492965698 0.430745393037796
0.3903668522834778 0.836855411529541 0.5536699295043945
0.2927021086215973 0.8402130603790283 0.4169098138809204
0.2949003279209137 0.7854323387145996 0.568415641784668
0.33835771679878235 0.8361443877220154 0.540154755115509
0.4451121687889099 0.6676046848297119 0.4024861752986908
0.42077428102493286 0.7104446291923523 0.5256801843643188
0.3928625285625458 0.792673647403717 0.469052255153656
0.2636527717113495 0.7519508004188538 0.4080354869365692
0.30529525876045227 0.7694778442382812 0.488878458738327
0.28733742237091064 0.7274171710014343 0.5973728895187378
0.36446788907051086 0.7053450345993042 0.4123919904232025
0.4461687207221985 0.7244484424591064 0.4315450191497803
0.3949512243270874 0.7830498218536377 0.48121941089630127
0.28122639656066895 0.8282945156097412 0.4209232032299042
0.414170503616333 0.7862969040870667 0.41005972027778625
0.42759180068969727 0.6853235960006714 0.4982509911060333
0.33811822533607483 0.8388122320175171 0.5273293852806091
0.40812161564826965 0.7907487154006958 0.41512393951416016
0.39474985003471375 0.7213518023490906 0.47325485944747925
0.3643283247947693 0.7342902421951294 0.5297132730484009
0.2908734381198883 0.7347102761268616 0.4211198389530182
0.4113680124282837 0.7334623336791992 0.49850553274154663
0.30018487572669983 0.8160057067871094 0.5361254811286926
0.3338032066822052 0.728723406791687 0.5289334058761597
0.40927815437316895 0.777266263961792 0.5551095008850098
0.3226570785045624 0.7444113492965698 0.430745393037796
0.3903668522834778 0.836855411529541 0.5536699295043945
0.2927021086215973 0.8402130603790283 0.4169098138809204
0.2949003279209137 0.7854323387145996 0.568415641784668
0.3794911801815033 0.7203620076179504 0.474361777305603
0.30720046162605286 0.8326148986816406 0.4400184750556946
0.2665126621723175 0.6725592613220215 0.5371276140213013
0.27079975605010986 0.82860267162323 0.42883428931236267
0.3370848596096039 0.8477009534835815 0.5310525298118591
0.2757030725479126 0.6858314275741577 0.5038555860519409
0.3376460671424866 0.8194143772125244 0.5718587636947632
0.2840377986431122 0.6710692048072815 0.5141572952270508
0.31050756573677063 0.7230278253555298 0.48038485646247864
0.2765645980834961 0.8287803530693054 0.4221566319465637
0.3221493661403656 0.8427545428276062 0.48519113659858704
0.42940035462379456 0.8223584294319153 0.5228424668312073
0.3910673260688782 0.7169491648674011 0.40785452723503113
0.3888525664806366 0.6952313184738159 0.507361114025116
0.4142250716686249 0.7574319839477539 0.5211383104324341
0.3024624288082123 0.702200174331665 0.45825570821762085
0.3781237006187439 0.7758105993270874 0.5432397127151489
0.32722052931785583 0.6989850997924805 0.5064047574996948
0.31302928924560547 0.8095107078552246 0.4405991733074188
0.39576560258865356 0.8307855725288391 0.5893068909645081
0.388702392578125 0.8062142133712769 0.4476030468940735
0.26688069105148315 0.8341403603553772 0.44599446654319763
0.3276587128639221 0.6883710622787476 0.5322710871696472
0.2972910702228546 0.6838157176971436 0.5549900531768799
0.28138086199760437 0.7907060384750366 0.40376484394073486
0.2752881944179535 0.8101703524589539 0.47549179196357727
0.40507474541664124 0.7299098968505859 0.5888357162475586
0.3338032066822052 0.728723406791687 0.5289334058761597
0.40927815437316895 0.777266263961792 0.5551095008850098
0.3226570785045624 0.7444113492965698 0.430745393037796
0.3903668522834778 0.836855411529541 0.5536699295043945
0.4216746389865875 0.8029046654701233 0.5019655823707581
0.2530010938644409 0.6983551383018494 0.40013760328292847
0.37706851959228516 0.7939725518226624 0.5153465867042542
0.2722148895263672 0.7821471095085144 0.49652165174484253
0.4049469530582428 0.799592912197113 0.5360965728759766
0.39239501953125 0.820842981338501 0.5561780333518982
0.41973647475242615 0.7181258201599121 0.5010685324668884
0.2904577851295471 0.816333532333374 0.5990129709243774
0.3649996221065521 0.7280263900756836 0.469929575920105
0.387765496969223 0.7661861777305603 0.4347355365753174
0.3250467777252197 0.7351789474487305 0.5041444301605225
0.3577817678451538 0.7888502478599548 0.4050843119621277
0.2578431963920593 0.7952526211738586 0.4582030475139618
0.41736096143722534 0.842583954334259 0.4066999554634094
0.3961718678474426 0.7717540264129639 0.4842287600040436
0.2915940284729004 0.7145201563835144 0.47738027572631836
0.28882646560668945 0.6709514856338501 0.4771694242954254
0.3299208879470825 0.7360092401504517 0.49099528789520264
0.3098449110984802 0.727230429649353 0.5134137868881226
0.2849166989326477 0.7638936042785645 0.458091676235199
0.30990421772003174 0.8320804834365845 0.5798318386077881
0.3640531003475189 0.8317544460296631 0.5155474543571472
0.399481862783432 0.8355841040611267 0.4143838584423065
0.2904140055179596 0.7128294706344604 0.5737480521202087
0.2803501486778259 0.6777266263961792 0.4471777081489563
0.44305938482284546 0.7994251251220703 0.5297712087631226
0.3465489149093628 0.7565814256668091 0.5746377110481262
0.35851040482521057 0.7193346619606018 0.43477240204811096
0.4154013693332672 0.7324746251106262 0.5869429707527161
0.4212486743927002 0.8041979670524597 0.4022466540336609
0.4155552089214325 0.7791035771369934 0.4344223737716675
0.4228437840938568 0.6960705518722534 0.43523916602134705
0.34824374318122864 0.7078214287757874 0.47000518441200256
0.35267373919487 0.8321142792701721 0.5101864337921143
0.293136328458786 0.7677980661392212 0.5031908750534058
0.41708576679229736 0.6839840412139893 0.4088844954967499
0.31265634298324585 0.7150132060050964 0.5045561194419861
0.3930421471595764 0.6880312561988831 0.5780037641525269
0.40540093183517456 0.8074737191200256 0.4438651204109192
0.3197142481803894 0.824541449546814 0.44500207901000977
0.26083219051361084 0.6691721677780151 0.4528513252735138
0.38019734621047974 0.7438957095146179 0.49647220969200134
0.33533918857574463 0.7357285022735596 0.5578551292419434
0.399481862783432 0.8355841040611267 0.4143838584423065
0.4111230969429016 0.8035502433776855 0.587206244468689
0.2499741017818451 0.6913025379180908 0.4206621050834656
0.42731091380119324 0.8185176253318787 0.40534496307373047
0.42356643080711365 0.8367645740509033 0.5752351880073547
0.328660786151886 0.6985950469970703 0.4697306454181671
0.3266071379184723 0.8002526760101318 0.5973495841026306
0.3969639539718628 0.7682892680168152 0.5124286413192749
0.35288965702056885 0.8292547464370728 0.48499470949172974
0.3804844617843628 0.7243565320968628 0.40460795164108276
0.28039273619651794 0.7993881106376648 0.4423670768737793
0.255627304315567 0.695264995098114 0.46835196018218994
0.3814273178577423 0.7322540283203125 0.4114419221878052
0.3560028076171875 0.8230287432670593 0.4735075533390045
0.28333404660224915 0.7466195225715637 0.531187891960144
0.4135075509548187 0.836385190486908 0.4074479639530182
0.30561134219169617 0.7118991613388062 0.462803453207016
0.369878351688385 0.7552353739738464 0.4538233280181885
0.2899310290813446 0.7029392123222351 0.4438844621181488
0.3210500180721283 0.7194384336471558 0.43241775035858154
0.29916098713874817 0.7367847561836243 0.4383406341075897
0.44320791959762573 0.8296105861663818 0.43864867091178894
0.3519423007965088 0.8368588089942932 0.4801971912384033
0.4223431646823883 0.8380087614059448 0.479854553937912
0.271984338760376 0.8565184473991394 0.5150780081748962
0.3813394010066986 0.7893407344818115 0.5309849977493286
0.4120287299156189 0.8409900665283203 0.42447036504745483
0.41604378819465637 0.7173572182655334 0.5450915694236755
0.36539462208747864 0.6648643016815186 0.4251976013183594
0.28937244415283203 0.6766462922096252 0.5525434613227844
0.372590035200119 0.7346215844154358 0.49021413922309875
0.25171297788619995 0.8075010180473328 0.43846163153648376
0.35842952132225037 0.8272181749343872 0.4652208387851715
0.28333404660224915 0.7466195225715637 0.531187891960144
0.3697659373283386 0.6767163276672363 0.5672086477279663
0.38803544640541077 0.8443528413772583 0.44239723682403564
0.32231539487838745 0.7375664114952087 0.4820815324783325
0.3592338562011719 0.7118957042694092 0.537050187587738
0.3551715612411499 0.7571669220924377 0.48068803548812866
0.31303855776786804 0.6827401518821716 0.44515863060951233
0.3253374993801117 0.8313865065574646 0.4345446228981018
0.3905036747455597 0.8470942378044128 0.5532364845275879
0.44726309180259705 0.7444862723350525 0.5931611061096191
0.37179818749427795 0.7748269438743591 0.5378889441490173
0.3994441628456116 0.6655095815658569 0.5494940280914307
0.4388643503189087 0.740985631942749 0.5795189738273621
0.3167193830013275 0.7910056710243225 0.4918350577354431
0.3969423770904541 0.7409700751304626 0.4761947691440582
0.3129059672355652 0.723243236541748 0.456865519285202
0.26409485936164856 0.6612848043441772 0.5986557602882385
0.4272769093513489 0.6609179973602295 0.43643590807914734
0.2843334972858429 0.6756895780563354 0.4448397159576416
0.25970345735549927 0.6753262877464294 0.4448387622833252
0.3347581923007965 0.7487828731536865 0.5231642127037048
0.42403221130371094 0.7101393342018127 0.4538246691226959
0.43391287326812744 0.6947620511054993 0.42315977811813354
0.33495843410491943 0.7985671162605286 0.5927184820175171
0.3822275996208191 0.6817675828933716 0.43810275197029114
0.305658757686615 0.8443008661270142 0.5890475511550903
0.3785167336463928 0.8061323165893555 0.4365188777446747
0.39722007513046265 0.844436526298523 0.5627754330635071
0.2730824947357178 0.6729068160057068 0.47945746779441833
0.4450988173484802 0.8382492065429688 0.44858449697494507
0.37396782636642456 0.7767082452774048 0.5212982296943665
0.3695198893547058 0.7352620363235474 0.505224347114563
0.2548685371875763 0.7479177713394165 0.43873900175094604
0.41079026460647583 0.6941540241241455 0.4334629476070404
0.3861013650894165 0.671108603477478 0.5260578393936157
0.30598315596580505 0.7183369994163513 0.45796769857406616
0.30647337436676025 0.7378065586090088 0.49313127994537354
0.37339362502098083 0.7673105001449585 0.4077165722846985
0.4157080054283142 0.8104223608970642 0.5078318119049072
0.3559967279434204 0.7665938138961792 0.5706733465194702
0.33507511019706726 0.7641215324401855 0.5166850686073303
0.4498293995857239 0.7981875538825989 0.5420927405357361
0.4453231990337372 0.7041508555412292 0.43770596385002136
0.36864373087882996 0.751777708530426 0.5887957811355591
0.4297126531600952 0.7786505222320557 0.47298991680145264
0.4350697100162506 0.6967485547065735 0.5398076176643372
0.2843334972858429 0.6756895780563354 0.4448397159576416
0.39577579498291016 0.7829501032829285 0.5120936632156372
0.4098912179470062 0.810229480266571 0.4482686221599579
0.3020477294921875 0.7174202799797058 0.4458802044391632
0.38025963306427 0.8526065349578857 0.4761747717857361
0.3503866493701935 0.8134157657623291 0.5142757892608643
0.28315308690071106 0.7551329731941223 0.5700585246086121
0.34279516339302063 0.6841168403625488 0.5612793564796448
0.33891555666923523 0.7509086728096008 0.4731919765472412
0.38657253980636597 0.7296007871627808 0.41747525334358215
0.2929471731185913 0.6726498603820801 0.5807066559791565
0.2517243027687073 0.8020068407058716 0.4874650239944458
0.3301496207714081 0.8379498720169067 0.42836201190948486
0.43206334114074707 0.8430393934249878 0.41922494769096375
0.280996173620224 0.7272602915763855 0.47631096839904785
0.26644614338874817 0.7179893851280212 0.5189997553825378
0.3568507134914398 0.6757911443710327 0.43919843435287476
0.27569031715393066 0.8357838988304138 0.43336108326911926
0.38803544640541077 0.8443528413772583 0.44239723682403564
0.4350697100162506 0.6967485547065735 0.5398076176643372
0.3551715612411499 0.7571669220924377 0.48068803548812866
0.31303855776786804 0.6827401518821716 0.44515863060951233
0.3253374993801117 0.8313865065574646 0.4345446228981018
0.3905036747455597 0.8470942378044128 0.5532364845275879
0.36771029233932495 0.8106181621551514 0.5515152812004089
0.3674021065235138 0.7146312594413757 0.406112939119339
0.33086198568344116 0.7994149923324585 0.5411951541900635
0.3269812762737274 0.8429926037788391 0.5234225392341614
0.42967960238456726 0.7400051355361938 0.5131703615188599
0.2560684084892273 0.673058807849884 0.40802252292633057
0.3025672733783722 0.7442934513092041 0.40708670020103455
0.40440696477890015 0.8249906301498413 0.4208223819732666
0.2894628047943115 0.8381375074386597 0.5572774410247803
0.39722007513046265 0.844436526298523 0.5627754330635071
0.2730824947357178 0.6729068160057068 0.47945746779441833
0.4450988173484802 0.8382492065429688 0.44858449697494507
0.37396782636642456 0.7767082452774048 0.5212982296943665
0.3695198893547058 0.7352620363235474 0.505224347114563
0.2548685371875763 0.7479177713394165 0.43873900175094604
0.41079026460647583 0.6941540241241455 0.4334629476070404
0.3861013650894165 0.671108603477478 0.5260578393936157
0.30598315596580505 0.7183369994163513 0.45796769857406616
0.2728002071380615 0.697724461555481 0.42676717042922974
0.256502628326416 0.8274508714675903 0.5218698978424072
0.35110941529273987 0.7858044505119324 0.5033701658248901
0.26435402035713196 0.8314043879508972 0.5729182362556458
0.4237217307090759 0.7851284742355347 0.4974667727947235
0.3780483305454254 0.784731388092041 0.5069171190261841
0.4462224841117859 0.7485436797142029 0.49713772535324097
0.2852199673652649 0.7576006054878235 0.43980246782302856
0.4251185655593872 0.737361490726471 0.5803190469741821
0.31129616498947144 0.7782735228538513 0.4191124141216278
0.3616154193878174 0.7332329154014587 0.44108670949935913
0.3718571960926056 0.8416528105735779 0.5181196331977844
0.2687511444091797 0.7048961520195007 0.46562129259109497
0.3348643183708191 0.7139763236045837 0.44993746280670166
0.33470842242240906 0.6852865815162659 0.5011522173881531
0.42030245065689087 0.6703137159347534 0.49980735778808594
0.29986771941185 0.7283875942230225 0.5023190975189209
0.4469081163406372 0.7571192979812622 0.4962223172187805
0.3052925765514374 0.8346871137619019 0.4076690673828125
0.2970431447029114 0.8108424544334412 0.5697267651557922
0.44935429096221924 0.8040849566459656 0.47218725085258484
0.3786958158016205 0.6622961163520813 0.5835067629814148
0.2843334972858429 0.6756895780563354 0.4448397159576416
0.39722007513046265 0.844436526298523 0.5627754330635071
0.2730824947357178 0.6729068160057068 0.47945746779441833
0.4450988173484802 0.8382492065429688 0.44858449697494507
0.37396782636642456 0.7767082452774048 0.5212982296943665
0.3695198893547058 0.7352620363235474 0.505224347114563
0.2548685371875763 0.7479177713394165 0.43873900175094604
0.41079026460647583 0.6941540241241455 0.4334629476070404
0.3861013650894165 0.671108603477478 0.5260578393936157
0.30598315596580505 0.7183369994163513 0.45796769857406616
0.30647337436676025 0.7378065586090088 0.49313127994537354
0.37339362502098083 0.7673105001449585 0.4077165722846985
0.4157080054283142 0.8104223608970642 0.5078318119049072
0.3559967279434204 0.7665938138961792 0.5706733465194702
0.33507511019706726 0.7641215324401855 0.5166850686073303
0.4498293995857239 0.7981875538825989 0.5420927405357361
0.4453231990337372 0.7041508555412292 0.43770596385002136
0.36864373087882996 0.751777708530426 0.5887957811355591
0.4297126531600952 0.7786505222320557 0.47298991680145264
0.4350697100162506 0.6967485547065735 0.5398076176643372
0.3551715612411499 0.7571669220924377 0.48068803548812866
0.31303855776786804 0.6827401518821716 0.44515863060951233
0.3253374993801117 0.8313865065574646 0.4345446228981018
0.3905036747455597 0.8470942378044128 0.5532364845275879
0.36771029233932495 0.8106181621551514 0.5515152812004089
0.3674021065235138 0.7146312594413757 0.406112939119339
0.33086198568344116 0.7994149923324585 0.5411951541900635
0.2682381570339203 0.7766262292861938 0.5837211012840271
0.3949248492717743 0.6796764731407166 0.5595451593399048
0.33967846632003784 0.7025740146636963 0.52797532081604
0.34403347969055176 0.8455024361610413 0.44287729263305664
0.4428790211677551 0.6922211647033691 0.492540568113327
0.3028288781642914 0.7884010672569275 0.5932013988494873
0.39722007513046265 0.844436526298523 0.5627754330635071
0.3815998435020447 0.7870354056358337 0.4994715750217438
0.4248408079147339 0.8551528453826904 0.4195626676082611
0.4478845000267029 0.8326228260993958 0.41031426191329956
0.3985835015773773 0.8157679438591003 0.5393484234809875
0.4403529167175293 0.6978386044502258 0.5497613549232483
0.25296273827552795 0.8283713459968567 0.560433566570282
0.25172340869903564 0.8280782103538513 0.5574412941932678
0.2667522430419922 0.7030108571052551 0.43184125423431396
0.3591245412826538 0.7218847870826721 0.5962197184562683
0.44591808319091797 0.6686641573905945 0.42672809958457947
0.42563822865486145 0.8309872150421143 0.4403592646121979
0.2944051921367645 0.7540602684020996 0.42263391613960266
0.27685973048210144 0.7853769063949585 0.4852865934371948
0.39619287848472595 0.7334144711494446 0.4766489863395691
0.3197891414165497 0.8423001170158386 0.517927885055542
0.26742956042289734 0.7455898523330688 0.4873114824295044
0.3019624650478363 0.820275604724884 0.5061407089233398
0.44726309180259705 0.7444862723350525 0.5931611061096191
0.3852939307689667 0.8571146130561829 0.502792477607727
0.32940927147865295 0.6720722317695618 0.4153372049331665
0.38770899176597595 0.7134953141212463 0.41004133224487305
0.33013302087783813 0.8540721535682678 0.4273822605609894
0.43892064690589905 0.7689188122749329 0.45360684394836426
0.3921382427215576 0.8091277480125427 0.4120383858680725
0.37921950221061707 0.7411720752716064 0.49277257919311523
0.30682432651519775 0.8200792074203491 0.41939857602119446
0.365640252828598 0.7144964933395386 0.4696519672870636
0.2944756746292114 0.7758753299713135 0.5352600812911987
0.413025438785553 0.7172297239303589 0.5059703588485718
0.27780354022979736 0.7777565121650696 0.5037499070167542
0.42403221130371094 0.7101393342018127 0.4538246691226959
0.44638946652412415 0.7118733525276184 0.43549859523773193
0.34914758801460266 0.762782633304596 0.4075106382369995
0.3770424723625183 0.7764095664024353 0.4961105287075043
0.36909475922584534 0.8265892863273621 0.4437246322631836
0.325813889503479 0.7673277854919434 0.4720989167690277
0.44414153695106506 0.8252416849136353 0.4231794774532318
0.2583690285682678 0.840187132358551 0.4610725939273834
0.34583520889282227 0.7525216341018677 0.5660167336463928
0.35533711314201355 0.7832613587379456 0.5303321480751038
0.3594028949737549 0.7723377346992493 0.5440294146537781
0.35126668214797974 0.7167763113975525 0.4533311426639557
0.2767132520675659 0.7973445057868958 0.46333053708076477
0.2885626554489136 0.7539853453636169 0.5541512966156006
0.35181742906570435 0.7210541367530823 0.5899184346199036
0.4325488209724426 0.8286424279212952 0.520431637763977
0.29415836930274963 0.7834353446960449 0.5227445960044861
0.2666451930999756 0.7004865407943726 0.48975154757499695
0.25173643231391907 0.7857800126075745 0.5251513719558716
0.4031258523464203 0.7474933862686157 0.584089457988739
0.42167139053344727 0.6802195310592651 0.5353363156318665
0.2913562059402466 0.8062697649002075 0.44648978114128113
0.3924633264541626 0.8162174820899963 0.4099458158016205
0.4103626608848572 0.7892608642578125 0.40719807147979736
0.3976178467273712 0.7362720370292664 0.5016021728515625
0.2942073345184326 0.6885400414466858 0.4295324385166168
0.2721327245235443 0.7243001461029053 0.5837545990943909
0.3288344442844391 0.8337950110435486 0.5862730741500854
0.2750171422958374 0.7899723052978516 0.4976525604724884
0.3179185390472412 0.7328221797943115 0.47951287031173706
0.42646515369415283 0.6882830858230591 0.5335851311683655
0.4438674747943878 0.8400219082832336 0.46372926235198975
0.3640531003475189 0.8317544460296631 0.5155474543571472
0.383122056722641 0.6735266447067261 0.5101014971733093
0.3819538950920105 0.8531076312065125 0.5996876358985901
0.38127216696739197 0.7116692066192627 0.44505003094673157
0.3339974284172058 0.7663904428482056 0.5010987520217896
0.42739176750183105 0.7733760476112366 0.5667329430580139
0.2661225497722626 0.7586314678192139 0.5318194031715393
0.2795148491859436 0.6867728233337402 0.43288901448249817
0.31696635484695435 0.8126605749130249 0.5232011675834656
0.39962297677993774 0.7330273985862732 0.5580847263336182
0.4377304017543793 0.7391914129257202 0.5628718137741089
0.3772977292537689 0.6686191558837891 0.5525976419448853
0.32729995250701904 0.7090521454811096 0.4476439952850342
0.4017461836338043 0.6758731007575989 0.4487451910972595
0.439370334148407 0.8471547365188599 0.450386643409729
0.266462504863739 0.7645092010498047 0.4516482651233673
0.3718761205673218 0.6789014339447021 0.4465563893318176
0.37473201751708984 0.6722732186317444 0.5587218403816223
0.253246009349823 0.829159677028656 0.4050520658493042
0.2938055694103241 0.7696974277496338 0.546698808670044
0.43470126390457153 0.7211982011795044 0.5648466348648071
0.3249368965625763 0.8382951617240906 0.5677638649940491
0.44853487610816956 0.727074146270752 0.4397889971733093
0.3804283142089844 0.787997305393219 0.49075937271118164
0.28200462460517883 0.6614627242088318 0.5448791980743408
0.3870857357978821 0.6980046629905701 0.526382327079773
0.259124755859375 0.7394023537635803 0.5701900124549866
0.34068572521209717 0.8501285910606384 0.5483104586601257
0.419871985912323 0.840671956539154 0.40854281187057495
0.38738691806793213 0.8107901811599731 0.533847451210022
0.3869174122810364 0.8196905255317688 0.48537737131118774
0.3437584638595581 0.8262137174606323 0.5086259841918945
0.399481862783432 0.8355841040611267 0.4143838584423065
0.3798111379146576 0.6769086122512817 0.5831824541091919
0.3419204354286194 0.8406078219413757 0.402163028717041
0.3615463376045227 0.6592580676078796 0.4438174366950989
0.3542129695415497 0.7207556962966919 0.5512493252754211
0.43691393733024597 0.7217845916748047 0.4737604856491089
0.2536819875240326 0.7329915165901184 0.4052427411079407
0.3767384886741638 0.7353261113166809 0.5054100751876831
0.2933496832847595 0.7090325951576233 0.5826978087425232
0.26149410009384155 0.6702638268470764 0.44914156198501587
0.32613447308540344 0.839218258857727 0.5445722937583923
0.267260879278183 0.6990149617195129 0.5213699340820312
0.367422878742218 0.7615821361541748 0.5432894229888916
0.4317931532859802 0.6766104698181152 0.5799537301063538
0.2665061354637146 0.8098486661911011 0.5406022071838379
0.26594269275665283 0.8177364468574524 0.565491795539856
0.394635945558548 0.7127102017402649 0.5600755214691162
0.4134626090526581 0.7563056349754333 0.5815653800964355
0.2887597680091858 0.7024003267288208 0.5411697030067444
0.32855087518692017 0.7553269863128662 0.5265653729438782
0.31213536858558655 0.7489513158798218 0.543228030204773
0.3059408962726593 0.7079057097434998 0.5837612748146057
0.44469618797302246 0.7915863990783691 0.5970660448074341
0.2706076204776764 0.7573140263557434 0.5003402233123779
0.38036903738975525 0.8021154999732971 0.5055680274963379
0.347127765417099 0.7009075880050659 0.4261060655117035
0.384269654750824 0.7402271032333374 0.5391713380813599
0.44809237122535706 0.7859503030776978 0.40173888206481934
0.37842440605163574 0.7008222937583923 0.4078420400619507
0.405917763710022 0.7515524625778198 0.500688910484314
0.4280862510204315 0.8073816299438477 0.4136117696762085
0.328818142414093 0.6808127760887146 0.47655242681503296
0.3695198893547058 0.7352620363235474 0.505224347114563
0.3551715612411499 0.7571669220924377 0.48068803548812866
0.31303855776786804 0.6827401518821716 0.44515863060951233
0.3253374993801117 0.8313865065574646 0.4345446228981018
0.3905036747455597 0.8470942378044128 0.5532364845275879
0.36771029233932495 0.8106181621551514 0.5515152812004089
0.3674021065235138 0.7146312594413757 0.406112939119339
0.27516740560531616 0.6960370540618896 0.5719175934791565
0.2629531919956207 0.6915329098701477 0.4004727303981781
0.3699900209903717 0.7699817419052124 0.5163040161132812
0.32935088872909546 0.8094858527183533 0.55312579870224
0.33071112632751465 0.7330676317214966 0.48392626643180847
0.3894171416759491 0.7265982627868652 0.5413232445716858
0.39386287331581116 0.7831577062606812 0.5623558163642883
0.3266090452671051 0.8108102083206177 0.46176669001579285
0.259811669588089 0.6846151947975159 0.5222116708755493
0.3996690511703491 0.7319080829620361 0.43194079399108887
0.4250151813030243 0.8538685441017151 0.5881556868553162
0.4092053472995758 0.7702557444572449 0.40402930974960327
0.378521203994751 0.721071183681488 0.491214394569397
0.26237136125564575 0.8001909852027893 0.44228023290634155
0.30331459641456604 0.8178313970565796 0.5417566895484924
0.32973313331604004 0.7646225094795227 0.47232744097709656
0.31298235058784485 0.7094044089317322 0.463112473487854
0.3860429525375366 0.8311589956283569 0.5202422142028809
0.3703169822692871 0.6863816976547241 0.5942111015319824
0.2551764249801636 0.7677691578865051 0.4842601418495178
0.42622455954551697 0.6786238551139832 0.5055328011512756
0.2948361933231354 0.8006340265274048 0.47613659501075745
0.3483409583568573 0.8043338656425476 0.4096660017967224
0.44229286909103394 0.7429795861244202 0.42054229974746704
0.4475642740726471 0.6614224314689636 0.4477197527885437
0.2763471305370331 0.6889780759811401 0.43464159965515137
0.3128185570240021 0.759535014629364 0.5028624534606934
0.27516740560531616 0.6960370540618896 0.5719175934791565
0.2629531919956207 0.6915329098701477 0.4004727303981781
0.3699900209903717 0.7699817419052124 0.5163040161132812
0.35304945707321167 0.7995932102203369 0.5055266618728638
0.4309858977794647 0.7078636288642883 0.4352061450481415
0.29206719994544983 0.7763839364051819 0.4448496401309967
0.37049201130867004 0.6738775968551636 0.599118173122406
0.3518466353416443 0.8182433247566223 0.4720046818256378
0.42108091711997986 0.7820299863815308 0.518546998500824
0.36117640137672424 0.7580275535583496 0.5684755444526672
0.38630568981170654 0.7210841774940491 0.44177964329719543
0.41129839420318604 0.7966979742050171 0.4573686718940735
0.3489896357059479 0.7810428738594055 0.5826321840286255
0.2759547829627991 0.8116814494132996 0.43835389614105225
0.2913970947265625 0.7443944215774536 0.5953640341758728
0.37852346897125244 0.7405335307121277 0.49081841111183167
0.2618800103664398 0.7998418211936951 0.5544941425323486
0.30708327889442444 0.7063827514648438 0.544021725654602
0.3338662385940552 0.7794519066810608 0.46157053112983704
0.3230683505535126 0.7654752135276794 0.4996245801448822
0.3088165819644928 0.6859648823738098 0.5931313633918762
0.39914411306381226 0.698524534702301 0.43755990266799927
0.42515259981155396 0.7343699932098389 0.5625095963478088
0.3199678361415863 0.6888737082481384 0.43264588713645935
0.43188849091529846 0.7562050819396973 0.554271399974823
0.36439353227615356 0.8470273613929749 0.5108779072761536
0.43957462906837463 0.6875647902488708 0.45086878538131714
0.3889372944831848 0.7359645366668701 0.547008216381073
0.43778008222579956 0.8544450402259827 0.5080484747886658
0.32677802443504333 0.8241442441940308 0.41074806451797485
0.38803544640541077 0.8443528413772583 0.44239723682403564
0.3994441628456116 0.6655095815658569 0.5494940280914307
0.4388643503189087 0.740985631942749 0.5795189738273621
0.29350683093070984 0.6975916028022766 0.5055283308029175
0.27766692638397217 0.8303054571151733 0.40293365716934204
0.26314496994018555 0.8360426425933838 0.4562261402606964
0.43339547514915466 0.8474582433700562 0.5957219004631042
0.4026828408241272 0.720801055431366 0.5100271105766296
0.3393269181251526 0.697799026966095 0.5152639150619507
0.3949812352657318 0.6904140114784241 0.48153653740882874
0.4100028872489929 0.840444028377533 0.40915757417678833
0.3701235353946686 0.8191484212875366 0.48737090826034546
0.25319236516952515 0.7371912002563477 0.537610650062561
0.3418588936328888 0.7953953146934509 0.49978408217430115
0.33476507663726807 0.7737982273101807 0.4037642180919647
0.35155627131462097 0.6775205731391907 0.5007458329200745
0.25651663541793823 0.776002049446106 0.4732019603252411
0.3081541955471039 0.8432467579841614 0.42693793773651123
0.42253926396369934 0.7357475161552429 0.5134693384170532
0.43634483218193054 0.8378236889839172 0.4769943654537201
0.27173808217048645 0.7856510877609253 0.522580087184906
0.3933371603488922 0.6901406049728394 0.5735452771186829
0.3487575948238373 0.7472607493400574 0.564647912979126
0.264473557472229 0.6845685839653015 0.5466400980949402
0.38651227951049805 0.6660779714584351 0.5842495560646057
0.28776949644088745 0.7314745187759399 0.46839234232902527
0.3751039206981659 0.7130599021911621 0.5295820236206055
0.38135647773742676 0.6887773275375366 0.570447564125061
0.3808278441429138 0.677558183670044 0.5205186605453491
0.3306979238986969 0.7472597360610962 0.45115000009536743
0.42021432518959045 0.7805814146995544 0.42989587783813477
0.338554322719574 0.7307187914848328 0.46956101059913635
0.31303855776786804 0.6827401518821716 0.44515863060951233
0.3651731610298157 0.6636989712715149 0.5055563449859619
0.4310307204723358 0.6695762276649475 0.4683184027671814
0.2749164402484894 0.7541022896766663 0.4973990023136139
0.42571327090263367 0.8262436985969543 0.5532003045082092
0.4304750859737396 0.7444762587547302 0.5324268937110901
0.33259788155555725 0.780590832233429 0.5826071500778198
0.30629703402519226 0.7805706858634949 0.5384743809700012
0.3920399844646454 0.7777411341667175 0.5223467946052551
0.2859417200088501 0.8430831432342529 0.49095407128334045
0.2995562255382538 0.7572042942047119 0.40432503819465637
0.2765522301197052 0.7394498586654663 0.5653623342514038
0.37080150842666626 0.7092074751853943 0.5501297116279602
0.3210565745830536 0.8221707940101624 0.5379223227500916
0.3084771931171417 0.7186813354492188 0.42803239822387695
0.42857351899147034 0.7312915921211243 0.5442154407501221
0.44512939453125 0.7586950063705444 0.5297902226448059
0.3499167263507843 0.7800999283790588 0.5092079639434814
0.2786570191383362 0.7092239260673523 0.5790005922317505
0.2778383493423462 0.7949873208999634 0.5737683773040771
0.4291776418685913 0.693695604801178 0.5768511295318604
0.31241053342819214 0.663233757019043 0.5364199280738831
0.3623109757900238 0.7436362504959106 0.4506613314151764
0.3440094590187073 0.8447723984718323 0.44103768467903137
0.3880734145641327 0.7924199104309082 0.48142191767692566
0.29259300231933594 0.7859596014022827 0.5134192705154419
0.3188888430595398 0.7568635940551758 0.4198419153690338
0.4298895001411438 0.8224335312843323 0.4241523742675781
0.2816406190395355 0.8444861769676208 0.5650190711021423
0.4312637448310852 0.7591692805290222 0.42290425300598145
0.35484787821769714 0.7454293370246887 0.560857355594635
0.3218163549900055 0.7497164607048035 0.5823121666908264
0.26314496994018555 0.8360426425933838 0.4562261402606964
0.25319236516952515 0.7371912002563477 0.537610650062561
0.3418588936328888 0.7953953146934509 0.49978408217430115
0.4351979196071625 0.673355758190155 0.4883071482181549
0.400917112827301 0.742122232913971 0.552628219127655
0.42618948221206665 0.7129046320915222 0.43175724148750305
0.25781068205833435 0.8270112872123718 0.4199911952018738
0.2587920129299164 0.7585399746894836 0.5148471593856812
0.43490737676620483 0.8336095213890076 0.5972970724105835
0.2758648097515106 0.7815292477607727 0.5298265218734741
0.41556742787361145 0.717843770980835 0.5457305312156677
0.3513215482234955 0.7070218920707703 0.43517065048217773
0.37640345096588135 0.762653112411499 0.4248637557029724
0.2585132420063019 0.8501026630401611 0.45739856362342834
0.41032615303993225 0.8549331426620483 0.5709248185157776
0.4113961160182953 0.6825248003005981 0.40609827637672424
0.42053985595703125 0.7728031873703003 0.4565925598144531
0.44160908460617065 0.7355225682258606 0.5746293067932129
0.2666056752204895 0.8444939851760864 0.47631222009658813
0.3638489842414856 0.8243968486785889 0.5066099166870117
0.41830575466156006 0.8477744460105896 0.5994365215301514
0.4080841839313507 0.8123792409896851 0.5174726843833923
0.32693514227867126 0.7444921135902405 0.4104859232902527
0.4480606019496918 0.7959268689155579 0.4616212546825409
0.3315873444080353 0.7674944996833801 0.599016010761261
0.3789318799972534 0.8445871472358704 0.5818257927894592
0.4447964131832123 0.6792141795158386 0.41200679540634155
0.3565063774585724 0.6590863466262817 0.47731897234916687
0.32173362374305725 0.6818163990974426 0.576251745223999
0.3204023540019989 0.8505470752716064 0.5623783469200134
0.31431055068969727 0.7447789907455444 0.5003713369369507
0.2604749798774719 0.8165745735168457 0.5993340015411377
0.3920399844646454 0.7777411341667175 0.5223467946052551
0.311393678188324 0.8145101070404053 0.5820707678794861
0.37508249282836914 0.7605606913566589 0.591011643409729
0.36546722054481506 0.8374890089035034 0.5546748638153076
0.4002242684364319 0.6761780977249146 0.4731552302837372
0.3907462954521179 0.7197740077972412 0.5290217399597168
0.404342383146286 0.7024715542793274 0.42353931069374084
0.3708673417568207 0.6896564364433289 0.537117600440979
0.3627301752567291 0.7988513708114624 0.5230612754821777
0.4196012616157532 0.6581036448478699 0.5123195052146912
0.2751128077507019 0.773447573184967 0.4456929862499237
0.3895427882671356 0.7966775894165039 0.41509637236595154
0.4000910520553589 0.7703522443771362 0.4662525951862335
0.4064905047416687 0.8329501152038574 0.4412660300731659
0.26015543937683105 0.7145923376083374 0.4676453769207001
0.28862160444259644 0.6782137751579285 0.43687355518341064
0.4024568498134613 0.8377677202224731 0.5878661274909973
0.29259300231933594 0.7859596014022827 0.5134192705154419
0.3188888430595398 0.7568635940551758 0.4198419153690338
0.4298895001411438 0.8224335312843323 0.4241523742675781
0.2816406190395355 0.8444861769676208 0.5650190711021423
0.4312637448310852 0.7591692805290222 0.42290425300598145
0.35484787821769714 0.7454293370246887 0.560857355594635
0.3218163549900055 0.7497164607048035 0.5823121666908264
0.2518996596336365 0.7001945972442627 0.44996222853660583
0.25843438506126404 0.79704350233078 0.41958415508270264
0.3628664016723633 0.7860646843910217 0.44769877195358276
0.3215644955635071 0.7516393661499023 0.5509100556373596
0.3629972040653229 0.6811568737030029 0.4097965955734253
0.3506639301776886 0.6849202513694763 0.47022706270217896
0.41247040033340454 0.8030089735984802 0.4166373014450073
0.34450042247772217 0.677602231502533 0.5082173943519592
0.4301149249076843 0.7313749194145203 0.4871945381164551
0.32703229784965515 0.8349199295043945 0.5365153551101685
0.27192115783691406 0.6588559150695801 0.5434815883636475
0.29482564330101013 0.8073812127113342 0.4151643216609955
0.2712186872959137 0.8479862213134766 0.5575408339500427
0.43373140692710876 0.7752766013145447 0.470062255859375
0.2813572883605957 0.7848125100135803 0.5384076833724976
0.3547758460044861 0.7921369075775146 0.5412178039550781
0.25656843185424805 0.7264181971549988 0.5667542219161987
0.25415581464767456 0.7326226234436035 0.4271622896194458
0.34796595573425293 0.8280347585678101 0.4188680648803711
0.2625267207622528 0.7755576968193054 0.5570887923240662
0.2858821749687195 0.6668816804885864 0.4085155725479126
0.3231064975261688 0.7011548280715942 0.4534212350845337
0.3680464029312134 0.6811738014221191 0.542697548866272
0.4352242052555084 0.7882270812988281 0.5256335735321045
0.26739779114723206 0.7227706909179688 0.5751330852508545
0.4002090096473694 0.7582539319992065 0.40384382009506226
0.39106789231300354 0.7256211638450623 0.40922829508781433
0.3135989308357239 0.7507287263870239 0.5832070112228394
0.3293536901473999 0.755384087562561 0.5616231560707092
0.27733567357063293 0.8208678960800171 0.41308701038360596
0.4249816834926605 0.743720293045044 0.5078718662261963
0.31287211179733276 0.7283511161804199 0.5385772585868835
0.37574541568756104 0.6760676503181458 0.5434178113937378
0.4444064795970917 0.8565644025802612 0.42684856057167053
0.41028571128845215 0.7466802597045898 0.5362027287483215
0.4044826030731201 0.7308300137519836 0.5841086506843567
0.44331419467926025 0.8232859373092651 0.5185642838478088
0.3038315176963806 0.6947988271713257 0.423717200756073
0.3795616626739502 0.7450708746910095 0.532602071762085
0.3987877666950226 0.7829005122184753 0.5281612873077393
0.3644440472126007 0.6922016143798828 0.4485834538936615
0.31904926896095276 0.8155127763748169 0.5799217820167542
0.3050568103790283 0.817184329032898 0.4226638972759247
0.343215674161911 0.7951602935791016 0.4748089611530304
0.3849855959415436 0.791170060634613 0.4955017566680908
0.28564730286598206 0.7982072234153748 0.5062554478645325
0.2502482533454895 0.8141040205955505 0.48118123412132263
0.4480606019496918 0.7959268689155579 0.4616212546825409
0.3315873444080353 0.7674944996833801 0.599016010761261
0.42167139053344727 0.6802195310592651 0.5353363156318665
0.31733521819114685 0.7121728658676147 0.461810827255249
0.4103626608848572 0.7892608642578125 0.40719807147979736
0.4458428621292114 0.7331938147544861 0.477430135011673
0.31174328923225403 0.8125033974647522 0.4371498227119446
0.38472551107406616 0.8367505669593811 0.4711911082267761
0.2963828146457672 0.6577843427658081 0.5747813582420349
0.32454371452331543 0.7761886715888977 0.40368977189064026
0.2767888009548187 0.7001881003379822 0.5502528548240662
0.2611086666584015 0.795987606048584 0.4914802312850952
0.4028567671775818 0.7396445870399475 0.5504270195960999
0.34318485856056213 0.8452425003051758 0.4487471580505371
0.38261979818344116 0.6921078562736511 0.5643944144248962
0.2886289358139038 0.7821108102798462 0.4842333495616913
0.35855570435523987 0.8109194040298462 0.4091465175151825
0.4351610541343689 0.8360834121704102 0.4194287657737732
0.35165321826934814 0.721973717212677 0.448777973651886
