ply
format ascii 1.0
element vertex 831
property float x
property float y
property float z
end_header
0.7237702012062073 0.1741609275341034 0.5287351608276367
0.7341262698173523 0.21480022370815277 0.5957316160202026
0.7684643268585205 0.1480962187051773 0.5010573863983154
0.709276556968689 0.22658677399158478 0.44722336530685425
0.8334442973136902 0.3131472170352936 0.49215421080589294
0.7109882831573486 0.21543750166893005 0.589374840259552
0.8232237696647644 0.1802016794681549 0.382990300655365
0.7103980779647827 0.2734614610671997 0.4255707561969757
0.841903805732727 0.28096336126327515 0.562666654586792
0.8478593826293945 0.24680127203464508 0.42596882581710815
0.7721671462059021 0.19278696179389954 0.43707475066185
0.7205820679664612 0.17678692936897278 0.43342822790145874
0.8438484072685242 0.2518197000026703 0.5242672562599182
0.7634687423706055 0.11800207197666168 0.5069001317024231
0.8690364360809326 0.18296556174755096 0.41181275248527527
0.6743860840797424 0.2458917796611786 0.5236151218414307
0.6743860840797424 0.2458917796611786 0.5236151218414307
0.7664411664009094 0.11360550671815872 0.49097248911857605
0.7296782732009888 0.14100705087184906 0.39327454566955566
0.895142138004303 0.17255128920078278 0.5479100346565247
0.711181104183197 0.20594429969787598 0.5917210578918457
0.7283779382705688 0.22600619494915009 0.5951949954032898
0.742107093334198 0.11435392498970032 0.4579215943813324
0.8421507477760315 0.21314311027526855 0.5091391205787659
0.7776941061019897 0.12396560609340668 0.3773208260536194
0.7856972217559814 0.234718918800354 0.5075510740280151
0.7593085765838623 0.18175089359283447 0.5317827463150024
0.8380788564682007 0.1408689022064209 0.4335440397262573
0.7335608005523682 0.25213608145713806 0.5385372042655945
0.7872688174247742 0.1775631159543991 0.458888977766037
0.7848700284957886 0.13807015120983124 0.4400478005409241
0.801665723323822 0.3104266822338104 0.42849504947662354
0.758685827255249 0.296312153339386 0.5158963799476624
0.8764305710792542 0.2543333172798157 0.5853259563446045
0.8420799374580383 0.2732531726360321 0.49979209899902344
0.8467797636985779 0.20521777868270874 0.5654568076133728
0.8611953258514404 0.3068234920501709 0.5050920844078064
0.6937540769577026 0.21371760964393616 0.4600036144256592
0.7592275142669678 0.1053914874792099 0.5234432220458984
0.8226262927055359 0.27445921301841736 0.45198705792427063
0.837168276309967 0.2157425433397293 0.5573825240135193
0.7186838388442993 0.20193363726139069 0.44143056869506836
0.8224831819534302 0.15189652144908905 0.4420970678329468
0.8041602373123169 0.1541602611541748 0.42472657561302185
0.852222740650177 0.30055826902389526 0.43292900919914246
0.8271734118461609 0.16295991837978363 0.386640727519989
0.6933649182319641 0.2150050550699234 0.5683448910713196
0.8164482116699219 0.295087605714798 0.42602866888046265
0.7471458911895752 0.11606229096651077 0.5258769392967224
0.8013233542442322 0.1863994151353836 0.587891161441803
0.7527511119842529 0.274875283241272 0.43202802538871765
0.7346367835998535 0.14901654422283173 0.428015798330307
0.839695394039154 0.16014307737350464 0.4445057511329651
0.7060244679450989 0.1749139130115509 0.5222371816635132
0.7844000458717346 0.2439108043909073 0.4755652844905853
0.7357081174850464 0.1879713535308838 0.4553675055503845
0.7357081174850464 0.1879713535308838 0.4553675055503845
0.7703951597213745 0.20054002106189728 0.572784423828125
0.8110806345939636 0.18016648292541504 0.4134986102581024
0.7700116634368896 0.2144862860441208 0.5355598330497742
0.8170693516731262 0.1265953928232193 0.5464844107627869
0.8564434051513672 0.2779858112335205 0.4138028025627136
0.7242062091827393 0.18776941299438477 0.5762076377868652
0.8675587177276611 0.1685018241405487 0.4747016727924347
0.8436602354049683 0.2892672121524811 0.43456321954727173
0.7364418506622314 0.1533636748790741 0.4890080988407135
0.8667125105857849 0.2038995772600174 0.45971664786338806
0.7607571482658386 0.13340702652931213 0.5139592289924622
0.7278041839599609 0.17851366102695465 0.5653682947158813
0.813867449760437 0.13517256081104279 0.4201033413410187
0.7764571309089661 0.16382171213626862 0.42663323879241943
0.6945765614509583 0.22893939912319183 0.4264090657234192
0.7470508813858032 0.20955397188663483 0.5058398246765137
0.8041108846664429 0.3253302276134491 0.45854541659355164
0.7010055780410767 0.25679346919059753 0.4696543514728546
0.758685827255249 0.296312153339386 0.5158963799476624
0.8764305710792542 0.2543333172798157 0.5853259563446045
0.7478851079940796 0.20720408856868744 0.5096316337585449
0.8420799374580383 0.2732531726360321 0.49979209899902344
0.8467797636985779 0.20521777868270874 0.5654568076133728
0.785605251789093 0.27005720138549805 0.5995545983314514
0.8611953258514404 0.3068234920501709 0.5050920844078064
0.6937540769577026 0.21371760964393616 0.4600036144256592
0.7592275142669678 0.1053914874792099 0.5234432220458984
0.8226262927055359 0.27445921301841736 0.45198705792427063
0.837168276309967 0.2157425433397293 0.5573825240135193
0.7186838388442993 0.20193363726139069 0.44143056869506836
0.8224831819534302 0.15189652144908905 0.4420970678329468
0.7186838388442993 0.20193363726139069 0.44143056869506836
0.852222740650177 0.30055826902389526 0.43292900919914246
0.8271734118461609 0.16295991837978363 0.386640727519989
0.6933649182319641 0.2150050550699234 0.5683448910713196
0.8164482116699219 0.295087605714798 0.42602866888046265
0.7107995748519897 0.26063042879104614 0.46507254242897034
0.7527511119842529 0.274875283241272 0.43202802538871765
0.715173602104187 0.2422339767217636 0.504560112953186
0.7108028531074524 0.19092032313346863 0.4480283856391907
0.7662175297737122 0.1718294471502304 0.4599131643772125
0.7764894366264343 0.183757022023201 0.39735063910484314
0.7142117619514465 0.19218142330646515 0.6015788316726685
0.8367854952812195 0.1238197460770607 0.48659107089042664
0.8812028169631958 0.23459535837173462 0.5792126059532166
0.7507801055908203 0.14135417342185974 0.4988989531993866
0.7724831700325012 0.15390966832637787 0.5657399892807007
0.7013242244720459 0.26745739579200745 0.4402126371860504
0.7542345523834229 0.2450924962759018 0.4652310609817505
0.7013242244720459 0.26745739579200745 0.4402126371860504
0.8169308304786682 0.231464222073555 0.5201637744903564
0.8168622255325317 0.3307318687438965 0.43380770087242126
0.8670372366905212 0.251765638589859 0.41377317905426025
0.7466695308685303 0.10834883153438568 0.4610956907272339
0.7532564401626587 0.14455300569534302 0.5066506862640381
0.80572110414505 0.2469043880701065 0.4838418960571289
0.7283148169517517 0.24708320200443268 0.578924834728241
0.8366203904151917 0.20566169917583466 0.5437932014465332
0.8297848701477051 0.1754687875509262 0.5291745662689209
0.7664621472358704 0.2040911465883255 0.41810375452041626
0.7313156127929688 0.2247055470943451 0.4330728352069855
0.7893174886703491 0.13897444307804108 0.5731611251831055
0.712631106376648 0.18357595801353455 0.5636133551597595
0.7290742993354797 0.1847071796655655 0.49668896198272705
0.748176097869873 0.2747083604335785 0.43289756774902344
0.7529932856559753 0.12975871562957764 0.5426232218742371
0.7781519889831543 0.24848859012126923 0.6005284190177917
0.7587493062019348 0.1436893790960312 0.48646867275238037
0.6970223188400269 0.18166722357273102 0.5818844437599182
0.8642366528511047 0.24421292543411255 0.42471450567245483
0.8168880343437195 0.33371153473854065 0.46474942564964294
0.8367854952812195 0.1238197460770607 0.48659107089042664
0.8812028169631958 0.23459535837173462 0.5792126059532166
0.7507801055908203 0.14135417342185974 0.4988989531993866
0.7724831700325012 0.15390966832637787 0.5657399892807007
0.7069063782691956 0.2727648615837097 0.43048104643821716
0.7640735507011414 0.19950361549854279 0.5059545040130615
0.7461642026901245 0.16904261708259583 0.5356579422950745
0.8295174837112427 0.14534339308738708 0.5084530115127563
0.7100235819816589 0.1929970532655716 0.4467247426509857
0.7013242244720459 0.26745739579200745 0.4402126371860504
0.8169308304786682 0.231464222073555 0.5201637744903564
0.8168622255325317 0.3307318687438965 0.43380770087242126
0.8670372366905212 0.251765638589859 0.41377317905426025
0.7466695308685303 0.10834883153438568 0.4610956907272339
0.7532564401626587 0.14455300569534302 0.5066506862640381
0.80572110414505 0.2469043880701065 0.4838418960571289
0.7283148169517517 0.24708320200443268 0.578924834728241
0.8366203904151917 0.20566169917583466 0.5437932014465332
0.8297848701477051 0.1754687875509262 0.5291745662689209
0.7664621472358704 0.2040911465883255 0.41810375452041626
0.8054684400558472 0.15242040157318115 0.4815337061882019
0.857693612575531 0.2824884355068207 0.6116310954093933
0.8191734552383423 0.28658872842788696 0.5979374051094055
0.8531764149665833 0.24186092615127563 0.47378718852996826
0.750108540058136 0.25036492943763733 0.4425126612186432
0.752292811870575 0.21343815326690674 0.4841754734516144
0.8483467698097229 0.19900715351104736 0.44194498658180237
0.842473566532135 0.29060134291648865 0.5505355000495911
0.7319971323013306 0.13114942610263824 0.38508880138397217
0.6856500506401062 0.22633887827396393 0.45260247588157654
0.850415050983429 0.27739018201828003 0.4687836170196533
0.7060899138450623 0.23016898334026337 0.49148693680763245
0.8001226186752319 0.2882421910762787 0.6105120778083801
0.8306487798690796 0.17943528294563293 0.4583894610404968
0.8256573677062988 0.32590252161026 0.43281683325767517
0.7447848320007324 0.1554189920425415 0.5218079686164856
0.8015660047531128 0.2437078356742859 0.4551405906677246
0.8075731992721558 0.15285034477710724 0.4792211353778839
0.8190810084342957 0.18259522318840027 0.5387774109840393
0.8136208057403564 0.22368435561656952 0.3903621733188629
0.7182199358940125 0.24247172474861145 0.45332905650138855
0.8167519569396973 0.14561988413333893 0.5258058309555054
0.7831107378005981 0.11400675773620605 0.5327449440956116
0.7409497499465942 0.2172018140554428 0.534475564956665
0.6842007637023926 0.23259161412715912 0.526144802570343
0.7485683560371399 0.2964428663253784 0.44039440155029297
0.7108028531074524 0.19092032313346863 0.4480283856391907
0.7662175297737122 0.1718294471502304 0.4599131643772125
0.7764894366264343 0.183757022023201 0.39735063910484314
0.7142117619514465 0.19218142330646515 0.6015788316726685
0.8367854952812195 0.1238197460770607 0.48659107089042664
0.8812028169631958 0.23459535837173462 0.5792126059532166
0.7507801055908203 0.14135417342185974 0.4988989531993866
0.7724831700325012 0.15390966832637787 0.5657399892807007
0.7069063782691956 0.2727648615837097 0.43048104643821716
0.7640735507011414 0.19950361549854279 0.5059545040130615
0.7461642026901245 0.16904261708259583 0.5356579422950745
0.8295174837112427 0.14534339308738708 0.5084530115127563
0.7100235819816589 0.1929970532655716 0.4467247426509857
0.7013242244720459 0.26745739579200745 0.4402126371860504
0.8169308304786682 0.231464222073555 0.5201637744903564
0.8168622255325317 0.3307318687438965 0.43380770087242126
0.8670372366905212 0.251765638589859 0.41377317905426025
0.7346367835998535 0.14901654422283173 0.428015798330307
0.8374211192131042 0.2812826335430145 0.4115188419818878
0.826927661895752 0.3190965950489044 0.45503854751586914
0.8605943918228149 0.29165586829185486 0.48243772983551025
0.7823836803436279 0.22727113962173462 0.5948511958122253
0.759794294834137 0.10976957529783249 0.542072594165802
0.843663215637207 0.19930289685726166 0.5495060682296753
0.8477058410644531 0.13346543908119202 0.5571439862251282
0.8614709973335266 0.150783509016037 0.4917031526565552
0.7523011565208435 0.24228598177433014 0.4759858548641205
0.8476411700248718 0.13464586436748505 0.5099142789840698
0.7018415927886963 0.19358481466770172 0.6056517958641052
0.825212299823761 0.2893863320350647 0.5152704119682312
0.8298704624176025 0.2681021988391876 0.5814171433448792
0.6911115646362305 0.25452521443367004 0.5026316046714783
0.8659248352050781 0.19056732952594757 0.427385151386261
0.8207370638847351 0.22819101810455322 0.5533102750778198
0.7529932856559753 0.12975871562957764 0.5426232218742371
0.7228152751922607 0.14570315182209015 0.4792358875274658
0.7925586104393005 0.3040202856063843 0.43192386627197266
0.7156394720077515 0.2119235247373581 0.5616595149040222
0.8686661124229431 0.18646635115146637 0.5390099287033081
0.8250600099563599 0.3088875710964203 0.5802829265594482
0.7783173322677612 0.20260511338710785 0.5732883810997009
0.8512616753578186 0.1504301130771637 0.44373732805252075
0.8541327118873596 0.18997056782245636 0.5469658374786377
0.6765521168708801 0.2773219645023346 0.4380986988544464
0.7768567204475403 0.15029002726078033 0.46263906359672546
0.7811232805252075 0.22213545441627502 0.4084799587726593
0.8180302977561951 0.2733117341995239 0.41287267208099365
0.7542703151702881 0.11093442887067795 0.5621269941329956
0.7766244411468506 0.12897060811519623 0.5314254760742188
0.8714144825935364 0.21939736604690552 0.5292629599571228
0.7828746438026428 0.22269880771636963 0.5593750476837158
0.7872308492660522 0.26598039269447327 0.5264620780944824
0.6987713575363159 0.2076404094696045 0.442271888256073
0.800542414188385 0.12805235385894775 0.40490013360977173
0.8433129191398621 0.18892712891101837 0.5789486169815063
0.8100685477256775 0.13088364899158478 0.4749218821525574
0.7626139521598816 0.14324253797531128 0.429933100938797
0.6738993525505066 0.240118145942688 0.5082039833068848
0.803926408290863 0.21017681062221527 0.4645736515522003
0.860020101070404 0.14316658675670624 0.4698171615600586
0.7386967539787292 0.1288926899433136 0.37828329205513
0.7407367825508118 0.21757164597511292 0.5141566395759583
0.7876914143562317 0.27870166301727295 0.6155344247817993
0.7193134427070618 0.18389450013637543 0.4144926965236664
0.8726311326026917 0.21956408023834229 0.38039836287498474
0.7318737506866455 0.1650800108909607 0.41079917550086975
0.8564087152481079 0.290951132774353 0.44466516375541687
0.8037360310554504 0.1947079598903656 0.5341606736183167
0.721351683139801 0.18346965312957764 0.43846383690834045
0.8186980485916138 0.2091602087020874 0.5484135150909424
0.752236545085907 0.17248772084712982 0.47466105222702026
0.738717257976532 0.2995993196964264 0.4267106056213379
0.738717257976532 0.2995993196964264 0.4267106056213379
0.7418820261955261 0.12773852050304413 0.42379632592201233
0.765419602394104 0.13280436396598816 0.43711361289024353
0.7301279306411743 0.1538880616426468 0.41301944851875305
0.7832304239273071 0.20508229732513428 0.39520740509033203
0.8014954328536987 0.16292759776115417 0.5560835003852844
0.8481311202049255 0.1532358080148697 0.509788990020752
0.8481311202049255 0.1532358080148697 0.509788990020752
0.7575180530548096 0.2673813998699188 0.4300020635128021
0.8801087141036987 0.2461598813533783 0.4164249897003174
0.7409497499465942 0.2172018140554428 0.534475564956665
0.6842007637023926 0.23259161412715912 0.526144802570343
0.8367522358894348 0.25074461102485657 0.42066720128059387
0.7485683560371399 0.2964428663253784 0.44039440155029297
0.7108028531074524 0.19092032313346863 0.4480283856391907
0.7662175297737122 0.1718294471502304 0.4599131643772125
0.7764894366264343 0.183757022023201 0.39735063910484314
0.7142117619514465 0.19218142330646515 0.6015788316726685
0.8367854952812195 0.1238197460770607 0.48659107089042664
0.8812028169631958 0.23459535837173462 0.5792126059532166
0.7507801055908203 0.14135417342185974 0.4988989531993866
0.7724831700325012 0.15390966832637787 0.5657399892807007
0.7069063782691956 0.2727648615837097 0.43048104643821716
0.7640735507011414 0.19950361549854279 0.5059545040130615
0.7461642026901245 0.16904261708259583 0.5356579422950745
0.6943286657333374 0.20431624352931976 0.43574002385139465
0.7900201678276062 0.26445692777633667 0.41884514689445496
0.7753959894180298 0.14780691266059875 0.5786079168319702
0.7189933061599731 0.20141088962554932 0.4799753725528717
0.7474645376205444 0.24798484146595 0.450196772813797
0.8740264177322388 0.17675548791885376 0.4001915454864502
0.782804012298584 0.18140681087970734 0.5529628396034241
0.7493378520011902 0.17929932475090027 0.43081605434417725
0.8374211192131042 0.2812826335430145 0.4115188419818878
0.7664394378662109 0.27901753783226013 0.5034635066986084
0.8123175501823425 0.17409572005271912 0.45845678448677063
0.8002994656562805 0.23583124577999115 0.4196102023124695
0.7948540449142456 0.17137333750724792 0.4262685775756836
0.8311813473701477 0.2534993588924408 0.5212023854255676
0.7009321451187134 0.2627958655357361 0.4534425139427185
0.8392269015312195 0.24093839526176453 0.5665560364723206
0.8672007322311401 0.22797980904579163 0.48497551679611206
0.7069063782691956 0.2727648615837097 0.43048104643821716
0.7640735507011414 0.19950361549854279 0.5059545040130615
0.7461642026901245 0.16904261708259583 0.5356579422950745
0.8295174837112427 0.14534339308738708 0.5084530115127563
0.7100235819816589 0.1929970532655716 0.4467247426509857
0.7013242244720459 0.26745739579200745 0.4402126371860504
0.8792129755020142 0.22950156033039093 0.536004364490509
0.8867347240447998 0.2184761017560959 0.5668532848358154
0.7088750600814819 0.17134694755077362 0.56572026014328
0.879675567150116 0.25821995735168457 0.41203784942626953
0.7320904731750488 0.17130595445632935 0.5210123062133789
0.7353538870811462 0.19041667878627777 0.4206409752368927
0.8699561953544617 0.2878360152244568 0.4427083134651184
0.823877215385437 0.21514193713665009 0.5619888305664062
0.7146305441856384 0.15156406164169312 0.5576978921890259
0.7395716309547424 0.16532206535339355 0.4640761613845825
0.6763013601303101 0.25326302647590637 0.4636252820491791
0.8215330839157104 0.22652386128902435 0.547368049621582
0.7848491668701172 0.1847713440656662 0.5437027812004089
0.7428244948387146 0.12076637148857117 0.3895123600959778
0.8725069165229797 0.25069189071655273 0.5136486291885376
0.7753083109855652 0.21938638389110565 0.5802615880966187
0.7307150959968567 0.17305594682693481 0.4359489381313324
0.8298240303993225 0.23634858429431915 0.5424693822860718
0.6995144486427307 0.2477317899465561 0.5317122936248779
0.8314661383628845 0.2712358832359314 0.5219094157218933
0.8455368876457214 0.27822425961494446 0.5422635674476624
0.8274028301239014 0.28219717741012573 0.5236709713935852
0.8763864636421204 0.21294742822647095 0.5850698947906494
0.7361698746681213 0.20512345433235168 0.45664605498313904
0.8669930696487427 0.14921869337558746 0.481669545173645
0.8551260828971863 0.31254541873931885 0.4144105315208435
0.7192545533180237 0.17549659311771393 0.3935624361038208
0.7645193338394165 0.22032372653484344 0.49933937191963196
0.854522168636322 0.14903895556926727 0.5544968843460083
0.8386518955230713 0.12401048839092255 0.5447500944137573
0.8597962856292725 0.12171930074691772 0.5681579113006592
0.836390495300293 0.15816518664360046 0.520597517490387
0.7276579141616821 0.13350284099578857 0.5456761121749878
0.7414008975028992 0.3035641610622406 0.4402770400047302
0.8308063745498657 0.21942433714866638 0.44509756565093994
0.8345801830291748 0.22405347228050232 0.5024065375328064
0.7740145921707153 0.3144564926624298 0.48991823196411133
0.8768055438995361 0.24732978641986847 0.46783387660980225
0.8814877271652222 0.21079401671886444 0.47112131118774414
0.886411726474762 0.21125228703022003 0.49406376481056213
0.8256447911262512 0.12018169462680817 0.5012050271034241
0.759541392326355 0.18823137879371643 0.5816787481307983
0.7515115141868591 0.20640040934085846 0.5177871584892273
0.8462914228439331 0.12774211168289185 0.49025940895080566
0.8459810018539429 0.2814338207244873 0.5196716785430908
0.7348291873931885 0.17106689512729645 0.4000720977783203
0.8451277613639832 0.24499407410621643 0.4878053665161133
0.7701011300086975 0.3201279640197754 0.4530560076236725
0.8784343004226685 0.2031385451555252 0.3950536549091339
0.8348235487937927 0.12602220475673676 0.5401798486709595
0.7272359132766724 0.2016150802373886 0.4439777433872223
0.809754490852356 0.21651826798915863 0.5552824139595032
0.7643901705741882 0.14038048684597015 0.4033917188644409
0.7128602862358093 0.18398363888263702 0.5592671632766724
0.8397802710533142 0.13820652663707733 0.5047779679298401
0.8255389928817749 0.272845596075058 0.4028717279434204
0.8323178291320801 0.21813857555389404 0.5425050854682922
0.8232237696647644 0.1802016794681549 0.382990300655365
0.7013242244720459 0.26745739579200745 0.4402126371860504
0.8169308304786682 0.231464222073555 0.5201637744903564
0.8168622255325317 0.3307318687438965 0.43380770087242126
0.8670372366905212 0.251765638589859 0.41377317905426025
0.7466695308685303 0.10834883153438568 0.4610956907272339
0.7532564401626587 0.14455300569534302 0.5066506862640381
0.80572110414505 0.2469043880701065 0.4838418960571289
0.7283148169517517 0.24708320200443268 0.578924834728241
0.8366203904151917 0.20566169917583466 0.5437932014465332
0.8297848701477051 0.1754687875509262 0.5291745662689209
0.7664621472358704 0.2040911465883255 0.41810375452041626
0.8054684400558472 0.15242040157318115 0.4815337061882019
0.857693612575531 0.2824884355068207 0.6116310954093933
0.8191734552383423 0.28658872842788696 0.5979374051094055
0.8531764149665833 0.24186092615127563 0.47378718852996826
0.750108540058136 0.25036492943763733 0.4425126612186432
0.8669837713241577 0.250171035528183 0.4797227084636688
0.7956835031509399 0.23512987792491913 0.5347848534584045
0.7349472045898438 0.1265149712562561 0.49063199758529663
0.8563793897628784 0.16046038269996643 0.4064265787601471
0.8722959756851196 0.20595116913318634 0.3934861719608307
0.742637038230896 0.13097120821475983 0.5719188451766968
0.7525091171264648 0.19977596402168274 0.5085119605064392
0.8340343832969666 0.16598404943943024 0.5759724974632263
0.85260009765625 0.20357267558574677 0.5452577471733093
0.7974621653556824 0.30496305227279663 0.5043525099754333
0.7549037337303162 0.24233341217041016 0.5127232074737549
0.7276908159255981 0.18319262564182281 0.4591667652130127
0.7716594934463501 0.3057510256767273 0.45522236824035645
0.6999043822288513 0.2395559698343277 0.5262008309364319
0.8899839520454407 0.16408339142799377 0.5727887153625488
0.711181104183197 0.20594429969787598 0.5917210578918457
0.7013242244720459 0.26745739579200745 0.4402126371860504
0.8169308304786682 0.231464222073555 0.5201637744903564
0.8168622255325317 0.3307318687438965 0.43380770087242126
0.8670372366905212 0.251765638589859 0.41377317905426025
0.7466695308685303 0.10834883153438568 0.4610956907272339
0.7532564401626587 0.14455300569534302 0.5066506862640381
0.80572110414505 0.2469043880701065 0.4838418960571289
0.7283148169517517 0.24708320200443268 0.578924834728241
0.8366203904151917 0.20566169917583466 0.5437932014465332
0.8297848701477051 0.1754687875509262 0.5291745662689209
0.7664621472358704 0.2040911465883255 0.41810375452041626
0.8054684400558472 0.15242040157318115 0.4815337061882019
0.857693612575531 0.2824884355068207 0.6116310954093933
0.8191734552383423 0.28658872842788696 0.5979374051094055
0.8531764149665833 0.24186092615127563 0.47378718852996826
0.750108540058136 0.25036492943763733 0.4425126612186432
0.8669837713241577 0.250171035528183 0.4797227084636688
0.7956835031509399 0.23512987792491913 0.5347848534584045
0.8129997253417969 0.10699103772640228 0.547309398651123
0.8423749208450317 0.24088524281978607 0.4432302415370941
0.8046172261238098 0.2589136064052582 0.5710766911506653
0.7615682482719421 0.12261974066495895 0.5096184611320496
0.7701870799064636 0.3149939179420471 0.4368991553783417
0.8248487710952759 0.22287847101688385 0.5888381004333496
0.808906614780426 0.18339994549751282 0.4304978847503662
0.7648666501045227 0.24636515974998474 0.4931965172290802
0.7974621653556824 0.30496305227279663 0.5043525099754333
0.7224686145782471 0.271321177482605 0.4741065800189972
0.8003435134887695 0.10686872154474258 0.5385994911193848
0.872273862361908 0.2557634115219116 0.5969588756561279
0.8614709973335266 0.150783509016037 0.4917031526565552
0.8126881122589111 0.29217827320098877 0.5902557969093323
0.752236545085907 0.17248772084712982 0.47466105222702026
0.7008193731307983 0.1835177093744278 0.4293252229690552
0.7645817995071411 0.15402278304100037 0.4141427278518677
0.7832304239273071 0.20508229732513428 0.39520740509033203
0.8014954328536987 0.16292759776115417 0.5560835003852844
0.8481311202049255 0.1532358080148697 0.509788990020752
0.7575180530548096 0.2673813998699188 0.4300020635128021
0.8856086730957031 0.20094645023345947 0.3850654661655426
0.7251489758491516 0.21593143045902252 0.5661792159080505
0.7367013692855835 0.15210199356079102 0.46200522780418396
0.7066571116447449 0.22673672437667847 0.48930373787879944
0.8306487798690796 0.17943528294563293 0.4583894610404968
0.8256573677062988 0.32590252161026 0.43281683325767517
0.7447848320007324 0.1554189920425415 0.5218079686164856
0.8015660047531128 0.2437078356742859 0.4551405906677246
0.8075731992721558 0.15285034477710724 0.4792211353778839
0.8190810084342957 0.18259522318840027 0.5387774109840393
0.8136208057403564 0.22368435561656952 0.3903621733188629
0.7182199358940125 0.24247172474861145 0.45332905650138855
0.8167519569396973 0.14561988413333893 0.5258058309555054
0.7831107378005981 0.11400675773620605 0.5327449440956116
0.7409497499465942 0.2172018140554428 0.534475564956665
0.6842007637023926 0.23259161412715912 0.526144802570343
0.7485683560371399 0.2964428663253784 0.44039440155029297
0.7108028531074524 0.19092032313346863 0.4480283856391907
0.7662175297737122 0.1718294471502304 0.4599131643772125
0.8129997253417969 0.10699103772640228 0.547309398651123
0.8423749208450317 0.24088524281978607 0.4432302415370941
0.8046172261238098 0.2589136064052582 0.5710766911506653
0.7615682482719421 0.12261974066495895 0.5096184611320496
0.7701870799064636 0.3149939179420471 0.4368991553783417
0.8273976445198059 0.2042039930820465 0.43899470567703247
0.8763864636421204 0.21294742822647095 0.5850698947906494
0.7934693098068237 0.25221315026283264 0.432725727558136
0.8804587125778198 0.2112164944410324 0.46378856897354126
0.8733812570571899 0.1647307574748993 0.554473876953125
0.748176097869873 0.2747083604335785 0.43289756774902344
0.7529932856559753 0.12975871562957764 0.5426232218742371
0.7228152751922607 0.14570315182209015 0.4792358875274658
0.7925586104393005 0.3040202856063843 0.43192386627197266
0.7156394720077515 0.2119235247373581 0.5616595149040222
0.8686661124229431 0.18646635115146637 0.5390099287033081
0.8250600099563599 0.3088875710964203 0.5802829265594482
0.7783173322677612 0.20260511338710785 0.5732883810997009
0.8512616753578186 0.1504301130771637 0.44373732805252075
0.8541327118873596 0.18997056782245636 0.5469658374786377
0.6765521168708801 0.2773219645023346 0.4380986988544464
0.6996657848358154 0.24124030768871307 0.5154580473899841
0.8835995197296143 0.22794528305530548 0.5044205188751221
0.8805989623069763 0.14077213406562805 0.5728337168693542
0.7348949909210205 0.13468369841575623 0.4190656244754791
0.8483472466468811 0.22849693894386292 0.5483688116073608
0.7390772104263306 0.1440318524837494 0.5838320851325989
0.7768567204475403 0.15029002726078033 0.46263906359672546
0.8851519227027893 0.17925409972667694 0.41057541966438293
0.7511649131774902 0.14799024164676666 0.3998240530490875
0.7673806548118591 0.27265262603759766 0.43375465273857117
0.8180302977561951 0.2733117341995239 0.41287267208099365
0.788154125213623 0.17196902632713318 0.5086088180541992
0.816268265247345 0.2757614254951477 0.43792954087257385
0.7766244411468506 0.12897060811519623 0.5314254760742188
0.7153125405311584 0.22727078199386597 0.45477089285850525
0.8393189311027527 0.2182222306728363 0.41638147830963135
0.7251489758491516 0.21593143045902252 0.5661792159080505
0.825212299823761 0.2893863320350647 0.5152704119682312
0.8298704624176025 0.2681021988391876 0.5814171433448792
0.8453710675239563 0.1954038441181183 0.589259684085846
0.7529932856559753 0.12975871562957764 0.5426232218742371
0.7228152751922607 0.14570315182209015 0.4792358875274658
0.7925586104393005 0.3040202856063843 0.43192386627197266
0.8882901668548584 0.1881939172744751 0.37686678767204285
0.7291170954704285 0.1260668933391571 0.39569446444511414
0.8250427842140198 0.230816051363945 0.42373421788215637
0.815916895866394 0.2835541069507599 0.5266695022583008
0.7046579718589783 0.2188439816236496 0.41612550616264343
0.8070381283760071 0.1920003443956375 0.5063561201095581
0.7768567204475403 0.15029002726078033 0.46263906359672546
0.8851519227027893 0.17925409972667694 0.41057541966438293
0.7511649131774902 0.14799024164676666 0.3998240530490875
0.7673806548118591 0.27265262603759766 0.43375465273857117
0.8180302977561951 0.2733117341995239 0.41287267208099365
0.7542703151702881 0.11093442887067795 0.5621269941329956
0.7766244411468506 0.12897060811519623 0.5314254760742188
0.7153125405311584 0.22727078199386597 0.45477089285850525
0.8393189311027527 0.2182222306728363 0.41638147830963135
0.8298189043998718 0.15735316276550293 0.4809591472148895
0.8567376136779785 0.22842270135879517 0.5971927046775818
0.7096837759017944 0.18335388600826263 0.5684276223182678
0.7132887840270996 0.17395803332328796 0.510033905506134
0.7661142349243164 0.28564581274986267 0.44774118065834045
0.7309795618057251 0.18821346759796143 0.4362559914588928
0.8115626573562622 0.2526227831840515 0.6000326871871948
0.7497196197509766 0.11899710446596146 0.5164013504981995
0.7775590419769287 0.16171036660671234 0.5797363519668579
0.716856062412262 0.26954522728919983 0.45270368456840515
0.7664621472358704 0.2040911465883255 0.41810375452041626
0.872273862361908 0.2557634115219116 0.5969588756561279
0.8614709973335266 0.150783509016037 0.4917031526565552
0.7523011565208435 0.24228598177433014 0.4759858548641205
0.6942141056060791 0.23227092623710632 0.5471985936164856
0.842339813709259 0.2407076358795166 0.45627978444099426
0.8050809502601624 0.13877105712890625 0.48994696140289307
0.790684163570404 0.11313973367214203 0.45620599389076233
0.7761483192443848 0.17209811508655548 0.3958377242088318
0.7617037296295166 0.2665027976036072 0.5587851405143738
0.8808519840240479 0.23820514976978302 0.5644352436065674
0.7348657250404358 0.2230394184589386 0.510664165019989
0.8097134828567505 0.21302399039268494 0.5693715810775757
0.8215786814689636 0.31628894805908203 0.5522868633270264
0.8257543444633484 0.17956577241420746 0.5310841798782349
0.6781188249588013 0.24687160551548004 0.501512348651886
0.8422473669052124 0.2693654000759125 0.49155181646347046
0.6781122088432312 0.23922714591026306 0.4721794128417969
0.7209230661392212 0.20087790489196777 0.5609164237976074
0.7972882986068726 0.14774157106876373 0.5421439409255981
0.7762420773506165 0.2198757529258728 0.46114516258239746
0.8370462656021118 0.14731453359127045 0.544273853302002
0.8567376136779785 0.22842270135879517 0.5971927046775818
0.7096837759017944 0.18335388600826263 0.5684276223182678
0.7132887840270996 0.17395803332328796 0.510033905506134
0.7661142349243164 0.28564581274986267 0.44774118065834045
0.7309795618057251 0.18821346759796143 0.4362559914588928
0.8115626573562622 0.2526227831840515 0.6000326871871948
0.7497196197509766 0.11899710446596146 0.5164013504981995
0.8577989339828491 0.23642244935035706 0.4848587214946747
0.716856062412262 0.26954522728919983 0.45270368456840515
0.8083072304725647 0.1550954282283783 0.5580101609230042
0.8578313589096069 0.2759263515472412 0.5173130631446838
0.8677207827568054 0.13811004161834717 0.5006295442581177
0.7220605611801147 0.21291483938694 0.48083898425102234
0.8556752800941467 0.20231834053993225 0.456138551235199
0.8895500898361206 0.19387130439281464 0.42548516392707825
0.8407629132270813 0.2458600103855133 0.4201171398162842
0.8476411700248718 0.13464586436748505 0.5099142789840698
0.7018415927886963 0.19358481466770172 0.6056517958641052
0.825212299823761 0.2893863320350647 0.5152704119682312
0.8298704624176025 0.2681021988391876 0.5814171433448792
0.6911115646362305 0.25452521443367004 0.5026316046714783
0.8659248352050781 0.19056732952594757 0.427385151386261
0.8207370638847351 0.22819101810455322 0.5533102750778198
0.8747233748435974 0.14975479245185852 0.5245223641395569
0.8183282613754272 0.19668030738830566 0.47621801495552063
0.8050809502601624 0.13877105712890625 0.48994696140289307
0.790684163570404 0.11313973367214203 0.45620599389076233
0.7761483192443848 0.17209811508655548 0.3958377242088318
0.8086113929748535 0.2727212905883789 0.5107823610305786
0.7918236255645752 0.21592344343662262 0.5059173107147217
0.7790767550468445 0.15624283254146576 0.38768067955970764
0.7874737977981567 0.1866627186536789 0.5079753994941711
0.7823337912559509 0.2207871377468109 0.46994221210479736
0.8116529583930969 0.2345985472202301 0.4824651777744293
0.7680392861366272 0.18379604816436768 0.585330605506897
0.7789686322212219 0.16844062507152557 0.5338357090950012
0.8215206265449524 0.13562749326229095 0.5522878766059875
0.8614577651023865 0.25651854276657104 0.5268855094909668
0.8299589157104492 0.24386487901210785 0.4592185616493225
0.7016743421554565 0.2573738396167755 0.46557337045669556
0.7259778380393982 0.2855515778064728 0.4245532155036926
0.7580338716506958 0.2211999148130417 0.48153433203697205
0.8492417335510254 0.18383261561393738 0.3778057098388672
0.7550656795501709 0.24792295694351196 0.43571388721466064
0.729595422744751 0.25515133142471313 0.4441884756088257
0.7567310333251953 0.22099263966083527 0.5351603627204895
0.8401485681533813 0.3054075241088867 0.4708065390586853
0.8560552597045898 0.15644797682762146 0.5107775926589966
0.7670280933380127 0.22754080593585968 0.5195598602294922
0.7558386921882629 0.2161547690629959 0.42594173550605774
0.8775491118431091 0.19907762110233307 0.4241942763328552
0.7005048394203186 0.2860051095485687 0.428488552570343
0.7612529397010803 0.18015851080417633 0.5070105791091919
0.8086113929748535 0.2727212905883789 0.5107823610305786
0.7918236255645752 0.21592344343662262 0.5059173107147217
0.7790767550468445 0.15624283254146576 0.38768067955970764
0.7874737977981567 0.1866627186536789 0.5079753994941711
0.7823337912559509 0.2207871377468109 0.46994221210479736
0.8116529583930969 0.2345985472202301 0.4824651777744293
0.7680392861366272 0.18379604816436768 0.585330605506897
0.7789686322212219 0.16844062507152557 0.5338357090950012
0.8215206265449524 0.13562749326229095 0.5522878766059875
0.8614577651023865 0.25651854276657104 0.5268855094909668
0.7298920154571533 0.23317115008831024 0.5632213950157166
0.781913697719574 0.308746337890625 0.4230197072029114
0.7604519724845886 0.21742424368858337 0.5954129695892334
0.761161744594574 0.2598465383052826 0.5667650699615479
0.765683650970459 0.14354698359966278 0.5455319881439209
0.7420295476913452 0.13214629888534546 0.3962993323802948
0.7775630354881287 0.2675509452819824 0.595507800579071
0.7850306034088135 0.127986341714859 0.4833731949329376
0.8283416628837585 0.1994236707687378 0.5464192628860474
0.7329831123352051 0.11961641907691956 0.3931628465652466
0.8508619666099548 0.22357124090194702 0.4225917458534241
0.8304687142372131 0.12117665261030197 0.532662034034729
0.7127143740653992 0.2494325488805771 0.42581644654273987
0.7216842174530029 0.19812239706516266 0.5297123193740845
0.7977041006088257 0.2791975736618042 0.4622132480144501
0.7694610953330994 0.2762879431247711 0.556571364402771
0.8779280185699463 0.17476797103881836 0.4690151810646057
0.759154736995697 0.1852448582649231 0.5710693597793579
0.7271849513053894 0.21538427472114563 0.42334461212158203
0.8961637616157532 0.17468135058879852 0.48559650778770447
0.8554505109786987 0.2537444829940796 0.5427774786949158
0.7246789932250977 0.26735490560531616 0.44489213824272156
0.8212164640426636 0.15479891002178192 0.4555409252643585
0.8348493576049805 0.1348331868648529 0.4938080310821533
0.8053572773933411 0.3182130753993988 0.4847245514392853
0.8682225942611694 0.1824766844511032 0.5083587765693665
0.6944918036460876 0.1985439956188202 0.6063993573188782
0.7362425327301025 0.27520430088043213 0.5344447493553162
0.7777741551399231 0.24089179933071136 0.5390474200248718
0.79025799036026 0.14659474790096283 0.5128074884414673
0.7616533041000366 0.12596406042575836 0.4780977666378021
0.8431641459465027 0.3152981996536255 0.5412371158599854
0.7694591879844666 0.17363639175891876 0.5574597716331482
0.7128369212150574 0.27105793356895447 0.42986246943473816
0.7819954752922058 0.11078965663909912 0.47022727131843567
0.7834827899932861 0.3121477961540222 0.4768955409526825
0.7614697813987732 0.2019990086555481 0.5831676125526428
0.7694748640060425 0.20618100464344025 0.5488406419754028
0.8405724763870239 0.16799627244472504 0.4478161036968231
0.8362711668014526 0.20452845096588135 0.426361620426178
0.7516440749168396 0.22251541912555695 0.48356765508651733
0.8385053277015686 0.3290714621543884 0.48326966166496277
0.747978150844574 0.22345371544361115 0.5437415242195129
0.8255389928817749 0.272845596075058 0.4028717279434204
0.8186004161834717 0.16356827318668365 0.5022721886634827
0.8332937955856323 0.289153516292572 0.5444928407669067
0.8126712441444397 0.11472498625516891 0.5474236011505127
0.8193435668945312 0.27785804867744446 0.4414268136024475
0.851620614528656 0.2536320388317108 0.4571017026901245
0.7395289540290833 0.14709436893463135 0.4246676564216614
0.8301532864570618 0.33115240931510925 0.4674956500530243
0.8072337508201599 0.2568374276161194 0.5649992227554321
0.8533064126968384 0.22588399052619934 0.41571223735809326
0.7663052678108215 0.14465820789337158 0.40326014161109924
0.7348967790603638 0.1541157066822052 0.5248135328292847
0.8440563678741455 0.2789597511291504 0.5531231164932251
0.8428518772125244 0.19693277776241302 0.5302969217300415
0.8741407990455627 0.16021107137203217 0.46133559942245483
0.8681942820549011 0.16450415551662445 0.4975515902042389
0.7262506484985352 0.1648210883140564 0.4144176244735718
0.7877270579338074 0.18580301105976105 0.391720175743103
0.8729571104049683 0.18113739788532257 0.5453572273254395
0.7328394651412964 0.2583216726779938 0.5513836145401001
0.8587858080863953 0.26364046335220337 0.5579779744148254
0.8033850789070129 0.32744666934013367 0.4836442172527313
0.7844191193580627 0.14830952882766724 0.5119184255599976
0.8768957257270813 0.2698153853416443 0.47651389241218567
0.7319995760917664 0.17038914561271667 0.49826595187187195
0.8813994526863098 0.15590059757232666 0.5641394257545471
0.7841213941574097 0.17048433423042297 0.47445154190063477
0.7887183427810669 0.13515134155750275 0.38549306988716125
0.7918205261230469 0.20523163676261902 0.4289521276950836
0.7935959696769714 0.2611030340194702 0.41888847947120667
0.8651027679443359 0.2711344361305237 0.43160635232925415
0.8433973789215088 0.22237832844257355 0.4306248128414154
0.7783173322677612 0.20260511338710785 0.5732883810997009
0.7789686322212219 0.16844062507152557 0.5338357090950012
0.791520357131958 0.19667409360408783 0.46623361110687256
0.8385568261146545 0.3263113796710968 0.4354178011417389
0.8485947847366333 0.1837298423051834 0.5042077898979187
0.8508301377296448 0.2963217794895172 0.5992273092269897
0.8388729095458984 0.21087685227394104 0.5553760528564453
0.7911700010299683 0.20485681295394897 0.5395854711532593
0.8327379822731018 0.1996975690126419 0.4651969373226166
0.8459504842758179 0.21788498759269714 0.49522116780281067
0.8529985547065735 0.21326103806495667 0.3869156241416931
0.878611147403717 0.1537080705165863 0.5284090042114258
0.7538722157478333 0.2448364943265915 0.5794489979743958
0.7603479623794556 0.18794426321983337 0.5780864953994751
0.8702335953712463 0.23651321232318878 0.4062111973762512
0.8504712581634521 0.19623103737831116 0.5319398641586304
0.750252902507782 0.24819990992546082 0.42437517642974854
0.7628576755523682 0.23222099244594574 0.5166717767715454
0.8631651401519775 0.21376919746398926 0.3875954747200012
0.8392716646194458 0.20137088000774384 0.4786466360092163
0.8236280679702759 0.24185633659362793 0.4122559428215027
0.8640259504318237 0.29793035984039307 0.5975579619407654
0.878180205821991 0.249771386384964 0.4640292525291443
0.8703787922859192 0.18455152213573456 0.45676639676094055
0.848292350769043 0.3047071397304535 0.4466514587402344
0.7495341300964355 0.26468223333358765 0.5883492827415466
0.7694748640060425 0.20618100464344025 0.5488406419754028
0.8405724763870239 0.16799627244472504 0.4478161036968231
0.8362711668014526 0.20452845096588135 0.426361620426178
0.7516440749168396 0.22251541912555695 0.48356765508651733
0.8385053277015686 0.3290714621543884 0.48326966166496277
0.747978150844574 0.22345371544361115 0.5437415242195129
0.8050809502601624 0.13877105712890625 0.48994696140289307
0.7790767550468445 0.15624283254146576 0.38768067955970764
0.7874737977981567 0.1866627186536789 0.5079753994941711
0.7823337912559509 0.2207871377468109 0.46994221210479736
0.7640900015830994 0.17802119255065918 0.5769968032836914
0.7993136048316956 0.19216667115688324 0.5181620121002197
0.8190628886222839 0.1299813985824585 0.43705329298973083
0.8283345699310303 0.2805100679397583 0.5561824440956116
0.7422390580177307 0.2146480679512024 0.534997820854187
0.8256694674491882 0.26189735531806946 0.4327796995639801
0.6854615807533264 0.21356652677059174 0.612889289855957
0.8869170546531677 0.19773203134536743 0.4985414743423462
0.7517279982566833 0.1299649178981781 0.5006726384162903
0.8688070178031921 0.2637985646724701 0.42219626903533936
0.7730779051780701 0.3065091073513031 0.46270716190338135
0.8130931258201599 0.2573821246623993 0.439826101064682
0.8591868877410889 0.18662773072719574 0.5355008244514465
0.8874800205230713 0.18980935215950012 0.5841994881629944
0.8666298389434814 0.14136110246181488 0.5063180923461914
0.8086133599281311 0.2617478668689728 0.5156102776527405
0.7276744246482849 0.27926650643348694 0.5136944055557251
0.8144363164901733 0.1711321473121643 0.5819956064224243
0.80290287733078 0.2943301498889923 0.5137189030647278
0.7613971829414368 0.15442901849746704 0.44004708528518677
0.7119736671447754 0.17594695091247559 0.5895692110061646
0.699187695980072 0.1967707723379135 0.4174647033214569
0.8256699442863464 0.2123567909002304 0.48885396122932434
0.7591803073883057 0.12443674355745316 0.4228549897670746
0.7447113394737244 0.2878727316856384 0.49099206924438477
0.8061115145683289 0.19576489925384521 0.49722734093666077
0.7114667892456055 0.2203277200460434 0.44087672233581543
0.7495510578155518 0.2552511990070343 0.4127723276615143
0.790684163570404 0.11313973367214203 0.45620599389076233
0.8433973789215088 0.22237832844257355 0.4306248128414154
0.7850531339645386 0.3226766586303711 0.46426284313201904
0.785649299621582 0.11520460247993469 0.5203763842582703
0.7580093145370483 0.11111889779567719 0.5594238042831421
0.8045483827590942 0.3171406686306 0.5063216090202332
0.8596006631851196 0.24329674243927002 0.4024159014225006
0.7492663860321045 0.22985297441482544 0.4743710458278656
0.7269150614738464 0.22034651041030884 0.5061926245689392
0.8136826753616333 0.20027755200862885 0.42385074496269226
0.7536509037017822 0.2503753900527954 0.5612462162971497
0.7892710566520691 0.2915576696395874 0.486814022064209
0.795305609703064 0.24718400835990906 0.4674564599990845
0.8205652832984924 0.34375524520874023 0.4322759807109833
0.8063512444496155 0.22512046992778778 0.5840610265731812
0.7550656795501709 0.24792295694351196 0.43571388721466064
0.729595422744751 0.25515133142471313 0.4441884756088257
0.7567310333251953 0.22099263966083527 0.5351603627204895
0.8401485681533813 0.3054075241088867 0.4708065390586853
0.8560552597045898 0.15644797682762146 0.5107775926589966
0.7670280933380127 0.22754080593585968 0.5195598602294922
0.7558386921882629 0.2161547690629959 0.42594173550605774
0.8775491118431091 0.19907762110233307 0.4241942763328552
0.7005048394203186 0.2860051095485687 0.428488552570343
0.7612529397010803 0.18015851080417633 0.5070105791091919
0.8086113929748535 0.2727212905883789 0.5107823610305786
0.7918236255645752 0.21592344343662262 0.5059173107147217
0.7790767550468445 0.15624283254146576 0.38768067955970764
0.7874737977981567 0.1866627186536789 0.5079753994941711
0.7823337912559509 0.2207871377468109 0.46994221210479736
0.8116529583930969 0.2345985472202301 0.4824651777744293
0.7680392861366272 0.18379604816436768 0.585330605506897
0.790684163570404 0.11313973367214203 0.45620599389076233
0.7670280933380127 0.22754080593585968 0.5195598602294922
0.7558386921882629 0.2161547690629959 0.42594173550605774
0.8775491118431091 0.19907762110233307 0.4241942763328552
0.7005048394203186 0.2860051095485687 0.428488552570343
0.7612529397010803 0.18015851080417633 0.5070105791091919
0.7943961024284363 0.16308604180812836 0.5202982425689697
0.798383891582489 0.29845955967903137 0.4906940758228302
0.7711277604103088 0.19372548162937164 0.5523207783699036
0.7613271474838257 0.19840005040168762 0.4307204484939575
0.8264775276184082 0.28845617175102234 0.5049324035644531
0.8781359791755676 0.1928197592496872 0.5817959904670715
0.76173996925354 0.17320753633975983 0.4518544673919678
0.7243916988372803 0.21286767721176147 0.4294044077396393
0.793495774269104 0.21612121164798737 0.40555307269096375
0.8202643990516663 0.24593551456928253 0.45661526918411255
0.8873682618141174 0.16829678416252136 0.5292626619338989
0.8122714757919312 0.2715238630771637 0.47745776176452637
0.881903886795044 0.1842876821756363 0.48561662435531616
0.8642656803131104 0.1481781154870987 0.44474515318870544
0.8311145901679993 0.19108915328979492 0.5089316368103027
0.7912673950195312 0.27532339096069336 0.4508158564567566
0.7890473008155823 0.13249558210372925 0.5239748954772949
0.8528458476066589 0.21410241723060608 0.520702600479126
0.8100736141204834 0.17951206862926483 0.5897226929664612
0.8551042079925537 0.21062560379505157 0.5903956890106201
0.8183107376098633 0.20993192493915558 0.4591237008571625
0.7614015340805054 0.23866824805736542 0.4372560679912567
0.7765015959739685 0.332725465297699 0.4356077313423157
0.717907190322876 0.18459752202033997 0.5066969990730286
0.7838206887245178 0.15311461687088013 0.46914300322532654
0.7312425971031189 0.24401117861270905 0.493373304605484
0.8193362355232239 0.3092426359653473 0.48501187562942505
0.880683183670044 0.2341272532939911 0.49886322021484375
0.817467451095581 0.12656301259994507 0.5056850910186768
0.7531869411468506 0.18244434893131256 0.5905953049659729
0.7387811541557312 0.15974049270153046 0.38672199845314026
0.7990047931671143 0.30018648505210876 0.4720917046070099
0.8115370869636536 0.2050347477197647 0.5504226684570312
0.7601365447044373 0.16157622635364532 0.5068650245666504
0.8504616022109985 0.2932945489883423 0.5806655883789062
0.8044893741607666 0.31218206882476807 0.47770383954048157
0.7614920735359192 0.1270834356546402 0.44582805037498474
0.7762736082077026 0.18530315160751343 0.42220041155815125
0.8044893741607666 0.31218206882476807 0.47770383954048157
0.7614920735359192 0.1270834356546402 0.44582805037498474
0.8166807293891907 0.13060054183006287 0.5088856220245361
0.6880463361740112 0.22915245592594147 0.5587676167488098
0.8248875141143799 0.20615145564079285 0.5431829690933228
0.729536771774292 0.21429242193698883 0.42024144530296326
0.6880463361740112 0.22915245592594147 0.5587676167488098
0.8248875141143799 0.20615145564079285 0.5431829690933228
0.729536771774292 0.21429242193698883 0.42024144530296326
0.7912331819534302 0.2629108428955078 0.5870145559310913
0.7470573782920837 0.14054004848003387 0.5613833665847778
0.7631895542144775 0.21980524063110352 0.3997482657432556
0.7631895542144775 0.21980524063110352 0.3997482657432556
0.7370796203613281 0.23679693043231964 0.5452293753623962
0.842594563961029 0.272792786359787 0.586601734161377
0.7038587331771851 0.2540396451950073 0.42554277181625366
0.7726445198059082 0.25068399310112 0.43476569652557373
0.779080331325531 0.15747061371803284 0.5380467176437378
0.8344868421554565 0.26706990599632263 0.4599802494049072
0.7741929292678833 0.2807500660419464 0.48920056223869324
