ply
format ascii 1.0
element vertex 830
property float x
property float y
property float z
end_header
0.7091097831726074 0.2065327912569046 0.5980892777442932
0.7240529656410217 0.10757168382406235 0.45677170157432556
0.8302904963493347 0.18824967741966248 0.5080880522727966
0.7630594968795776 0.11285090446472168 0.37319156527519226
0.7683400511741638 0.2114771604537964 0.5079324841499329
0.7418918609619141 0.16510671377182007 0.53264319896698
0.8223994970321655 0.12037257850170135 0.43209347128868103
0.7137327790260315 0.2313026785850525 0.5401697754859924
0.7719840407371521 0.15855273604393005 0.45713716745376587
0.7682003378868103 0.12407122552394867 0.4382604658603668
0.7822598218917847 0.2835194170475006 0.4293403625488281
0.7388591170310974 0.27217164635658264 0.517018735408783
0.8625561594963074 0.2285553365945816 0.5841217637062073
0.8235504627227783 0.246749147772789 0.5004297494888306
0.8361102342605591 0.18019048869609833 0.563872218132019
0.838921070098877 0.28148186206817627 0.5064054131507874
0.6754329204559326 0.19289331138134003 0.45828837156295776
0.7414782643318176 0.10190984606742859 0.524641215801239
0.8053228259086609 0.2476503551006317 0.45285388827323914
0.8249369263648987 0.19087611138820648 0.5565305352210999
0.7013031244277954 0.18195070326328278 0.4391670227050781
0.8079378604888916 0.13168640434741974 0.44043609499931335
0.7896096110343933 0.13508540391921997 0.4225100874900818
0.8323265314102173 0.27458104491233826 0.43539464473724365
0.8157440423965454 0.1397802084684372 0.38479024171829224
0.673490583896637 0.19592249393463135 0.5708332061767578
0.7984559535980225 0.2682180106639862 0.427153617143631
0.7297967672348022 0.10942698270082474 0.5270545482635498
0.78743577003479 0.16641946136951447 0.5884960889816284
0.7348055839538574 0.2506310045719147 0.43136900663375854
0.7177926898002625 0.1338365077972412 0.42421409487724304
0.8263062834739685 0.1370442807674408 0.442951500415802
0.6872413158416748 0.1574014574289322 0.5232747197151184
0.7669703364372253 0.21964727342128754 0.4754847586154938
0.7183260321617126 0.16911758482456207 0.4533517062664032
0.7183260321617126 0.16911758482456207 0.4533517062664032
0.7532247304916382 0.18134675920009613 0.5744346976280212
0.798924446105957 0.15783338248729706 0.4113355576992035
0.7524106502532959 0.19421027600765228 0.5365979075431824
0.8008221387863159 0.11608746647834778 0.5459293127059937
0.8403781056404114 0.2519915699958801 0.4162611663341522
0.7055639624595642 0.16991515457630157 0.5788412690162659
0.8577281832695007 0.14242452383041382 0.47268471121788025
0.8251651525497437 0.262709379196167 0.43650147318840027
0.7184808254241943 0.1387094259262085 0.4883934259414673
0.8577007055282593 0.17705003917217255 0.4588170647621155
0.7432352304458618 0.12305294722318649 0.5144186019897461
0.7094887495040894 0.16141551733016968 0.5677313804626465
0.7980697154998779 0.1182485818862915 0.4183051288127899
0.7612193822860718 0.14621879160404205 0.42376723885536194
0.6770423054695129 0.20786061882972717 0.4243840277194977
0.7287023067474365 0.18996696174144745 0.5062198042869568
0.7829940915107727 0.2983770966529846 0.4597330391407013
0.6821717619895935 0.23474496603012085 0.46844956278800964
0.7388591170310974 0.27217164635658264 0.517018735408783
0.8625561594963074 0.2285553365945816 0.5841217637062073
0.7295643091201782 0.18788643181324005 0.5101158618927002
0.8235504627227783 0.246749147772789 0.5004297494888306
0.8361102342605591 0.18019048869609833 0.563872218132019
0.7675809264183044 0.24459634721279144 0.6021798253059387
0.838921070098877 0.28148186206817627 0.5064054131507874
0.6754329204559326 0.19289331138134003 0.45828837156295776
0.7414782643318176 0.10190984606742859 0.524641215801239
0.8053228259086609 0.2476503551006317 0.45285388827323914
0.8249369263648987 0.19087611138820648 0.5565305352210999
0.7013031244277954 0.18195070326328278 0.4391670227050781
0.8079378604888916 0.13168640434741974 0.44043609499931335
0.7013031244277954 0.18195070326328278 0.4391670227050781
0.8323265314102173 0.27458104491233826 0.43539464473724365
0.8157440423965454 0.1397802084684372 0.38479024171829224
0.673490583896637 0.19592249393463135 0.5708332061767578
0.7984559535980225 0.2682180106639862 0.427153617143631
0.6920835375785828 0.2382645159959793 0.46404793858528137
0.7348055839538574 0.2506310045719147 0.43136900663375854
0.6955440044403076 0.22127608954906464 0.5048526525497437
0.6931557059288025 0.17144520580768585 0.44561508297920227
0.7496259808540344 0.15444669127464294 0.45805224776268005
0.7633061408996582 0.16464054584503174 0.39405012130737305
0.6953647136688232 0.17367975413799286 0.6045796871185303
0.818645179271698 0.11115992069244385 0.485723078250885
0.871614933013916 0.209185391664505 0.5771764516830444
0.7330312728881836 0.12912125885486603 0.49883919954299927
0.7565210461616516 0.14011049270629883 0.5668757557868958
0.6832649111747742 0.24502013623714447 0.4386754631996155
0.7361909747123718 0.22198323905467987 0.46484383940696716
0.6832649111747742 0.24502013623714447 0.4386754631996155
0.8021999001502991 0.2068934142589569 0.5200948119163513
0.7963923215866089 0.3039288818836212 0.4352549612522125
0.8548707962036133 0.2257317453622818 0.4157910943031311
0.7284930944442749 0.10354559868574142 0.4604639708995819
0.7356207966804504 0.1320754885673523 0.5067996978759766
0.7892879843711853 0.22152698040008545 0.4839438796043396
0.7088630199432373 0.22712771594524384 0.581605851650238
0.825063943862915 0.181550994515419 0.5427114367485046
0.8179536461830139 0.15483851730823517 0.5278666615486145
0.7516365051269531 0.18341389298439026 0.4156080484390259
0.7142907977104187 0.2033415138721466 0.4313558042049408
0.7741906642913818 0.12682119011878967 0.5737828016281128
0.6938036680221558 0.165768101811409 0.5661361813545227
0.7106080055236816 0.16701629757881165 0.4964842200279236
0.7301889061927795 0.2506694793701172 0.4321693181991577
0.7361207008361816 0.1198732778429985 0.5438142418861389
0.7600465416908264 0.22481417655944824 0.6028587818145752
0.7410946488380432 0.1309860348701477 0.4858725666999817
0.6781888008117676 0.16326457262039185 0.5848392248153687
0.8522883653640747 0.21785148978233337 0.4261075556278229
0.7953099012374878 0.3069685995578766 0.46627768874168396
0.818645179271698 0.11115992069244385 0.485723078250885
0.871614933013916 0.209185391664505 0.5771764516830444
0.7330312728881836 0.12912125885486603 0.49883919954299927
0.7565210461616516 0.14011049270629883 0.5668757557868958
0.6890599727630615 0.2501971423625946 0.42900025844573975
0.7467100024223328 0.18052594363689423 0.5060237646102905
0.7284035682678223 0.15364030003547668 0.5368319749832153
0.8145335912704468 0.128391832113266 0.5072438716888428
0.6923882365226746 0.1733926683664322 0.4443150758743286
0.6832649111747742 0.24502013623714447 0.4386754631996155
0.8021999001502991 0.2068934142589569 0.5200948119163513
0.7963923215866089 0.3039288818836212 0.4352549612522125
0.8548707962036133 0.2257317453622818 0.4157910943031311
0.7284930944442749 0.10354559868574142 0.4604639708995819
0.7356207966804504 0.1320754885673523 0.5067996978759766
0.7892879843711853 0.22152698040008545 0.4839438796043396
0.7088630199432373 0.22712771594524384 0.581605851650238
0.825063943862915 0.181550994515419 0.5427114367485046
0.8179536461830139 0.15483851730823517 0.5278666615486145
0.7516365051269531 0.18341389298439026 0.4156080484390259
0.7899810075759888 0.13615131378173828 0.4804196059703827
0.839179515838623 0.25379106402397156 0.6123834252357483
0.8013389110565186 0.258277028799057 0.6002123951911926
0.8395721316337585 0.2155778557062149 0.4739026725292206
0.7325690984725952 0.22701357305049896 0.44167593121528625
0.7345141768455505 0.19286514818668365 0.48378875851631165
0.8376617431640625 0.17293427884578705 0.4411145746707916
0.8223979473114014 0.2635340094566345 0.5516088604927063
0.7165231108665466 0.1192481741309166 0.3794710338115692
0.6673818826675415 0.2049868404865265 0.45071953535079956
0.8319281935691833 0.25102555751800537 0.46999025344848633
0.6868492960929871 0.20934849977493286 0.4911802113056183
0.7827613353729248 0.26055076718330383 0.613558292388916
0.8184388279914856 0.15630891919136047 0.4569140076637268
0.8051728010177612 0.29924899339675903 0.4345344305038452
0.7270699739456177 0.1414508819580078 0.5225098729133606
0.7858820557594299 0.21843484044075012 0.4548560678958893
0.7922580242156982 0.1362028419971466 0.47804662585258484
0.8066767454147339 0.16238170862197876 0.5379997491836548
0.8041369318962097 0.1992187798023224 0.38930264115333557
0.7001392841339111 0.22037577629089355 0.4522247612476349
0.801723301410675 0.13072001934051514 0.5250276923179626
0.7652921676635742 0.10833485424518585 0.5333726406097412
0.7219292521476746 0.19769532978534698 0.5359610915184021
0.6640985012054443 0.21255072951316833 0.5267236232757568
0.7297101616859436 0.27185940742492676 0.43983930349349976
0.6931557059288025 0.17144520580768585 0.44561508297920227
0.7496259808540344 0.15444669127464294 0.45805224776268005
0.7633061408996582 0.16464054584503174 0.39405012130737305
0.6953647136688232 0.17367975413799286 0.6045796871185303
0.818645179271698 0.11115992069244385 0.485723078250885
0.871614933013916 0.209185391664505 0.5771764516830444
0.7330312728881836 0.12912125885486603 0.49883919954299927
0.7565210461616516 0.14011049270629883 0.5668757557868958
0.6890599727630615 0.2501971423625946 0.42900025844573975
0.7467100024223328 0.18052594363689423 0.5060237646102905
0.7284035682678223 0.15364030003547668 0.5368319749832153
0.8145335912704468 0.128391832113266 0.5072438716888428
0.6923882365226746 0.1733926683664322 0.4443150758743286
0.6832649111747742 0.24502013623714447 0.4386754631996155
0.8021999001502991 0.2068934142589569 0.5200948119163513
0.7963923215866089 0.3039288818836212 0.4352549612522125
0.8548707962036133 0.2257317453622818 0.4157910943031311
0.7177926898002625 0.1338365077972412 0.42421409487724304
0.8216554522514343 0.25470179319381714 0.41321131587028503
0.8057289123535156 0.2924078702926636 0.45667093992233276
0.8399296998977661 0.2661183774471283 0.4838026165962219
0.7649761438369751 0.20472125709056854 0.5966536998748779
0.7427090406417847 0.10514523088932037 0.5432935357093811
0.8330313563346863 0.17501336336135864 0.5479878783226013
0.8336199522018433 0.11747100949287415 0.5549845099449158
0.8489020466804504 0.12772978842258453 0.4895649254322052
0.7339993119239807 0.21956074237823486 0.4758307933807373
0.8316798210144043 0.11774411797523499 0.5082874298095703
0.6827990412712097 0.1748465746641159 0.6087868213653564
0.8053434491157532 0.2626405358314514 0.5164221525192261
0.8123013973236084 0.24037335813045502 0.5824288129806519
0.6712878346443176 0.2334594577550888 0.5019819140434265
0.8569703698158264 0.1634710729122162 0.4268432855606079
0.8064890503883362 0.2035444974899292 0.553358793258667
0.7361207008361816 0.1198732778429985 0.5438142418861389
0.7048378586769104 0.13088969886302948 0.47813910245895386
0.7732056975364685 0.27734798192977905 0.4324761927127838
0.6960881948471069 0.19303682446479797 0.5640538930892944
0.8611869215965271 0.16049768030643463 0.5361964702606201
0.8062387704849243 0.2811523377895355 0.5829060673713684
0.7615588307380676 0.18280518054962158 0.5747199654579163
0.8371016979217529 0.1270323395729065 0.44223546981811523
0.8448892831802368 0.1652960628271103 0.5447902083396912
0.6583731174468994 0.25507062673568726 0.43581822514533997
0.7600281834602356 0.1354934275150299 0.461128294467926
0.7673331499099731 0.19958896934986115 0.4066452085971832
0.803231954574585 0.24677623808383942 0.41358116269111633
0.7380496263504028 0.1056709960103035 0.5635321736335754
0.7594819664955139 0.11971373856067657 0.5319822430610657
0.8623197674751282 0.19361479580402374 0.527503252029419
0.7656341195106506 0.20104311406612396 0.5606639385223389
0.7681447267532349 0.24117903411388397 0.5277149677276611
0.6810175776481628 0.18717201054096222 0.44003766775131226
0.7847715616226196 0.11415734142065048 0.40258634090423584
0.8334280848503113 0.16485466063022614 0.5771304965019226
0.7928288578987122 0.1181042492389679 0.47422152757644653
0.7460589408874512 0.12896645069122314 0.4270423948764801
0.6539843678474426 0.21951884031295776 0.5075270533561707
0.7898972034454346 0.1870390921831131 0.4635275602340698
0.8456594347953796 0.12117746472358704 0.4680374562740326
0.7236012816429138 0.11762986332178116 0.3726476728916168
0.7218751311302185 0.19766756892204285 0.5149676203727722
0.7702568769454956 0.2521536648273468 0.61857008934021
0.7028539180755615 0.16583766043186188 0.410805344581604
0.8661819696426392 0.19309450685977936 0.3822071850299835
0.7158212065696716 0.14872440695762634 0.4064705967903137
0.8369041085243225 0.26502111554145813 0.4468596577644348
0.7895681858062744 0.1744072139263153 0.5339761972427368
0.7041910290718079 0.16473594307899475 0.43554362654685974
0.8056340217590332 0.18603543937206268 0.5481009483337402
0.734815239906311 0.15568451583385468 0.47335436940193176
0.7203447222709656 0.2754908800125122 0.4257371127605438
0.7203447222709656 0.2754908800125122 0.4257371127605438
0.7248561978340149 0.11660581082105637 0.4202730357646942
0.7483145594596863 0.12070630490779877 0.43488994240760803
0.7138402462005615 0.13836677372455597 0.4084939658641815
0.770840585231781 0.18398192524909973 0.3926570415496826
0.7873819470405579 0.1471736580133438 0.5561528205871582
0.8350914120674133 0.13230717182159424 0.5078774094581604
0.8350914120674133 0.13230717182159424 0.5078774094581604
0.739957332611084 0.243163600564003 0.42931416630744934
0.870362401008606 0.2205490916967392 0.418561726808548
0.7219292521476746 0.19769532978534698 0.5359610915184021
0.6640985012054443 0.21255072951316833 0.5267236232757568
0.823733925819397 0.22413305938243866 0.42145174741744995
0.7297101616859436 0.27185940742492676 0.43983930349349976
0.6931557059288025 0.17144520580768585 0.44561508297920227
0.7496259808540344 0.15444669127464294 0.45805224776268005
0.7633061408996582 0.16464054584503174 0.39405012130737305
0.6953647136688232 0.17367975413799286 0.6045796871185303
0.818645179271698 0.11115992069244385 0.485723078250885
0.871614933013916 0.209185391664505 0.5771764516830444
0.7330312728881836 0.12912125885486603 0.49883919954299927
0.7565210461616516 0.14011049270629883 0.5668757557868958
0.6890599727630615 0.2501971423625946 0.42900025844573975
0.7467100024223328 0.18052594363689423 0.5060237646102905
0.7284035682678223 0.15364030003547668 0.5368319749832153
0.6766902208328247 0.18406860530376434 0.4332033395767212
0.7738690376281738 0.23900958895683289 0.4185798466205597
0.7599197030067444 0.1342095136642456 0.5797660946846008
0.7005077004432678 0.18187005817890167 0.47915127873420715
0.7296930551528931 0.22484497725963593 0.4494493007659912
0.8665227890014648 0.1495017409324646 0.4002922475337982
0.7669228911399841 0.1641390472650528 0.5537402629852295
0.7331177592277527 0.1610981523990631 0.4277706742286682
0.8216554522514343 0.25470179319381714 0.41321131587028503
0.746613085269928 0.25453639030456543 0.5044108033180237
0.7988260984420776 0.15335725247859955 0.4568265676498413
0.7867794632911682 0.21109706163406372 0.4187454581260681
0.7808634042739868 0.1515575349330902 0.42380189895629883
0.8149229288101196 0.22741012275218964 0.5214056372642517
0.6825379729270935 0.2404574155807495 0.45199596881866455
0.824470579624176 0.21466191112995148 0.5663091540336609
0.8564300537109375 0.20188453793525696 0.4843275249004364
0.6890599727630615 0.2501971423625946 0.42900025844573975
0.7467100024223328 0.18052594363689423 0.5060237646102905
0.7284035682678223 0.15364030003547668 0.5368319749832153
0.8145335912704468 0.128391832113266 0.5072438716888428
0.6923882365226746 0.1733926683664322 0.4443150758743286
0.6832649111747742 0.24502013623714447 0.4386754631996155
0.8704481720924377 0.20411337912082672 0.5343575477600098
0.8806142210960388 0.19266213476657867 0.5642158389091492
0.690463662147522 0.15393489599227905 0.5683085918426514
0.8682494163513184 0.23315170407295227 0.41479694843292236
0.7137858867645264 0.1552010476589203 0.5218287706375122
0.7190938591957092 0.17166803777217865 0.41750189661979675
0.8510221838951111 0.262921005487442 0.4452923834323883
0.8108767867088318 0.1910063624382019 0.561697244644165
0.6971204876899719 0.13570289313793182 0.5599058270454407
0.7220023274421692 0.14880914986133575 0.4622068703174591
0.6575185656547546 0.23142440617084503 0.46158480644226074
0.8074851036071777 0.2019997388124466 0.5473030209541321
0.7690218687057495 0.16703593730926514 0.5442364811897278
0.7270898818969727 0.1114884540438652 0.384489506483078
0.8591477274894714 0.22555430233478546 0.5132368803024292
0.7577614784240723 0.19825784862041473 0.5820306539535522
0.7138004899024963 0.1553269326686859 0.4327324330806732
0.815328061580658 0.2109462469816208 0.5423486232757568
0.679277777671814 0.22754180431365967 0.5325981378555298
0.8132402896881104 0.24468320608139038 0.5225573182106018
0.8263542652130127 0.25145962834358215 0.5428696870803833
0.8081670999526978 0.2554958462715149 0.5246572494506836
0.8684859275817871 0.18666936457157135 0.582314670085907
0.7187060713768005 0.18493352830410004 0.4550650119781494
0.8547313213348389 0.1253688484430313 0.47950080037117004
0.835231602191925 0.2871581017971039 0.4173799157142639
0.7035330533981323 0.1590525060892105 0.3890076279640198
0.7467849254608154 0.19913432002067566 0.4995255172252655
0.8432623744010925 0.128260537981987 0.5518659353256226
0.8220859169960022 0.11221267282962799 0.5432360768318176
0.8455115556716919 0.10850856453180313 0.5653230547904968
0.823544442653656 0.13861651718616486 0.5190107226371765
0.7107186317443848 0.12128935754299164 0.5473170876502991
0.7224835753440857 0.27919840812683105 0.4395206868648529
0.818807065486908 0.19375042617321014 0.4445331394672394
0.8214878439903259 0.19894275069236755 0.5017791390419006
0.7534341216087341 0.2885974943637848 0.4908175468444824
0.8649831414222717 0.22186227142810822 0.4683590233325958
0.8747859597206116 0.183806911110878 0.4700484275817871
0.8809539079666138 0.18448668718338013 0.492314875125885
0.8072729706764221 0.11014189571142197 0.500704288482666
0.7422537803649902 0.17027810215950012 0.5836645364761353
0.7332877516746521 0.18723352253437042 0.5185221433639526
0.8288013935089111 0.11279943585395813 0.48901331424713135
0.8263465166091919 0.25497129559516907 0.5203747749328613
0.7193278670310974 0.15466493368148804 0.39568597078323364
0.8304879665374756 0.21880505979061127 0.48778262734413147
0.7499778270721436 0.2940467298030853 0.4532935619354248
0.8724085688591003 0.17606523633003235 0.3961109220981598
0.8182960152626038 0.1139429360628128 0.5388638973236084
0.7099581956863403 0.1816522777080536 0.4418310821056366
0.7953720688819885 0.19338291883468628 0.5555133819580078
0.7488824129104614 0.1261015087366104 0.39954161643981934
0.693996787071228 0.1661994606256485 0.5616804361343384
0.8239514827728271 0.12124194949865341 0.5034080147743225
0.8117354512214661 0.24638189375400543 0.40382620692253113
0.8196101784706116 0.19356635212898254 0.5418627262115479
0.813475489616394 0.15670740604400635 0.3811696171760559
0.6832649111747742 0.24502013623714447 0.4386754631996155
0.8021999001502991 0.2068934142589569 0.5200948119163513
0.7963923215866089 0.3039288818836212 0.4352549612522125
0.8548707962036133 0.2257317453622818 0.4157910943031311
0.7284930944442749 0.10354559868574142 0.4604639708995819
0.7356207966804504 0.1320754885673523 0.5067996978759766
0.7892879843711853 0.22152698040008545 0.4839438796043396
0.7088630199432373 0.22712771594524384 0.581605851650238
0.825063943862915 0.181550994515419 0.5427114367485046
0.8179536461830139 0.15483851730823517 0.5278666615486145
0.7516365051269531 0.18341389298439026 0.4156080484390259
0.7899810075759888 0.13615131378173828 0.4804196059703827
0.839179515838623 0.25379106402397156 0.6123834252357483
0.8013389110565186 0.258277028799057 0.6002123951911926
0.8395721316337585 0.2155778557062149 0.4739026725292206
0.7325690984725952 0.22701357305049896 0.44167593121528625
0.8531489372253418 0.22440488636493683 0.4800017774105072
0.7788515686988831 0.21164551377296448 0.5354817509651184
0.7170087695121765 0.11635521054267883 0.49059996008872986
0.8450064659118652 0.13453409075737 0.40562450885772705
0.8654287457466125 0.17901961505413055 0.3944688141345978
0.7265632748603821 0.11954713612794876 0.5737033486366272
0.734533429145813 0.18106390535831451 0.5088170766830444
0.8233498930931091 0.1456759124994278 0.5745295286178589
0.8425019383430481 0.17850200831890106 0.5434975624084473
0.7767162919044495 0.2784523367881775 0.5057774186134338
0.735887348651886 0.22034381330013275 0.5136595368385315
0.7100458145141602 0.16469186544418335 0.45717597007751465
0.7516825199127197 0.27983421087265015 0.4554885923862457
0.6798062324523926 0.21939130127429962 0.5270221829414368
0.8866655230522156 0.13646072149276733 0.5683693289756775
0.6918590068817139 0.18717963993549347 0.5946841239929199
0.6832649111747742 0.24502013623714447 0.4386754631996155
0.8021999001502991 0.2068934142589569 0.5200948119163513
0.7963923215866089 0.3039288818836212 0.4352549612522125
0.8548707962036133 0.2257317453622818 0.4157910943031311
0.7284930944442749 0.10354559868574142 0.4604639708995819
0.7356207966804504 0.1320754885673523 0.5067996978759766
0.7892879843711853 0.22152698040008545 0.4839438796043396
0.7088630199432373 0.22712771594524384 0.581605851650238
0.825063943862915 0.181550994515419 0.5427114367485046
0.8179536461830139 0.15483851730823517 0.5278666615486145
0.7516365051269531 0.18341389298439026 0.4156080484390259
0.7899810075759888 0.13615131378173828 0.4804196059703827
0.839179515838623 0.25379106402397156 0.6123834252357483
0.8013389110565186 0.258277028799057 0.6002123951911926
0.8395721316337585 0.2155778557062149 0.4739026725292206
0.7325690984725952 0.22701357305049896 0.44167593121528625
0.8531489372253418 0.22440488636493683 0.4800017774105072
0.7788515686988831 0.21164551377296448 0.5354817509651184
0.7946459650993347 0.10259270668029785 0.5471048951148987
0.8291961550712585 0.21430115401744843 0.4436522126197815
0.7869271636009216 0.23312507569789886 0.5725136995315552
0.7437818050384521 0.11458556354045868 0.5101879835128784
0.7506546378135681 0.28895631432533264 0.436922550201416
0.811299204826355 0.197515606880188 0.5888156294822693
0.7961441874504089 0.1612725406885147 0.4285010099411011
0.7462888956069946 0.22319214046001434 0.4936203360557556
0.7767162919044495 0.2784523367881775 0.5057774186134338
0.7033366560935974 0.24856477975845337 0.4735020399093628
0.7818485498428345 0.10284211486577988 0.5388545393943787
0.8574531078338623 0.2292037159204483 0.5958148837089539
0.8489020466804504 0.12772978842258453 0.4895649254322052
0.7946426272392273 0.2644159197807312 0.5927693843841553
0.734815239906311 0.15568451583385468 0.47335436940193176
0.6836036443710327 0.16453048586845398 0.4259130656719208
0.749078631401062 0.13806742429733276 0.41057300567626953
0.770840585231781 0.18398192524909973 0.3926570415496826
0.7873819470405579 0.1471736580133438 0.5561528205871582
0.8350914120674133 0.13230717182159424 0.5078774094581604
0.739957332611084 0.243163600564003 0.42931416630744934
0.881280243396759 0.1739220917224884 0.3866024911403656
0.7057397961616516 0.19690142571926117 0.5686245560646057
0.7190377712249756 0.1369422823190689 0.46003198623657227
0.6875175833702087 0.20599064230918884 0.4889300763607025
0.8184388279914856 0.15630891919136047 0.4569140076637268
0.8051728010177612 0.29924899339675903 0.4345344305038452
0.7270699739456177 0.1414508819580078 0.5225098729133606
0.7858820557594299 0.21843484044075012 0.4548560678958893
0.7922580242156982 0.1362028419971466 0.47804662585258484
0.8066767454147339 0.16238170862197876 0.5379997491836548
0.8041369318962097 0.1992187798023224 0.38930264115333557
0.7001392841339111 0.22037577629089355 0.4522247612476349
0.801723301410675 0.13072001934051514 0.5250276923179626
0.7652921676635742 0.10833485424518585 0.5333726406097412
0.7219292521476746 0.19769532978534698 0.5359610915184021
0.6640985012054443 0.21255072951316833 0.5267236232757568
0.7297101616859436 0.27185940742492676 0.43983930349349976
0.6931557059288025 0.17144520580768585 0.44561508297920227
0.7496259808540344 0.15444669127464294 0.45805224776268005
0.7946459650993347 0.10259270668029785 0.5471048951148987
0.8291961550712585 0.21430115401744843 0.4436522126197815
0.7869271636009216 0.23312507569789886 0.5725136995315552
0.7437818050384521 0.11458556354045868 0.5101879835128784
0.7506546378135681 0.28895631432533264 0.436922550201416
0.8157996535301208 0.17933297157287598 0.437900185585022
0.8684859275817871 0.18666936457157135 0.582314670085907
0.7775790691375732 0.22691640257835388 0.4323304295539856
0.8734707236289978 0.18418988585472107 0.462958425283432
0.8665177226066589 0.1390504240989685 0.550868570804596
0.7301889061927795 0.2506694793701172 0.4321693181991577
0.7361207008361816 0.1198732778429985 0.5438142418861389
0.7048378586769104 0.13088969886302948 0.47813910245895386
0.7732056975364685 0.27734798192977905 0.4324761927127838
0.6960881948471069 0.19303682446479797 0.5640538930892944
0.8611869215965271 0.16049768030643463 0.5361964702606201
0.8062387704849243 0.2811523377895355 0.5829060673713684
0.7615588307380676 0.18280518054962158 0.5747199654579163
0.8371016979217529 0.1270323395729065 0.44223546981811523
0.8448892831802368 0.1652960628271103 0.5447902083396912
0.6583731174468994 0.25507062673568726 0.43581822514533997
0.6797081232070923 0.22075919806957245 0.5158175826072693
0.8760899305343628 0.20228713750839233 0.5031483173370361
0.8734443187713623 0.11777133494615555 0.5686202645301819
0.7181180119514465 0.12176654487848282 0.41491708159446716
0.8355294466018677 0.2028588354587555 0.5474759936332703
0.722766637802124 0.12962312996387482 0.5859483480453491
0.7600281834602356 0.1354934275150299 0.461128294467926
0.8795599341392517 0.15148070454597473 0.41068658232688904
0.7357692122459412 0.13320070505142212 0.3953719437122345
0.7494880557060242 0.2477741241455078 0.4333556890487671
0.803231954574585 0.24677623808383942 0.41358116269111633
0.7723875045776367 0.15537171065807343 0.5081269145011902
0.7994076609611511 0.24901361763477325 0.4387068450450897
0.7594819664955139 0.11971373856067657 0.5319822430610657
0.6973293423652649 0.20586144924163818 0.45346054434776306
0.8287655711174011 0.19206123054027557 0.416177898645401
0.7057397961616516 0.19690142571926117 0.5686245560646057
0.8053434491157532 0.2626405358314514 0.5164221525192261
0.8123013973236084 0.24037335813045502 0.5824288129806519
0.8354154825210571 0.17041684687137604 0.5874093770980835
0.7361207008361816 0.1198732778429985 0.5438142418861389
0.7048378586769104 0.13088969886302948 0.47813910245895386
0.7732056975364685 0.27734798192977905 0.4324761927127838
0.8846936225891113 0.161112979054451 0.37838101387023926
0.7130483388900757 0.11519009619951248 0.39036205410957336
0.8132585883140564 0.204934224486351 0.42342814803123474
0.7966540455818176 0.25698181986808777 0.5278744697570801
0.6875846982002258 0.1985817700624466 0.41382867097854614
0.7931490540504456 0.17147350311279297 0.5055714845657349
0.7600281834602356 0.1354934275150299 0.461128294467926
0.8795599341392517 0.15148070454597473 0.41068658232688904
0.7357692122459412 0.13320070505142212 0.3953719437122345
0.7494880557060242 0.2477741241455078 0.4333556890487671
0.803231954574585 0.24677623808383942 0.41358116269111633
0.7380496263504028 0.1056709960103035 0.5635321736335754
0.7594819664955139 0.11971373856067657 0.5319822430610657
0.6973293423652649 0.20586144924163818 0.45346054434776306
0.8287655711174011 0.19206123054027557 0.416177898645401
0.8159725666046143 0.1375560164451599 0.47951433062553406
0.8444621562957764 0.20168361067771912 0.5956035852432251
0.69084632396698 0.16541975736618042 0.5710797905921936
0.6946229934692383 0.15670721232891083 0.5104402303695679
0.747114360332489 0.26041680574417114 0.44765952229499817
0.7140741944313049 0.16927295923233032 0.4334753453731537
0.7948762774467468 0.22574150562286377 0.6014670133590698
0.7321174144744873 0.11162873357534409 0.5173161029815674
0.7620155811309814 0.14630885422229767 0.5809625387191772
0.698392391204834 0.24674123525619507 0.45162567496299744
0.7516365051269531 0.18341389298439026 0.4156080484390259
0.8574531078338623 0.2292037159204483 0.5958148837089539
0.8489020466804504 0.12772978842258453 0.4895649254322052
0.7339993119239807 0.21956074237823486 0.4758307933807373
0.6740354299545288 0.21265995502471924 0.5487945675849915
0.8287924528121948 0.21423949301242828 0.4565376937389374
0.7884131669998169 0.12518219649791718 0.48927536606788635
0.7721036076545715 0.1064363494515419 0.45590248703956604
0.7626857161521912 0.15392832458019257 0.3922625184059143
0.7426605820655823 0.24387164413928986 0.5609641075134277
0.8707678318023682 0.2130543291568756 0.5627642869949341
0.715763509273529 0.20281577110290527 0.5113989114761353
0.7955285906791687 0.18994846940040588 0.5697072148323059
0.8016557097434998 0.28927096724510193 0.5546535849571228
0.813755989074707 0.15895643830299377 0.5299645066261292
0.6583207845687866 0.22597773373126984 0.5005501508712769
0.8243289589881897 0.24286480247974396 0.4921618700027466
0.6591651439666748 0.21775296330451965 0.47047725319862366
0.7017362713813782 0.18246890604496002 0.5632946491241455
0.7818544507026672 0.13445021212100983 0.542147696018219
0.7599259614944458 0.19746074080467224 0.4601593017578125
0.823772132396698 0.12967093288898468 0.5426576137542725
0.8444621562957764 0.20168361067771912 0.5956035852432251
0.69084632396698 0.16541975736618042 0.5710797905921936
0.6946229934692383 0.15670721232891083 0.5104402303695679
0.747114360332489 0.26041680574417114 0.44765952229499817
0.7140741944313049 0.16927295923233032 0.4334753453731537
0.7948762774467468 0.22574150562286377 0.6014670133590698
0.7321174144744873 0.11162873357534409 0.5173161029815674
0.84503173828125 0.21034148335456848 0.48457592725753784
0.698392391204834 0.24674123525619507 0.45162567496299744
0.7946087718009949 0.13990262150764465 0.5578006505966187
0.8389416933059692 0.2500103712081909 0.517757773399353
0.8542260527610779 0.11719901859760284 0.49826502799987793
0.7035160064697266 0.1926671266555786 0.48023468255996704
0.8454711437225342 0.17596715688705444 0.4552878141403198
0.8850423693656921 0.16606149077415466 0.425500750541687
0.8282288908958435 0.21925686299800873 0.4208935499191284
0.8316798210144043 0.11774411797523499 0.5082874298095703
0.6827990412712097 0.1748465746641159 0.6087868213653564
0.8053434491157532 0.2626405358314514 0.5164221525192261
0.8123013973236084 0.24037335813045502 0.5824288129806519
0.6712878346443176 0.2334594577550888 0.5019819140434265
0.8569703698158264 0.1634710729122162 0.4268432855606079
0.8064890503883362 0.2035444974899292 0.553358793258667
0.8652560710906982 0.12525373697280884 0.5212908983230591
0.8055781722068787 0.1739039570093155 0.4750599265098572
0.7884131669998169 0.12518219649791718 0.48927536606788635
0.7721036076545715 0.1064363494515419 0.45590248703956604
0.7626857161521912 0.15392832458019257 0.3922625184059143
0.7898684144020081 0.2464836984872818 0.5117021203041077
0.7758626937866211 0.19391758739948273 0.5057977437973022
0.7655237317085266 0.13921086490154266 0.38386428356170654
0.7717719674110413 0.1682320088148117 0.5075669884681702
0.7660741209983826 0.19815443456172943 0.469200074672699
0.7966948747634888 0.20961542427539825 0.4822353422641754
0.7513926029205322 0.16594769060611725 0.5870842337608337
0.7627449631690979 0.15308091044425964 0.5342171788215637
0.8066762685775757 0.1224493682384491 0.55148845911026
0.8457923531532288 0.23078221082687378 0.5266528129577637
0.8157944083213806 0.2175670564174652 0.45935097336769104
0.6829625964164734 0.23524241149425507 0.46431782841682434
0.7080535888671875 0.2622775137424469 0.4233436584472656
0.7403795719146729 0.19975849986076355 0.4811907112598419
0.8408384919166565 0.15796171128749847 0.3776376247406006
0.7379484176635742 0.22452771663665771 0.43475276231765747
0.7116613984107971 0.2323296070098877 0.44320496916770935
0.7382482290267944 0.2007683366537094 0.5365085601806641
0.8188042640686035 0.27894264459609985 0.4723813235759735
0.8442158102989197 0.1338665783405304 0.5085473656654358
0.7489177584648132 0.2061006873846054 0.5204108953475952
0.739957869052887 0.19480465352535248 0.423926442861557
0.8704618811607361 0.17164729535579681 0.4241899251937866
0.6826164126396179 0.26340451836586 0.4267941117286682
0.7439126372337341 0.1634676307439804 0.5069596171379089
0.7898684144020081 0.2464836984872818 0.5117021203041077
0.7758626937866211 0.19391758739948273 0.5057977437973022
0.7655237317085266 0.13921086490154266 0.38386428356170654
0.7717719674110413 0.1682320088148117 0.5075669884681702
0.7660741209983826 0.19815443456172943 0.469200074672699
0.7966948747634888 0.20961542427539825 0.4822353422641754
0.7513926029205322 0.16594769060611725 0.5870842337608337
0.7627449631690979 0.15308091044425964 0.5342171788215637
0.8066762685775757 0.1224493682384491 0.55148845911026
0.8457923531532288 0.23078221082687378 0.5266528129577637
0.7103075385093689 0.21345238387584686 0.5655574798583984
0.7628926038742065 0.28238627314567566 0.4232095181941986
0.7423259019851685 0.19705137610435486 0.597734272480011
0.7422470450401306 0.2375536412000656 0.5690550804138184
0.7490407228469849 0.13155406713485718 0.5464742183685303
0.726233959197998 0.11990021169185638 0.39143234491348267
0.7594150900840759 0.243118017911911 0.5981848835945129
0.7670933604240417 0.11793220043182373 0.4830656051635742
0.8165438771247864 0.17641524970531464 0.5455442667007446
0.7169298529624939 0.11063311249017715 0.387917160987854
0.8401699066162109 0.19695612788200378 0.4228750169277191
0.8129231333732605 0.11104346066713333 0.5316558480262756
0.6952797770500183 0.227413147687912 0.4243253469467163
0.7025386095046997 0.17978572845458984 0.5310763716697693
0.7787024974822998 0.25280481576919556 0.46276962757110596
0.7504555583000183 0.252705842256546 0.5587513446807861
0.8703191876411438 0.14732244610786438 0.467037558555603
0.7418735027313232 0.16781000792980194 0.5728938579559326
0.7104560136795044 0.19489137828350067 0.4211430549621582
0.8932356238365173 0.14616923034191132 0.482924222946167
0.8397253751754761 0.22761224210262299 0.5424739718437195
0.7064694762229919 0.24434791505336761 0.44389185309410095
0.8068411946296692 0.1351178139448166 0.4539880156517029
0.8183038234710693 0.11903534829616547 0.4926976263523102
0.7840646505355835 0.29130688309669495 0.4861125946044922
0.8599886298179626 0.15635190904140472 0.505905270576477
0.6752315759658813 0.17965398728847504 0.6096124053001404
0.7164945006370544 0.25340431928634644 0.5358179211616516
0.7595130205154419 0.21822446584701538 0.5403262972831726
0.7737542390823364 0.13348577916622162 0.5125584006309509
0.7436515688896179 0.11658627539873123 0.47766464948654175
0.8217064142227173 0.28856295347213745 0.5429832935333252
0.752913236618042 0.15762850642204285 0.5586755275726318
0.6950227618217468 0.24839471280574799 0.42849281430244446
0.7631863951683044 0.10535374283790588 0.47028160095214844
0.7626665830612183 0.28574618697166443 0.4777694642543793
0.7438184022903442 0.18286259472370148 0.5852183699607849
0.7520570755004883 0.18673402070999146 0.5501196384429932
0.8279916644096375 0.1442716270685196 0.44629284739494324
0.8253967761993408 0.17890411615371704 0.42554232478141785
0.7336753010749817 0.2012190967798233 0.4833274185657501
0.8160491585731506 0.30285030603408813 0.48499923944473267
0.7290390729904175 0.20349955558776855 0.5454494953155518
0.8117354512214661 0.24638189375400543 0.40382620692253113
0.8048353791236877 0.1452227383852005 0.5010694861412048
0.8135976195335388 0.26213422417640686 0.545676589012146
0.7951587438583374 0.10797297954559326 0.5471514463424683
0.8021389245986938 0.25103774666786194 0.44233179092407227
0.8367859125137329 0.22714239358901978 0.45789632201194763
0.7228471636772156 0.13226550817489624 0.4208329916000366
0.8081757426261902 0.3047296404838562 0.469218909740448
0.7897671461105347 0.23110303282737732 0.566230297088623
0.8429225087165833 0.19924795627593994 0.4162629544734955
0.7510066032409668 0.12965404987335205 0.39943310618400574
0.7170490622520447 0.13977563381195068 0.5257415771484375
0.8249034881591797 0.25189709663391113 0.5538190603256226
0.8320620656013489 0.17293505370616913 0.5288171768188477
0.864279568195343 0.1336018294095993 0.4594038724899292
0.8585100173950195 0.13906855881214142 0.49507439136505127
0.7099400758743286 0.1482897400856018 0.41010209918022156
0.7756674885749817 0.16573378443717957 0.3886750340461731
0.8663028478622437 0.15484599769115448 0.5421635508537292
0.713108241558075 0.2375858575105667 0.5533557534217834
0.8416343331336975 0.23717369139194489 0.5578588843345642
0.7819269299507141 0.30055591464042664 0.4850718379020691
0.7677450776100159 0.13521774113178253 0.5117393732070923
0.8610015511512756 0.2452453076839447 0.4775995910167694
0.7137614488601685 0.1540592908859253 0.4980398416519165
0.8756663799285889 0.12988626956939697 0.559994637966156
0.7681635022163391 0.15309388935565948 0.47311171889305115
0.7742859721183777 0.12016379088163376 0.38203760981559753
0.778121829032898 0.18288537859916687 0.4270232319831848
0.7778897285461426 0.23561888933181763 0.41862350702285767
0.8490084409713745 0.24539579451084137 0.43385228514671326
0.832123339176178 0.19598007202148438 0.43055784702301025
0.7615588307380676 0.18280518054962158 0.5747199654579163
0.7627449631690979 0.15308091044425964 0.5342171788215637
0.77653968334198 0.17560507357120514 0.4649066627025604
0.8174373507499695 0.3001115322113037 0.43758144974708557
0.83799147605896 0.15970434248447418 0.5024128556251526
0.8314717411994934 0.26788264513015747 0.6008241176605225
0.8271418213844299 0.18619392812252045 0.5543293356895447
0.775415301322937 0.184350848197937 0.5400266647338867
0.8209755420684814 0.17522329092025757 0.4641071856021881
0.83403080701828 0.19244584441184998 0.49432605504989624
0.8448653817176819 0.1868690699338913 0.38755524158477783
0.8706329464912415 0.12808102369308472 0.52494877576828
0.7350122332572937 0.2236587554216385 0.5819280743598938
0.7430866956710815 0.17008550465106964 0.5800014138221741
0.8606370091438293 0.21021768450737 0.40792185068130493
0.8404279947280884 0.17162390053272247 0.5301662683486938
0.7334675788879395 0.22515162825584412 0.4231908917427063
0.7444209456443787 0.21057958900928497 0.5175607800483704
0.855577290058136 0.18713688850402832 0.3886568546295166
0.8277597427368164 0.17664267122745514 0.4775511920452118
0.8118858933448792 0.21580380201339722 0.4122712016105652
0.844093382358551 0.27031025290489197 0.5987393260002136
0.86627596616745 0.2244441658258438 0.4647749364376068
0.8617793917655945 0.15741993486881256 0.455379843711853
0.8274760842323303 0.27856341004371643 0.44879359006881714
0.731029212474823 0.24304117262363434 0.5912538170814514
0.7520570755004883 0.18673402070999146 0.5501196384429932
0.8279916644096375 0.1442716270685196 0.44629284739494324
0.8253967761993408 0.17890411615371704 0.42554232478141785
0.7336753010749817 0.2012190967798233 0.4833274185657501
0.8160491585731506 0.30285030603408813 0.48499923944473267
0.7290390729904175 0.20349955558776855 0.5454494953155518
0.7884131669998169 0.12518219649791718 0.48927536606788635
0.7655237317085266 0.13921086490154266 0.38386428356170654
0.7717719674110413 0.1682320088148117 0.5075669884681702
0.7660741209983826 0.19815443456172943 0.469200074672699
0.7473477721214294 0.1610613465309143 0.5787174105644226
0.7846598029136658 0.17242762446403503 0.5177767872810364
0.8023141026496887 0.11484776437282562 0.4357469081878662
0.8095628023147583 0.2533458471298218 0.5573352575302124
0.7233245372772217 0.19528262317180634 0.5364729166030884
0.8107802271842957 0.2352285385131836 0.4334743320941925
0.6659066677093506 0.19445909559726715 0.6161751747131348
0.8820798397064209 0.17034479975700378 0.4962165057659149
0.7339271903038025 0.11989768594503403 0.5009047389030457
0.8544980883598328 0.23815292119979858 0.4245288372039795
0.7528607249259949 0.28054502606391907 0.46311575174331665
0.7978212237358093 0.23107536137104034 0.44005411863327026
0.8503949046134949 0.16158874332904816 0.5331401228904724
0.8836630582809448 0.16229309141635895 0.5804167985916138
0.8536796569824219 0.11975537985563278 0.5038580894470215
0.7907606363296509 0.23592135310173035 0.5163412094116211
0.7077906727790833 0.257161021232605 0.5141472816467285
0.8023365139961243 0.1522623747587204 0.5818147659301758
0.7827015519142151 0.26789385080337524 0.5151174068450928
0.7448073029518127 0.13877913355827332 0.4373798668384552
0.6936083436012268 0.15810716152191162 0.5924869179725647
0.6821247339248657 0.17759984731674194 0.414292573928833
0.8129563927650452 0.1881784051656723 0.4880334734916687
0.7422476410865784 0.11422091722488403 0.42001989483833313
0.724920928478241 0.2641465365886688 0.4912360906600952
0.7921183705329895 0.1746937781572342 0.4963688552379608
0.6938866972923279 0.19931434094905853 0.43907108902931213
0.7330219745635986 0.23219995200634003 0.4115712642669678
0.7721036076545715 0.1064363494515419 0.45590248703956604
0.832123339176178 0.19598007202148438 0.43055784702301025
0.7641814947128296 0.29603588581085205 0.4650503396987915
0.7674879431724548 0.10911501944065094 0.5208896994590759
0.7416290044784546 0.1059243381023407 0.5607266426086426
0.7834689617156982 0.29036983847618103 0.5079830288887024
0.8488344550132751 0.21693621575832367 0.4040832817554474
0.7313024401664734 0.20792560279369354 0.47394946217536926
0.7077421545982361 0.20028197765350342 0.5067151188850403
0.8019169569015503 0.17653144896030426 0.4222440719604492
0.7345083355903625 0.2289656698703766 0.563423752784729
0.7689659595489502 0.2653336524963379 0.487753689289093
0.7784891128540039 0.22212769091129303 0.46735039353370667
0.7999038100242615 0.3171803951263428 0.4338613748550415
0.7910274863243103 0.20103901624679565 0.5848878026008606
0.7379484176635742 0.22452771663665771 0.43475276231765747
0.7116613984107971 0.2323296070098877 0.44320496916770935
0.7382482290267944 0.2007683366537094 0.5365085601806641
0.8188042640686035 0.27894264459609985 0.4723813235759735
0.8442158102989197 0.1338665783405304 0.5085473656654358
0.7489177584648132 0.2061006873846054 0.5204108953475952
0.739957869052887 0.19480465352535248 0.423926442861557
0.8704618811607361 0.17164729535579681 0.4241899251937866
0.6826164126396179 0.26340451836586 0.4267941117286682
0.7439126372337341 0.1634676307439804 0.5069596171379089
0.7898684144020081 0.2464836984872818 0.5117021203041077
0.7758626937866211 0.19391758739948273 0.5057977437973022
0.7655237317085266 0.13921086490154266 0.38386428356170654
0.7717719674110413 0.1682320088148117 0.5075669884681702
0.7660741209983826 0.19815443456172943 0.469200074672699
0.7966948747634888 0.20961542427539825 0.4822353422641754
0.7513926029205322 0.16594769060611725 0.5870842337608337
0.7721036076545715 0.1064363494515419 0.45590248703956604
0.7489177584648132 0.2061006873846054 0.5204108953475952
0.739957869052887 0.19480465352535248 0.423926442861557
0.8704618811607361 0.17164729535579681 0.4241899251937866
0.6826164126396179 0.26340451836586 0.4267941117286682
0.7439126372337341 0.1634676307439804 0.5069596171379089
0.778954803943634 0.14752016961574554 0.5199568271636963
0.7777945399284363 0.2718636393547058 0.4918537735939026
0.7541676163673401 0.1754373013973236 0.553523063659668
0.745690643787384 0.17818903923034668 0.428288072347641
0.8066025376319885 0.26170504093170166 0.5060229897499084
0.8724207282066345 0.16595228016376495 0.5783724188804626
0.7451969981193542 0.15553809702396393 0.4496481418609619
0.7074315547943115 0.19240328669548035 0.42722228169441223
0.7810750603675842 0.19322605431079865 0.40371906757354736
0.8056710362434387 0.21981152892112732 0.4566672444343567
0.8826161026954651 0.14065103232860565 0.5256243944168091
0.7941297888755798 0.24499277770519257 0.4781057834625244
0.8757800459861755 0.15667639672756195 0.48334112763404846
0.8508626818656921 0.12369780987501144 0.44318950176239014
0.8192769885063171 0.16849787533283234 0.5076515078544617
0.7727515697479248 0.24923664331436157 0.4510958194732666
0.7719712853431702 0.12216436117887497 0.524118959903717
0.8418766260147095 0.18874265253543854 0.5193772315979004
0.7974770069122314 0.15959763526916504 0.5898895263671875
0.8447547554969788 0.18448781967163086 0.5883734822273254
0.8056403994560242 0.18572328984737396 0.45812734961509705
0.7446969151496887 0.21548768877983093 0.43615880608558655
0.7566547393798828 0.306233286857605 0.43585044145584106
0.6991005539894104 0.16677404940128326 0.5069782137870789
0.7672799229621887 0.13784876465797424 0.4678138792514801
0.7120397686958313 0.2223214954137802 0.4935685694217682
0.7982305288314819 0.28235161304473877 0.48641958832740784
0.8716368079185486 0.20866423845291138 0.4980078935623169
0.7999550104141235 0.11530493199825287 0.5052139759063721
0.7358633279800415 0.16482725739479065 0.5928100347518921
0.7238848209381104 0.1446588635444641 0.3817919194698334
0.778489887714386 0.27343660593032837 0.4730643332004547
0.7979715466499329 0.18283112347126007 0.5503368377685547
0.7427374720573425 0.14711040258407593 0.5067969560623169
0.8306229114532471 0.26554587483406067 0.5819427967071533
0.7834147214889526 0.2852799594402313 0.4789438545703888
0.7439301013946533 0.11666087061166763 0.4440688490867615
0.7617910504341125 0.1656256765127182 0.41941553354263306
0.7834147214889526 0.2852799594402313 0.4789438545703888
0.7439301013946533 0.11666087061166763 0.4440688490867615
0.7996636629104614 0.11840496957302094 0.5083349347114563
0.6678866744041443 0.20973186194896698 0.5607080459594727
0.8124868869781494 0.18286824226379395 0.542542040348053
0.7129766345024109 0.19393020868301392 0.41795608401298523
0.6678866744041443 0.20973186194896698 0.5607080459594727
0.8124868869781494 0.18286824226379395 0.542542040348053
0.7129766345024109 0.19393020868301392 0.41795608401298523
0.7730686068534851 0.23761926591396332 0.5891470313072205
0.7305052280426025 0.12795740365982056 0.5629901885986328
0.7488821744918823 0.1986968219280243 0.3975093364715576
0.7488821744918823 0.1986968219280243 0.3975093364715576
0.717522919178009 0.21655268967151642 0.5470935106277466
0.8244878649711609 0.24468623101711273 0.5873764753341675
0.6862987279891968 0.23201826214790344 0.42396828532218933
0.7558468580245972 0.2264041006565094 0.4340352416038513
0.7628418207168579 0.14357151091098785 0.5385079383850098
0.8177393078804016 0.2403346300125122 0.46082574129104614
0.7543506026268005 0.25552284717559814 0.489935964345932
0.823772132396698 0.12967093288898468 0.5426576137542725
0.7621188759803772 0.2584148943424225 0.4279806613922119
0.7162557244300842 0.22665823996067047 0.41453075408935547
0.8671406507492065 0.12375126779079437 0.48875951766967773
0.8344539403915405 0.19664229452610016 0.4957648813724518
0.8149687051773071 0.17291337251663208 0.5004229545593262
0.7250440120697021 0.12034588307142258 0.5080729722976685
0.8037550449371338 0.1639334261417389 0.4089643359184265
0.7873327136039734 0.12960608303546906 0.53217613697052
0.7581729292869568 0.22909371554851532 0.43882834911346436
0.8311032056808472 0.12074805051088333 0.5043209791183472
0.7500849962234497 0.10566619783639908 0.4694356322288513
0.7479604482650757 0.11525269597768784 0.5476128458976746
0.7749334573745728 0.1774171143770218 0.5035644173622131
0.7982635498046875 0.20724691450595856 0.5862175226211548
0.7991544008255005 0.14761413633823395 0.49577414989471436
0.6912006735801697 0.2318638563156128 0.4367448389530182
0.8372793793678284 0.17231856286525726 0.5340465307235718
0.7397500872612 0.15929150581359863 0.44634342193603516
0.8043490648269653 0.13336537778377533 0.5651556253433228
