ply
format ascii 1.0
element vertex 823
property float x
property float y
property float z
end_header
0.4039977192878723 0.1884848177433014 0.5997689366340637
0.3712238669395447 0.201503723859787 0.4914412200450897
0.41697102785110474 0.2511959373950958 0.546771764755249
0.3605773150920868 0.17510728538036346 0.5800814032554626
0.36699429154396057 0.20593927800655365 0.47208675742149353
0.401458203792572 0.3406098783016205 0.4284254014492035
0.4849115014076233 0.15883603692054749 0.6098188757896423
0.42001768946647644 0.16488032042980194 0.44117480516433716
0.39154982566833496 0.11707621812820435 0.5145040154457092
0.4194939434528351 0.1161174327135086 0.5093960762023926
0.30905142426490784 0.16127997636795044 0.48268821835517883
0.4527873694896698 0.13517768681049347 0.587257444858551
0.32935160398483276 0.27091777324676514 0.5351414084434509
0.4864465296268463 0.23550167679786682 0.5009846091270447
0.36732202768325806 0.3057214021682739 0.45765942335128784
0.3561714291572571 0.16586144268512726 0.40483757853507996
0.436093270778656 0.14330065250396729 0.4753146767616272
0.42973119020462036 0.3013826608657837 0.4760530889034271
0.4329908788204193 0.28985685110092163 0.5030655860900879
0.41507840156555176 0.30572277307510376 0.4523281753063202
0.40317657589912415 0.17441102862358093 0.46954581141471863
0.4479798376560211 0.20109328627586365 0.5845404267311096
0.40744051337242126 0.1329088807106018 0.5680575370788574
0.40792199969291687 0.14996199309825897 0.5840136408805847
0.43876272439956665 0.26351457834243774 0.569350004196167
0.5092126131057739 0.17583192884922028 0.6111190319061279
0.44738656282424927 0.2772566080093384 0.4460514187812805
0.3589881956577301 0.26166731119155884 0.5701524615287781
0.3899262845516205 0.2413182258605957 0.5582373738288879
0.3567504584789276 0.22777050733566284 0.4285571277141571
0.34715786576271057 0.22942134737968445 0.41649091243743896
0.46557268500328064 0.1494837999343872 0.5478909015655518
0.34793540835380554 0.13975603878498077 0.40800657868385315
0.43614229559898376 0.2944590747356415 0.48648542165756226
0.3027787208557129 0.20247012376785278 0.40208700299263
0.31377601623535156 0.2654699385166168 0.41150957345962524
0.3402176797389984 0.162933349609375 0.5454934239387512
0.47559067606925964 0.1762637495994568 0.5375077128410339
0.3562401533126831 0.15739089250564575 0.5045092105865479
0.3511081337928772 0.30238789319992065 0.5041298270225525
0.31822940707206726 0.18600121140480042 0.4064022898674011
0.38533562421798706 0.33162590861320496 0.4795706272125244
0.43628355860710144 0.18345552682876587 0.4122200310230255
0.39045506715774536 0.13767109811306 0.5208566784858704
0.3763893246650696 0.10778769850730896 0.4990483224391937
0.4823565185070038 0.2488093078136444 0.42266198992729187
0.355563223361969 0.2115154266357422 0.5981913805007935
0.40404558181762695 0.17038214206695557 0.4667088985443115
0.4601953625679016 0.21376042068004608 0.5851538181304932
0.39947208762168884 0.19145600497722626 0.5295732617378235
0.5117872357368469 0.20895467698574066 0.49489375948905945
0.2904684543609619 0.2344522476196289 0.4905025362968445
0.31133583188056946 0.2199232578277588 0.5961917042732239
0.41399872303009033 0.22769102454185486 0.5570307970046997
0.3704104721546173 0.18780569732189178 0.4563489854335785
0.29985642433166504 0.25723400712013245 0.5731708407402039
0.48095566034317017 0.17076341807842255 0.47236168384552
0.43020737171173096 0.12326659262180328 0.5869350433349609
0.4225125014781952 0.25713831186294556 0.4889473617076874
0.4382157325744629 0.25926971435546875 0.4838230013847351
0.41928479075431824 0.11211979389190674 0.5845996737480164
0.5180562138557434 0.20205456018447876 0.44018733501434326
0.2765830159187317 0.23543094098567963 0.5907925367355347
0.4373641312122345 0.18394599854946136 0.49402931332588196
0.39159369468688965 0.10737345367670059 0.48314446210861206
0.39230990409851074 0.16864155232906342 0.4205368757247925
0.3317071795463562 0.15635378658771515 0.5849491357803345
0.4457207918167114 0.3048427999019623 0.46819767355918884
0.4485233426094055 0.13364937901496887 0.5648010969161987
0.42647698521614075 0.3271957337856293 0.5025139451026917
0.443207710981369 0.20346513390541077 0.4141559600830078
0.3235015571117401 0.17717920243740082 0.4251756966114044
0.39154255390167236 0.16447076201438904 0.5309087634086609
0.4772413969039917 0.24553066492080688 0.485652893781662
0.4049921929836273 0.22918206453323364 0.48393765091896057
0.3672102987766266 0.25134915113449097 0.4352889955043793
0.4311518371105194 0.24059882760047913 0.5463467240333557
0.5386731028556824 0.19989103078842163 0.4308041036128998
0.3970079720020294 0.13493917882442474 0.4668169319629669
0.42916491627693176 0.21746718883514404 0.411566823720932
0.372495174407959 0.2944106161594391 0.5462939143180847
0.38254520297050476 0.10236600786447525 0.5579817891120911
0.35582977533340454 0.30393365025520325 0.4794863760471344
0.28913530707359314 0.21036967635154724 0.45348602533340454
0.4494280517101288 0.19357319176197052 0.47156330943107605
0.409532755613327 0.2654619812965393 0.4585501551628113
0.4329327642917633 0.21751198172569275 0.5740528106689453
0.4124658703804016 0.15993644297122955 0.40998825430870056
0.3984266221523285 0.19759315252304077 0.4815954267978668
0.39908650517463684 0.2051069587469101 0.49384039640426636
0.302227258682251 0.22679564356803894 0.5878439545631409
0.3131934106349945 0.19045153260231018 0.5719431638717651
0.43015867471694946 0.3094748556613922 0.4627281427383423
0.4060363173484802 0.11774393916130066 0.4995828866958618
0.426547110080719 0.3145788311958313 0.4234458804130554
0.3966924548149109 0.2182779759168625 0.4117407500743866
0.4716854989528656 0.14530214667320251 0.46368342638015747
0.3510655164718628 0.21007506549358368 0.5914239287376404
0.4514772593975067 0.2620351016521454 0.4293343424797058
0.39226171374320984 0.1749681681394577 0.5693163275718689
0.34323564171791077 0.23401883244514465 0.5816124677658081
0.3511536121368408 0.23304547369480133 0.5155431032180786
0.3556562066078186 0.27960705757141113 0.5385569930076599
0.36390194296836853 0.16427341103553772 0.406179815530777
0.3608875572681427 0.22752413153648376 0.5378597974777222
0.40885114669799805 0.14049679040908813 0.39661741256713867
0.43325865268707275 0.25550487637519836 0.5599895119667053
0.40071162581443787 0.14465270936489105 0.43969038128852844
0.3722498118877411 0.2708042860031128 0.572311282157898
0.38120511174201965 0.21590149402618408 0.46149584650993347
0.3061162531375885 0.24784114956855774 0.4931740462779999
0.39100927114486694 0.1283104419708252 0.45615890622138977
0.3197723627090454 0.2571631968021393 0.4243444800376892
0.4064065217971802 0.31652384996414185 0.5216595530509949
0.43768468499183655 0.28084737062454224 0.5179814696311951
0.34918075799942017 0.2911849915981293 0.5972110033035278
0.28358960151672363 0.23512308299541473 0.39865943789482117
0.4265926778316498 0.2797727584838867 0.5318900346755981
0.41910696029663086 0.12799052894115448 0.5230802297592163
0.32437843084335327 0.16939572989940643 0.44803082942962646
0.46005988121032715 0.285925030708313 0.4228664040565491
0.3896501064300537 0.15669269859790802 0.411376953125
0.3938634693622589 0.3272457718849182 0.500240683555603
0.40692853927612305 0.12249639630317688 0.5091294050216675
0.3071555197238922 0.21260923147201538 0.5652860403060913
0.38281506299972534 0.16841697692871094 0.5351962447166443
0.37847378849983215 0.12836340069770813 0.556917667388916
0.42802637815475464 0.2525797486305237 0.4441683888435364
0.40171149373054504 0.2879454493522644 0.5504583716392517
0.39624419808387756 0.29886186122894287 0.47386375069618225
0.27975133061408997 0.23285318911075592 0.5881234407424927
0.5040388107299805 0.23872333765029907 0.4364180564880371
0.31762638688087463 0.17249096930027008 0.5013936161994934
0.353181391954422 0.15244440734386444 0.580797016620636
0.3808842599391937 0.21426458656787872 0.4905555546283722
0.2598293423652649 0.22378641366958618 0.4837096333503723
0.36527150869369507 0.275503933429718 0.5411554574966431
0.3520776629447937 0.21347126364707947 0.5112040638923645
0.3508045971393585 0.20853418111801147 0.4037109613418579
0.2690857946872711 0.22244608402252197 0.42954176664352417
0.3313908278942108 0.24466612935066223 0.5998814105987549
0.4301491379737854 0.16105124354362488 0.5690802335739136
0.3335496485233307 0.25126415491104126 0.4936501979827881
0.43938347697257996 0.16331075131893158 0.5849838256835938
0.35422778129577637 0.3044717609882355 0.4620058536529541
0.35746175050735474 0.16896942257881165 0.49642372131347656
0.3660920560359955 0.1784866601228714 0.5751120448112488
0.41804933547973633 0.14750228822231293 0.4602510333061218
0.41740742325782776 0.1623128205537796 0.4158031642436981
0.4630560874938965 0.14447103440761566 0.4478395879268646
0.3880518674850464 0.20767049491405487 0.41730090975761414
0.3743564188480377 0.2046986222267151 0.4269793927669525
0.45957478880882263 0.13597728312015533 0.546677827835083
0.2718265950679779 0.22378481924533844 0.42255425453186035
0.2846837341785431 0.23638521134853363 0.40790829062461853
0.3309030532836914 0.19248118996620178 0.5088344216346741
0.46250832080841064 0.19355955719947815 0.4825924038887024
0.4484189450740814 0.21866890788078308 0.4371615946292877
0.30065661668777466 0.21079063415527344 0.40016114711761475
0.4377247989177704 0.3040585517883301 0.478928804397583
0.3913906514644623 0.15887100994586945 0.4051167368888855
0.27011263370513916 0.20877471566200256 0.5461211204528809
0.4055025577545166 0.33584651350975037 0.4447273015975952
0.474012166261673 0.18490029871463776 0.4567290246486664
0.3656872808933258 0.1837744563817978 0.507534384727478
0.3511575162410736 0.20833948254585266 0.5463699102401733
0.36979061365127563 0.23793861269950867 0.535258412361145
0.3115712106227875 0.2616918087005615 0.4442747235298157
0.3574351966381073 0.26149410009384155 0.5777836441993713
0.3982081711292267 0.20142187178134918 0.5019536018371582
0.4599260687828064 0.16969618201255798 0.5326347947120667
0.39503607153892517 0.16563603281974792 0.4110451638698578
0.3894154727458954 0.20228755474090576 0.5875622034072876
0.4330764710903168 0.29934537410736084 0.5288474559783936
0.4037388563156128 0.2554706633090973 0.4189516603946686
0.43938347697257996 0.16331075131893158 0.5849838256835938
0.35422778129577637 0.3044717609882355 0.4620058536529541
0.35746175050735474 0.16896942257881165 0.49642372131347656
0.3660920560359955 0.1784866601228714 0.5751120448112488
0.41804933547973633 0.14750228822231293 0.4602510333061218
0.41740742325782776 0.1623128205537796 0.4158031642436981
0.4630560874938965 0.14447103440761566 0.4478395879268646
0.39534834027290344 0.16579772531986237 0.48239627480506897
0.4849115014076233 0.15883603692054749 0.6098188757896423
0.42001768946647644 0.16488032042980194 0.44117480516433716
0.39154982566833496 0.11707621812820435 0.5145040154457092
0.4194939434528351 0.1161174327135086 0.5093960762023926
0.43857213854789734 0.3028075695037842 0.4949517548084259
0.36605361104011536 0.2850416898727417 0.4182511866092682
0.4997437596321106 0.19564300775527954 0.45396605134010315
0.35097402334213257 0.2668745517730713 0.5009939074516296
0.31505826115608215 0.1979207843542099 0.4225250780582428
0.3857056498527527 0.1060502678155899 0.5726843476295471
0.39347898960113525 0.30351829528808594 0.46128371357917786
0.3513999283313751 0.28617265820503235 0.41632500290870667
0.4069945514202118 0.2979434132575989 0.41634541749954224
0.35850152373313904 0.2451501190662384 0.5575240850448608
0.2959435284137726 0.24212314188480377 0.5435259342193604
0.3313908278942108 0.24466612935066223 0.5998814105987549
0.4301491379737854 0.16105124354362488 0.5690802335739136
0.3335496485233307 0.25126415491104126 0.4936501979827881
0.43938347697257996 0.16331075131893158 0.5849838256835938
0.35422778129577637 0.3044717609882355 0.4620058536529541
0.35746175050735474 0.16896942257881165 0.49642372131347656
0.3660920560359955 0.1784866601228714 0.5751120448112488
0.41804933547973633 0.14750228822231293 0.4602510333061218
0.41740742325782776 0.1623128205537796 0.4158031642436981
0.4630560874938965 0.14447103440761566 0.4478395879268646
0.426494300365448 0.15267929434776306 0.5774120092391968
0.47701042890548706 0.15315255522727966 0.568833589553833
0.46742066740989685 0.26937341690063477 0.5267855525016785
0.4473540782928467 0.2634061872959137 0.44139885902404785
0.3641465902328491 0.13040924072265625 0.5774937868118286
0.36263781785964966 0.12858647108078003 0.3944648206233978
0.28914564847946167 0.22181501984596252 0.5602969527244568
0.3966924548149109 0.2182779759168625 0.4117407500743866
0.4716854989528656 0.14530214667320251 0.46368342638015747
0.3510655164718628 0.21007506549358368 0.5914239287376404
0.36098477244377136 0.17044727504253387 0.49957260489463806
0.4600118100643158 0.2662433683872223 0.5709134936332703
0.28299951553344727 0.24330925941467285 0.5344399809837341
0.4345279932022095 0.16485682129859924 0.5080109238624573
0.41786396503448486 0.29214537143707275 0.6143209338188171
0.3931872248649597 0.17824074625968933 0.5998923778533936
0.34443047642707825 0.12423054873943329 0.4677521884441376
0.3502943813800812 0.17420150339603424 0.5542535781860352
0.4323102533817291 0.2988360822200775 0.565777599811554
0.36372607946395874 0.1220516487956047 0.3972952663898468
0.43004924058914185 0.1276497095823288 0.4273313283920288
0.3254546821117401 0.21656467020511627 0.550383985042572
0.2867051362991333 0.2399289906024933 0.5056564211845398
0.2988748252391815 0.25882261991500854 0.43122297525405884
0.4042576849460602 0.3452993631362915 0.4755328893661499
0.359736829996109 0.2325347661972046 0.4755231738090515
0.3998233377933502 0.14664313197135925 0.5990481972694397
0.29034224152565 0.18485531210899353 0.4761435091495514
0.35189878940582275 0.20114046335220337 0.5020402669906616
0.4117150604724884 0.217005655169487 0.5136770009994507
0.3509986996650696 0.21620692312717438 0.5183454155921936
0.4132995009422302 0.28669169545173645 0.42044952511787415
0.45421096682548523 0.25695618987083435 0.4695734977722168
0.3846651017665863 0.20617955923080444 0.45670074224472046
0.37450042366981506 0.10480434447526932 0.5271544456481934
0.30786290764808655 0.2104262411594391 0.5955212712287903
0.44857263565063477 0.14113618433475494 0.5651190280914307
0.3064731955528259 0.22790689766407013 0.5292567014694214
0.3984266221523285 0.19759315252304077 0.4815954267978668
0.34719860553741455 0.2936725616455078 0.6030449867248535
0.35261955857276917 0.1174682080745697 0.5377439856529236
0.3418966829776764 0.1639891266822815 0.5719457268714905
0.43108001351356506 0.26495325565338135 0.5136090517044067
0.4337031841278076 0.25281795859336853 0.47439372539520264
0.4297185242176056 0.20146794617176056 0.49676138162612915
0.34655120968818665 0.19623114168643951 0.40953806042671204
0.4127424955368042 0.136674165725708 0.5628095865249634
0.4399539530277252 0.2809382379055023 0.5077555775642395
0.46041902899742126 0.288511723279953 0.44794169068336487
0.4117932915687561 0.13139936327934265 0.4995478689670563
0.4397544264793396 0.17537544667720795 0.5004371404647827
0.36587288975715637 0.1267237663269043 0.5757105350494385
0.4340013861656189 0.23698988556861877 0.4689371585845947
0.28578275442123413 0.1689978539943695 0.5857419371604919
0.3313908278942108 0.24466612935066223 0.5998814105987549
0.4301491379737854 0.16105124354362488 0.5690802335739136
0.3335496485233307 0.25126415491104126 0.4936501979827881
0.43938347697257996 0.16331075131893158 0.5849838256835938
0.35422778129577637 0.3044717609882355 0.4620058536529541
0.35746175050735474 0.16896942257881165 0.49642372131347656
0.4189387261867523 0.2517179250717163 0.5002493858337402
0.4965801239013672 0.21613435447216034 0.48390722274780273
0.3775489330291748 0.30319467186927795 0.4943564236164093
0.42487040162086487 0.12936948239803314 0.4342522919178009
0.4320671856403351 0.18336597084999084 0.49159079790115356
0.49642565846443176 0.20325666666030884 0.6038267016410828
0.4266957640647888 0.27270519733428955 0.4792412221431732
0.30845287442207336 0.1829974204301834 0.3940766751766205
0.34247642755508423 0.12315693497657776 0.5492468476295471
0.4232708513736725 0.20118007063865662 0.5032142996788025
0.39084962010383606 0.11857213079929352 0.5664882659912109
0.4016806483268738 0.11207633465528488 0.5989530086517334
0.37551817297935486 0.31483981013298035 0.565667450428009
0.4514772593975067 0.2620351016521454 0.4293343424797058
0.39226171374320984 0.1749681681394577 0.5693163275718689
0.34323564171791077 0.23401883244514465 0.5816124677658081
0.3511536121368408 0.23304547369480133 0.5155431032180786
0.3556562066078186 0.27960705757141113 0.5385569930076599
0.36390194296836853 0.16427341103553772 0.406179815530777
0.3608875572681427 0.22752413153648376 0.5378597974777222
0.32292455434799194 0.17164213955402374 0.48935720324516296
0.4226666986942291 0.16792342066764832 0.4363998472690582
0.4011417031288147 0.14127589762210846 0.5536185503005981
0.2881166934967041 0.2269108146429062 0.4321972727775574
0.3223370909690857 0.23388069868087769 0.5165336728096008
0.4086795449256897 0.12934774160385132 0.5169446468353271
0.3339848518371582 0.2217101752758026 0.5949499607086182
0.35603687167167664 0.14557532966136932 0.42816027998924255
0.3733082711696625 0.11160100251436234 0.501626193523407
0.4347245991230011 0.19400864839553833 0.4445689618587494
0.47990676760673523 0.20446132123470306 0.4870365858078003
0.3197777271270752 0.163074791431427 0.5414677262306213
0.49634605646133423 0.20258374512195587 0.41433921456336975
0.3708552420139313 0.26956236362457275 0.5768413543701172
0.3617788851261139 0.10789146274328232 0.5641423463821411
0.29040074348449707 0.23848071694374084 0.5340075492858887
0.49761679768562317 0.18036440014839172 0.45504042506217957
0.3610958158969879 0.25646474957466125 0.5856746435165405
0.40515124797821045 0.2571415305137634 0.5802431702613831
0.3976089656352997 0.1809699982404709 0.5362553596496582
0.4649897515773773 0.21220234036445618 0.5773676037788391
0.41473594307899475 0.26270216703414917 0.6128429770469666
0.401458203792572 0.3406098783016205 0.4284254014492035
0.47964906692504883 0.18184280395507812 0.41845884919166565
0.40898770093917847 0.16158030927181244 0.4989323914051056
0.4941607713699341 0.17811794579029083 0.4575345814228058
0.4542912542819977 0.2200978547334671 0.42528489232063293
0.4390289783477783 0.20464834570884705 0.4733060598373413
0.4349380433559418 0.15158942341804504 0.4528341591358185
0.4839555621147156 0.1835690587759018 0.5913966298103333
0.40152427554130554 0.10910842567682266 0.4291355609893799
0.3523605465888977 0.16445292532444 0.5218616724014282
0.5118192434310913 0.23097926378250122 0.43309977650642395
0.4573531150817871 0.18192733824253082 0.5909900069236755
0.49356019496917725 0.20747031271457672 0.4323650896549225
0.4648907482624054 0.1984913945198059 0.5145783424377441
0.37935641407966614 0.1973968744277954 0.4226834774017334
0.37875673174858093 0.19064804911613464 0.5539724230766296
0.49925005435943604 0.16974228620529175 0.5208784937858582
0.3854341208934784 0.1829366832971573 0.4718988835811615
0.3907473087310791 0.1763806939125061 0.5421664118766785
0.36940112709999084 0.1336476057767868 0.4137669801712036
0.42332378029823303 0.1347617506980896 0.5538982152938843
0.36414432525634766 0.2732293903827667 0.5986839532852173
0.45708489418029785 0.17784486711025238 0.45489510893821716
0.33530017733573914 0.17735162377357483 0.5170698761940002
0.3143177032470703 0.23457297682762146 0.4503381550312042
0.42688265442848206 0.1627674400806427 0.4355088770389557
0.42580485343933105 0.20019474625587463 0.6014360785484314
0.4186464250087738 0.2004227340221405 0.605230450630188
0.35768768191337585 0.12316153943538666 0.5844740271568298
0.3273451328277588 0.16276583075523376 0.49027538299560547
0.5095838308334351 0.1849309802055359 0.5729575753211975
0.4067630469799042 0.20953288674354553 0.5421757102012634
0.3235015571117401 0.17717920243740082 0.4251756966114044
0.36985182762145996 0.24642999470233917 0.6085769534111023
0.3948971629142761 0.2861465513706207 0.5963267683982849
0.34948691725730896 0.21918778121471405 0.4982588291168213
0.40919962525367737 0.309227854013443 0.4548095762729645
0.3219436705112457 0.26618513464927673 0.5644382834434509
0.3415442407131195 0.14711713790893555 0.556676983833313
0.47997352480888367 0.18174266815185547 0.5788254737854004
0.38331347703933716 0.10592880100011826 0.5259580612182617
0.39793387055397034 0.22550809383392334 0.5038719773292542
0.3340756297111511 0.15902820229530334 0.5188016891479492
0.31685301661491394 0.1589595079421997 0.5835522413253784
0.3791530132293701 0.3201408386230469 0.6110650300979614
0.3668295741081238 0.21851760149002075 0.45696189999580383
0.3970063030719757 0.18598684668540955 0.5607713460922241
0.34045466780662537 0.2342548668384552 0.4437139630317688
0.38751712441444397 0.10972092300653458 0.43201830983161926
0.4864852726459503 0.25117844343185425 0.4322957396507263
0.37884438037872314 0.17644065618515015 0.5140990018844604
0.44259408116340637 0.14290602505207062 0.5668436288833618
0.4265688955783844 0.31880640983581543 0.5056224465370178
0.38620883226394653 0.19777007400989532 0.46369731426239014
0.41956010460853577 0.16830654442310333 0.5904893279075623
0.4002062976360321 0.192201167345047 0.4319186210632324
0.3979329466819763 0.10633441060781479 0.4543241858482361
0.3511034846305847 0.2051452398300171 0.4515371322631836
0.4434397220611572 0.173554465174675 0.5680451393127441
0.3813709318637848 0.23835329711437225 0.433525949716568
0.45214155316352844 0.2186543345451355 0.44081857800483704
0.4394613802433014 0.19337014853954315 0.4140993058681488
0.31420719623565674 0.1551152467727661 0.49564874172210693
0.3974708914756775 0.27711883187294006 0.4791484773159027
0.4007232189178467 0.19964833557605743 0.4698972702026367
0.31133583188056946 0.2199232578277588 0.5961917042732239
0.4281364381313324 0.3105495274066925 0.4595995247364044
0.35058557987213135 0.165981262922287 0.5276315808296204
0.37837034463882446 0.18779900670051575 0.44423532485961914
0.37711578607559204 0.10380055010318756 0.5281378626823425
0.42388588190078735 0.2429494559764862 0.4934062957763672
0.34196460247039795 0.14667703211307526 0.5229132771492004
0.43491309881210327 0.24400277435779572 0.580539345741272
0.38864055275917053 0.22402524948120117 0.6012475490570068
0.5148112177848816 0.18536724150180817 0.5057520866394043
0.474519282579422 0.17966791987419128 0.5996310710906982
0.4371057152748108 0.16976682841777802 0.48079442977905273
0.26927897334098816 0.19864195585250854 0.5527514219284058
0.44459009170532227 0.22454650700092316 0.5961968898773193
0.4946693480014801 0.1957361251115799 0.41334426403045654
0.40109971165657043 0.22806397080421448 0.5235365629196167
0.2853640913963318 0.1966671347618103 0.5334051251411438
0.3743741512298584 0.1107655018568039 0.5654853582382202
0.3980447053909302 0.12185637652873993 0.42968982458114624
0.379740446805954 0.13884052634239197 0.45385438203811646
0.4149765968322754 0.21008217334747314 0.5162136554718018
0.29910656809806824 0.25811806321144104 0.4241584539413452
0.3739915192127228 0.1989542692899704 0.47240182757377625
0.37766405940055847 0.24381646513938904 0.4800232946872711
0.41227880120277405 0.16174469888210297 0.5260522365570068
0.44332852959632874 0.23309439420700073 0.47766345739364624
0.45389270782470703 0.16111157834529877 0.4371444582939148
0.2824884355068207 0.22452208399772644 0.5125294923782349
0.4481731951236725 0.2821740210056305 0.4504505395889282
0.44064566493034363 0.18468913435935974 0.555790364742279
0.3903767764568329 0.1114908829331398 0.3921206295490265
0.41846147179603577 0.32074058055877686 0.5386028289794922
0.329592764377594 0.20592433214187622 0.41673544049263
0.34854158759117126 0.2129727005958557 0.5874506831169128
0.3610069751739502 0.1772754043340683 0.4622442424297333
0.328868567943573 0.1529378443956375 0.4314771294593811
0.5204728841781616 0.17951354384422302 0.5645611882209778
0.2807907164096832 0.2327064722776413 0.45506030321121216
0.39131441712379456 0.2725207507610321 0.44116082787513733
0.4568100571632385 0.20300672948360443 0.5503526926040649
0.4406534433364868 0.17962642014026642 0.5902979969978333
0.432002991437912 0.28133130073547363 0.5384321212768555
0.344411164522171 0.1145964190363884 0.5398843884468079
0.2852904200553894 0.2167392522096634 0.4742058217525482
0.40530675649642944 0.30552807450294495 0.44793999195098877
0.48407161235809326 0.2298671305179596 0.4170912206172943
0.4162938594818115 0.14416228234767914 0.49211904406547546
0.359079509973526 0.2976861298084259 0.41696038842201233
0.394652396440506 0.19398197531700134 0.5403236746788025
0.38937699794769287 0.251156747341156 0.5621452927589417
0.3657839298248291 0.30423447489738464 0.5715036392211914
0.49359992146492004 0.15716984868049622 0.5566481947898865
0.3955514430999756 0.1517840474843979 0.5923335552215576
0.4324586093425751 0.24132394790649414 0.4536467492580414
0.4327319264411926 0.15237660706043243 0.43318259716033936
0.3254900574684143 0.22521691024303436 0.40207141637802124
0.41270849108695984 0.15723243355751038 0.5962661504745483
0.31913280487060547 0.2713099718093872 0.45876196026802063
0.40276581048965454 0.29628247022628784 0.47309932112693787
0.29345887899398804 0.18416006863117218 0.47627487778663635
0.44576552510261536 0.1916688084602356 0.5258462429046631
0.5066397190093994 0.1823248267173767 0.49638673663139343
0.3376268148422241 0.2589498460292816 0.4246978461742401
0.4086795449256897 0.12934774160385132 0.5169446468353271
0.46376875042915344 0.15373185276985168 0.4096037745475769
0.3489607572555542 0.1940476894378662 0.5390604138374329
0.5145902037620544 0.18664775788784027 0.47833380103111267
0.3617788851261139 0.10789146274328232 0.5641423463821411
0.29040074348449707 0.23848071694374084 0.5340075492858887
0.49761679768562317 0.18036440014839172 0.45504042506217957
0.3610958158969879 0.25646474957466125 0.5856746435165405
0.40515124797821045 0.2571415305137634 0.5802431702613831
0.3976089656352997 0.1809699982404709 0.5362553596496582
0.4649897515773773 0.21220234036445618 0.5773676037788391
0.41473594307899475 0.26270216703414917 0.6128429770469666
0.3979050815105438 0.2076762169599533 0.5229212641716003
0.4987931251525879 0.22410821914672852 0.47622737288475037
0.44478368759155273 0.20604760944843292 0.5693528056144714
0.4081728160381317 0.338095098733902 0.5364946126937866
0.3753194808959961 0.13768711686134338 0.43313053250312805
0.30822914838790894 0.19360609352588654 0.4585822522640228
0.43195536732673645 0.33033615350723267 0.42903590202331543
0.48826906085014343 0.1960517019033432 0.5581814050674438
0.339107871055603 0.25211915373802185 0.576915979385376
0.39828813076019287 0.26874974370002747 0.4670274257659912
0.4208777844905853 0.2780255675315857 0.556675910949707
0.38979917764663696 0.14587806165218353 0.5903903841972351
0.3486589789390564 0.19746041297912598 0.4822160303592682
0.292998731136322 0.20523926615715027 0.5041000843048096
0.4059661328792572 0.1901436299085617 0.4845370948314667
0.34934356808662415 0.2275831401348114 0.5972614884376526
0.494887113571167 0.16458141803741455 0.47969645261764526
0.3914038836956024 0.20070116221904755 0.4379871189594269
0.36011528968811035 0.21818822622299194 0.5313082337379456
0.4101259410381317 0.2512146532535553 0.5230281352996826
0.48956847190856934 0.2172836810350418 0.44664570689201355
0.30845287442207336 0.1829974204301834 0.3940766751766205
0.34247642755508423 0.12315693497657776 0.5492468476295471
0.45787298679351807 0.198772594332695 0.47955164313316345
0.3261083960533142 0.14182089269161224 0.5726208686828613
0.3934805989265442 0.1230296865105629 0.5357617735862732
0.38864970207214355 0.2918977737426758 0.49902260303497314
0.35245487093925476 0.23642179369926453 0.6016104221343994
0.47965434193611145 0.24060209095478058 0.5627341270446777
0.5014343857765198 0.22308996319770813 0.4339229464530945
0.4917868673801422 0.19539612531661987 0.4876927137374878
0.44216740131378174 0.17374858260154724 0.4701775014400482
0.332030713558197 0.18607328832149506 0.5888866186141968
0.32506757974624634 0.2088598608970642 0.5259223580360413
0.2840318977832794 0.22430041432380676 0.5137243270874023
0.28401461243629456 0.20001402497291565 0.45989537239074707
0.5166308879852295 0.19658754765987396 0.4934426546096802
0.4308183193206787 0.20879538357257843 0.4540756642818451
0.3113398849964142 0.13945530354976654 0.5884962677955627
0.3657839298248291 0.30423447489738464 0.5715036392211914
0.49359992146492004 0.15716984868049622 0.5566481947898865
0.3955514430999756 0.1517840474843979 0.5923335552215576
0.4324586093425751 0.24132394790649414 0.4536467492580414
0.4327319264411926 0.15237660706043243 0.43318259716033936
0.3254900574684143 0.22521691024303436 0.40207141637802124
0.41270849108695984 0.15723243355751038 0.5962661504745483
0.31913280487060547 0.2713099718093872 0.45876196026802063
0.40276581048965454 0.29628247022628784 0.47309932112693787
0.29345887899398804 0.18416006863117218 0.47627487778663635
0.44576552510261536 0.1916688084602356 0.5258462429046631
0.5066397190093994 0.1823248267173767 0.49638673663139343
0.3376268148422241 0.2589498460292816 0.4246978461742401
0.4823713004589081 0.18985791504383087 0.4626448452472687
0.3957329988479614 0.12097376585006714 0.5627915859222412
0.3754591941833496 0.3151228427886963 0.6152467131614685
0.2827818691730499 0.22125904262065887 0.5735467076301575
0.43606358766555786 0.26207414269447327 0.506221354007721
0.4882272779941559 0.1741865575313568 0.46744346618652344
0.31934264302253723 0.1766115427017212 0.4620234966278076
0.42237162590026855 0.32333531975746155 0.4516035318374634
0.3671264052391052 0.20019665360450745 0.5425368547439575
0.4253905415534973 0.24683892726898193 0.5978309512138367
0.3528587520122528 0.20948275923728943 0.4657856225967407
0.42621371150016785 0.2310715913772583 0.5989943146705627
0.333065003156662 0.2197480946779251 0.5092061758041382
0.4486495852470398 0.15454241633415222 0.5182715058326721
0.4206058979034424 0.312808632850647 0.46596553921699524
0.3657839298248291 0.30423447489738464 0.5715036392211914
0.49359992146492004 0.15716984868049622 0.5566481947898865
0.3955514430999756 0.1517840474843979 0.5923335552215576
0.4324586093425751 0.24132394790649414 0.4536467492580414
0.4327319264411926 0.15237660706043243 0.43318259716033936
0.3254900574684143 0.22521691024303436 0.40207141637802124
0.41270849108695984 0.15723243355751038 0.5962661504745483
0.31913280487060547 0.2713099718093872 0.45876196026802063
0.40276581048965454 0.29628247022628784 0.47309932112693787
0.29345887899398804 0.18416006863117218 0.47627487778663635
0.44576552510261536 0.1916688084602356 0.5258462429046631
0.5066397190093994 0.1823248267173767 0.49638673663139343
0.3376268148422241 0.2589498460292816 0.4246978461742401
0.39406996965408325 0.20290417969226837 0.4384702742099762
0.4503916800022125 0.1431390345096588 0.49880698323249817
0.29105421900749207 0.2090003937482834 0.565824568271637
0.5104892253875732 0.18283167481422424 0.4711439311504364
0.4031763970851898 0.3424328565597534 0.46984609961509705
0.44259408116340637 0.14290602505207062 0.5668436288833618
0.4265688955783844 0.31880640983581543 0.5056224465370178
0.38620883226394653 0.19777007400989532 0.46369731426239014
0.41956010460853577 0.16830654442310333 0.5904893279075623
0.4002062976360321 0.192201167345047 0.4319186210632324
0.3979329466819763 0.10633441060781479 0.4543241858482361
0.3511034846305847 0.2051452398300171 0.4515371322631836
0.4468849301338196 0.2573515474796295 0.5565577745437622
0.27111390233039856 0.21588125824928284 0.45824089646339417
0.33986201882362366 0.16721972823143005 0.5192527174949646
0.3970179259777069 0.1314895898103714 0.5201845765113831
0.36334675550460815 0.10839052498340607 0.5101059079170227
0.4145544469356537 0.1930248737335205 0.4475610852241516
0.4946754574775696 0.1967565268278122 0.45375335216522217
0.5075743794441223 0.17426051199436188 0.4392872750759125
0.42970016598701477 0.27252063155174255 0.4530401825904846
0.3966217041015625 0.20360325276851654 0.5504408478736877
0.41411304473876953 0.2507513463497162 0.43036502599716187
0.3128303587436676 0.2533918023109436 0.5581150054931641
0.39851248264312744 0.33701515197753906 0.5490373373031616
0.3893153667449951 0.10974620282649994 0.4174792170524597
0.4541774392127991 0.20312118530273438 0.6050033569335938
0.3667381703853607 0.3051386773586273 0.45667633414268494
0.4146537482738495 0.1469239890575409 0.46014922857284546
0.32740548253059387 0.24228999018669128 0.5574555397033691
0.39453840255737305 0.18491090834140778 0.49041035771369934
0.3328548073768616 0.1955615133047104 0.45312929153442383
0.4330368936061859 0.23725131154060364 0.418366938829422
0.47324275970458984 0.2418901026248932 0.5855520963668823
0.3780956268310547 0.257689893245697 0.5031610727310181
0.40094122290611267 0.22074730694293976 0.46378225088119507
0.29040074348449707 0.23848071694374084 0.5340075492858887
0.42332378029823303 0.1347617506980896 0.5538982152938843
0.36414432525634766 0.2732293903827667 0.5986839532852173
0.45708489418029785 0.17784486711025238 0.45489510893821716
0.33530017733573914 0.17735162377357483 0.5170698761940002
0.3143177032470703 0.23457297682762146 0.4503381550312042
0.42688265442848206 0.1627674400806427 0.4355088770389557
0.42580485343933105 0.20019474625587463 0.6014360785484314
0.4186464250087738 0.2004227340221405 0.605230450630188
0.5095838308334351 0.1849309802055359 0.5729575753211975
0.335281103849411 0.24771849811077118 0.46692386269569397
0.29539328813552856 0.20572152733802795 0.5835573077201843
0.4116411507129669 0.11401190608739853 0.5867947936058044
0.40073728561401367 0.2226957529783249 0.5343416333198547
0.49444544315338135 0.21793346107006073 0.47222408652305603
0.5187557339668274 0.19333480298519135 0.5379451513290405
0.41264674067497253 0.12663611769676208 0.47390612959861755
0.27367404103279114 0.23539893329143524 0.4593774974346161
0.3893153667449951 0.10974620282649994 0.4174792170524597
0.4541774392127991 0.20312118530273438 0.6050033569335938
0.3667381703853607 0.3051386773586273 0.45667633414268494
0.3677443861961365 0.15398576855659485 0.4387461543083191
0.31759563088417053 0.17517663538455963 0.49961158633232117
0.5036646723747253 0.18505673110485077 0.4876069724559784
0.321492463350296 0.24645766615867615 0.5322165489196777
0.44301900267601013 0.24119719862937927 0.4770697057247162
0.39770033955574036 0.1416865438222885 0.48281264305114746
0.4597233831882477 0.13184502720832825 0.6047931909561157
0.40094122290611267 0.22074730694293976 0.46378225088119507
0.3308083117008209 0.14762437343597412 0.5382235050201416
0.441933810710907 0.23065698146820068 0.5095217823982239
0.37910085916519165 0.2443343847990036 0.5077193379402161
0.49761679768562317 0.18036440014839172 0.45504042506217957
0.36414432525634766 0.2732293903827667 0.5986839532852173
0.45708489418029785 0.17784486711025238 0.45489510893821716
0.33530017733573914 0.17735162377357483 0.5170698761940002
0.3143177032470703 0.23457297682762146 0.4503381550312042
0.42688265442848206 0.1627674400806427 0.4355088770389557
0.42580485343933105 0.20019474625587463 0.6014360785484314
0.2966282367706299 0.210378497838974 0.42349809408187866
0.335281103849411 0.24771849811077118 0.46692386269569397
0.29539328813552856 0.20572152733802795 0.5835573077201843
0.4116411507129669 0.11401190608739853 0.5867947936058044
0.2927952706813812 0.1952822357416153 0.5409629940986633
0.3511418402194977 0.21356838941574097 0.4373464584350586
0.2763901650905609 0.20952163636684418 0.5749419331550598
0.3893153667449951 0.10974620282649994 0.4174792170524597
0.4541774392127991 0.20312118530273438 0.6050033569335938
0.3667381703853607 0.3051386773586273 0.45667633414268494
0.4146537482738495 0.1469239890575409 0.46014922857284546
0.41465386748313904 0.14692392945289612 0.4601493775844574
0.5036646723747253 0.18505673110485077 0.4876069724559784
0.321492463350296 0.24645766615867615 0.5322165489196777
0.44301900267601013 0.24119719862937927 0.4770697057247162
0.35308220982551575 0.2805735766887665 0.5496113300323486
0.47324275970458984 0.2418901026248932 0.5855520963668823
0.4597233831882477 0.13184502720832825 0.6047931909561157
0.2939743995666504 0.17291253805160522 0.5307474136352539
0.3308083117008209 0.14762437343597412 0.5382235050201416
0.37910085916519165 0.2443343847990036 0.5077193379402161
0.4313247799873352 0.13509157299995422 0.4510141909122467
0.37271133065223694 0.21414457261562347 0.4428260624408722
0.4480624794960022 0.1534183770418167 0.43156856298446655
0.4452551603317261 0.3020794689655304 0.4828706979751587
0.4987931251525879 0.22410821914672852 0.47622737288475037
0.47603991627693176 0.2288656383752823 0.5198677182197571
0.43712642788887024 0.24894070625305176 0.5320906639099121
0.41944000124931335 0.21003705263137817 0.5499827861785889
0.34486857056617737 0.2838459014892578 0.5083928108215332
0.3630167245864868 0.3021891117095947 0.44401815533638
0.40119490027427673 0.22415772080421448 0.583044707775116
0.4492218792438507 0.27176234126091003 0.5613401532173157
0.4497734308242798 0.14553862810134888 0.4308457672595978
0.4154728651046753 0.3269587755203247 0.441584974527359
0.2931612730026245 0.2121209353208542 0.45000970363616943
0.349671870470047 0.2687559127807617 0.4869075417518616
0.4357673227787018 0.13126371800899506 0.4791024625301361
0.4184889793395996 0.1753443032503128 0.48386842012405396
0.3920711874961853 0.10857873409986496 0.527907133102417
0.4342658221721649 0.1916051059961319 0.5997325778007507
0.3488605320453644 0.24640688300132751 0.5131348967552185
0.34050384163856506 0.2766193151473999 0.4634838402271271
0.32527944445610046 0.1447799801826477 0.5317139029502869
0.37349024415016174 0.13504131138324738 0.5001947283744812
0.30617159605026245 0.20369340479373932 0.5735235810279846
0.38222694396972656 0.14238247275352478 0.42061853408813477
0.3741566240787506 0.18266664445400238 0.5530039668083191
0.4789080023765564 0.23477016389369965 0.5332618951797485
0.3764060437679291 0.10561680048704147 0.4441716969013214
0.32452479004859924 0.18244008719921112 0.512893795967102
0.3200124204158783 0.21340234577655792 0.4734339714050293
0.3327607214450836 0.1539890319108963 0.5890614986419678
0.45696932077407837 0.1828456073999405 0.5935366749763489
0.3256796896457672 0.22853980958461761 0.5238399505615234
0.4257093369960785 0.3152006268501282 0.5427091717720032
0.3032560646533966 0.1977130025625229 0.5785582661628723
0.36414432525634766 0.2732293903827667 0.5986839532852173
0.28256115317344666 0.22949454188346863 0.48918214440345764
0.38172152638435364 0.24050891399383545 0.4325640797615051
0.3047502636909485 0.18090733885765076 0.4798916280269623
0.41524186730384827 0.34575435519218445 0.42647823691368103
0.39099282026290894 0.23854665458202362 0.43946418166160583
0.41104239225387573 0.19907891750335693 0.4797734022140503
0.41239792108535767 0.12880314886569977 0.469740092754364
0.39271727204322815 0.1108679249882698 0.4660854935646057
0.42095980048179626 0.26294371485710144 0.5535330772399902
0.45163694024086 0.20226766169071198 0.5057531595230103
0.37263229489326477 0.26955756545066833 0.5195851922035217
0.4308484196662903 0.11939047276973724 0.39885571599006653
0.3324882984161377 0.14356619119644165 0.5134875774383545
0.34362703561782837 0.1576593816280365 0.5905250906944275
0.4451428949832916 0.22686320543289185 0.5100771188735962
0.4825340807437897 0.17108765244483948 0.5702444314956665
0.3445195257663727 0.18597255647182465 0.4905613362789154
0.386941134929657 0.13275913894176483 0.48247385025024414
0.3038135766983032 0.2551005780696869 0.5080344676971436
0.43150195479393005 0.29190555214881897 0.5964080691337585
0.43371161818504333 0.20396870374679565 0.45540618896484375
0.44905954599380493 0.14856791496276855 0.5720915198326111
0.421343058347702 0.24789699912071228 0.5990332961082458
0.3678151071071625 0.30688273906707764 0.49172067642211914
0.3875144422054291 0.12494098395109177 0.5891920924186707
0.4232596158981323 0.3130738437175751 0.5517551302909851
0.4308728575706482 0.17342498898506165 0.5927789211273193
0.448886513710022 0.18156938254833221 0.5059706568717957
0.3920339345932007 0.28654375672340393 0.4499221444129944
0.3667152225971222 0.2809939980506897 0.5665896534919739
0.45673537254333496 0.18882039189338684 0.5643564462661743
0.4503916800022125 0.1431390345096588 0.49880698323249817
0.4463701844215393 0.1464339643716812 0.5085791349411011
0.34848567843437195 0.18735873699188232 0.559223473072052
0.47603991627693176 0.2288656383752823 0.5198677182197571
0.43712642788887024 0.24894070625305176 0.5320906639099121
0.41944000124931335 0.21003705263137817 0.5499827861785889
0.34486857056617737 0.2838459014892578 0.5083928108215332
0.3630167245864868 0.3021891117095947 0.44401815533638
0.40119490027427673 0.22415772080421448 0.583044707775116
0.4492218792438507 0.27176234126091003 0.5613401532173157
0.4497734308242798 0.14553862810134888 0.4308457672595978
0.4154728651046753 0.3269587755203247 0.441584974527359
0.2931612730026245 0.2121209353208542 0.45000970363616943
0.349671870470047 0.2687559127807617 0.4869075417518616
0.4357673227787018 0.13126371800899506 0.4791024625301361
0.39561566710472107 0.15338751673698425 0.5847898125648499
0.47137364745140076 0.1578480750322342 0.5489479899406433
0.30406689643859863 0.2063143104314804 0.5956054329872131
0.37241727113723755 0.14106446504592896 0.5065628290176392
0.29801177978515625 0.20953328907489777 0.40149158239364624
0.41532203555107117 0.32625091075897217 0.5345939993858337
0.3831024467945099 0.11069975793361664 0.41213458776474
0.4095856845378876 0.24903278052806854 0.4648039638996124
0.42184415459632874 0.16303770244121552 0.5630766153335571
0.436140239238739 0.19696873426437378 0.40926694869995117
0.37672722339630127 0.28155356645584106 0.5790619254112244
0.430433064699173 0.3365985155105591 0.42858365178108215
0.3962627351284027 0.29126498103141785 0.5714353919029236
0.3923393189907074 0.10743861645460129 0.4391120374202728
0.31151095032691956 0.22927452623844147 0.407416969537735
0.3958519995212555 0.26944366097450256 0.5874747633934021
0.36698266863822937 0.15712596476078033 0.5109378099441528
0.29105421900749207 0.2090003937482834 0.565824568271637
0.41239792108535767 0.12880314886569977 0.469740092754364
0.39271727204322815 0.1108679249882698 0.4660854935646057
0.42095980048179626 0.26294371485710144 0.5535330772399902
0.45163694024086 0.20226766169071198 0.5057531595230103
0.37263229489326477 0.26955756545066833 0.5195851922035217
0.4308484196662903 0.11939047276973724 0.39885571599006653
0.3324882984161377 0.14356619119644165 0.5134875774383545
0.34362703561782837 0.1576593816280365 0.5905250906944275
0.4451428949832916 0.22686320543289185 0.5100771188735962
0.4527968764305115 0.22387449443340302 0.4588424861431122
0.4826921820640564 0.17137327790260315 0.5700154304504395
0.3153807520866394 0.16256234049797058 0.48570096492767334
0.3997310698032379 0.10641232132911682 0.5956486463546753
0.4109019339084625 0.18252485990524292 0.5102655291557312
0.41856008768081665 0.2939533591270447 0.481098473072052
0.4177756607532501 0.32086697220802307 0.458832710981369
0.29817628860473633 0.20905055105686188 0.5163463354110718
0.44905954599380493 0.14856791496276855 0.5720915198326111
0.421343058347702 0.24789699912071228 0.5990332961082458
0.3678151071071625 0.30688273906707764 0.49172067642211914
0.3875144422054291 0.12494098395109177 0.5891920924186707
0.4232596158981323 0.3130738437175751 0.5517551302909851
0.4308728575706482 0.17342498898506165 0.5927789211273193
0.448886513710022 0.18156938254833221 0.5059706568717957
0.3625238537788391 0.14186644554138184 0.534709632396698
0.35591891407966614 0.2525596022605896 0.581439733505249
0.3667152225971222 0.2809939980506897 0.5665896534919739
0.45673537254333496 0.18882039189338684 0.5643564462661743
0.3151368796825409 0.2136906236410141 0.58095782995224
0.38561952114105225 0.3179468512535095 0.6147556304931641
0.32192739844322205 0.2746540904045105 0.495154470205307
0.5066397190093994 0.1823248267173767 0.49638673663139343
0.41239792108535767 0.12880314886569977 0.469740092754364
0.45163694024086 0.20226766169071198 0.5057531595230103
0.37263229489326477 0.26955756545066833 0.5195851922035217
0.4308484196662903 0.11939047276973724 0.39885571599006653
0.3324882984161377 0.14356619119644165 0.5134875774383545
0.34362703561782837 0.1576593816280365 0.5905250906944275
0.4527968764305115 0.22387449443340302 0.4588424861431122
0.4826921820640564 0.17137327790260315 0.5700154304504395
0.3153807520866394 0.16256234049797058 0.48570096492767334
0.3997310698032379 0.10641232132911682 0.5956486463546753
0.4109019339084625 0.18252485990524292 0.5102655291557312
0.41856008768081665 0.2939533591270447 0.481098473072052
0.4177756607532501 0.32086697220802307 0.458832710981369
0.29817628860473633 0.20905055105686188 0.5163463354110718
0.46055495738983154 0.16327744722366333 0.489930659532547
0.35497674345970154 0.29439327120780945 0.5081069469451904
0.31238439679145813 0.16595785319805145 0.5903826951980591
0.37818247079849243 0.16614417731761932 0.5266004800796509
0.2810874879360199 0.2009613960981369 0.4790125787258148
0.3686399757862091 0.2450897991657257 0.5456715822219849
0.45026639103889465 0.14390866458415985 0.5829797983169556
0.38990896940231323 0.22223442792892456 0.5068299770355225
0.4783554971218109 0.15119051933288574 0.47086021304130554
0.3667152225971222 0.2809939980506897 0.5665896534919739
0.45673537254333496 0.18882039189338684 0.5643564462661743
0.3151368796825409 0.2136906236410141 0.58095782995224
0.38561952114105225 0.3179468512535095 0.6147556304931641
0.32192739844322205 0.2746540904045105 0.495154470205307
0.4558216631412506 0.20771557092666626 0.4603770673274994
0.40311092138290405 0.10840332508087158 0.47450223565101624
0.38911280035972595 0.19067832827568054 0.5901867151260376
0.3100723624229431 0.2500636875629425 0.40375640988349915
0.4492218792438507 0.27176234126091003 0.5613401532173157
0.4497734308242798 0.14553862810134888 0.4308457672595978
0.4154728651046753 0.3269587755203247 0.441584974527359
0.2931612730026245 0.2121209353208542 0.45000970363616943
0.349671870470047 0.2687559127807617 0.4869075417518616
0.4357673227787018 0.13126371800899506 0.4791024625301361
0.4184889793395996 0.1753443032503128 0.48386842012405396
0.3920711874961853 0.10857873409986496 0.527907133102417
0.4342658221721649 0.1916051059961319 0.5997325778007507
0.3841686546802521 0.12990355491638184 0.44568565487861633
0.383424311876297 0.26688888669013977 0.5725077986717224
0.4320370852947235 0.14216482639312744 0.5641651749610901
0.38614028692245483 0.15231239795684814 0.41500988602638245
0.3400411307811737 0.13292810320854187 0.4656057357788086
0.3285042345523834 0.263046532869339 0.42592236399650574
0.3308579623699188 0.22513902187347412 0.4213733673095703
0.3434555232524872 0.2101840376853943 0.5555790066719055
0.4468148946762085 0.15090550482273102 0.4962379038333893
0.44564521312713623 0.19511085748672485 0.46405693888664246
0.43707576394081116 0.2977253198623657 0.5216484069824219
0.4182807505130768 0.2330331653356552 0.4724220335483551
0.3967350125312805 0.22857028245925903 0.4612789750099182
0.4708496332168579 0.1947687417268753 0.44094163179397583
0.31248992681503296 0.1648036539554596 0.5184561014175415
0.4651116132736206 0.20216253399848938 0.4886326491832733
0.41182422637939453 0.32722389698028564 0.4485907554626465
0.24844038486480713 0.21442285180091858 0.5885178446769714
0.3813353180885315 0.1341165155172348 0.5885837078094482
0.478509783744812 0.1801450252532959 0.5433867573738098
0.35958895087242126 0.13165883719921112 0.574167013168335
0.3218962848186493 0.24678166210651398 0.532840371131897
0.39406996965408325 0.20290417969226837 0.4384702742099762
