ply
format ascii 1.0
element vertex 823
property float x
property float y
property float z
end_header
0.42972850799560547 0.2579113841056824 0.5080915689468384
0.42477014660835266 0.1539250910282135 0.6061015129089355
0.3276941180229187 0.13906750082969666 0.5888006091117859
0.4328528642654419 0.21632510423660278 0.46477746963500977
0.5119226574897766 0.1656828373670578 0.4754764437675476
0.3556402623653412 0.15394417941570282 0.5027022361755371
0.3830946981906891 0.1132231280207634 0.5997930765151978
0.3277970254421234 0.17808634042739868 0.5915627479553223
0.46692511439323425 0.2425542026758194 0.5099307894706726
0.370781809091568 0.15592455863952637 0.5351046323776245
0.5396430492401123 0.16769592463970184 0.5445229411125183
0.4315054714679718 0.3169802725315094 0.4337562620639801
0.34440600872039795 0.2546711564064026 0.5760473608970642
0.3972955644130707 0.18948665261268616 0.42278754711151123
0.5339768528938293 0.15602968633174896 0.5488367676734924
0.3270900249481201 0.22894924879074097 0.5295774936676025
0.5176486372947693 0.1935320347547531 0.5406892895698547
0.440691202878952 0.20454993844032288 0.5944080948829651
0.29539668560028076 0.18127094209194183 0.5106863975524902
0.43041056394577026 0.22662000358104706 0.4743020236492157
0.34406402707099915 0.13349425792694092 0.4899016320705414
0.4241073727607727 0.157136008143425 0.4322112798690796
0.39729437232017517 0.10765700042247772 0.5353034734725952
0.4683248698711395 0.22642959654331207 0.5305246114730835
0.47715094685554504 0.14800330996513367 0.5456278920173645
0.41524001955986023 0.11121019721031189 0.4178916811943054
0.42565062642097473 0.28307849168777466 0.4825679361820221
0.3779482841491699 0.1952206790447235 0.5613139271736145
0.34756243228912354 0.12798236310482025 0.4835817217826843
0.4270382821559906 0.23182326555252075 0.45529401302337646
0.4042705297470093 0.10671806335449219 0.45847493410110474
0.442052960395813 0.14125987887382507 0.417402982711792
0.4603927731513977 0.25418156385421753 0.5584480166435242
0.40152549743652344 0.24651415646076202 0.5501880645751953
0.3776417374610901 0.17209431529045105 0.3964124619960785
0.39680975675582886 0.2963316738605499 0.5020066499710083
0.4369905889034271 0.14786624908447266 0.5878919363021851
0.46672290563583374 0.11850384622812271 0.6029413342475891
0.3913140296936035 0.20017333328723907 0.5342581868171692
0.48932576179504395 0.22972126305103302 0.5130710005760193
0.5233288407325745 0.15589912235736847 0.5810150504112244
0.5333991646766663 0.15644872188568115 0.5756741762161255
0.3479832708835602 0.1613951474428177 0.40554049611091614
0.44641658663749695 0.14523246884346008 0.5721163749694824
0.43575289845466614 0.1947970986366272 0.5186635851860046
0.46722355484962463 0.2292124629020691 0.5729392766952515
0.33898746967315674 0.15655383467674255 0.5226536393165588
0.4258956015110016 0.16348300874233246 0.5907982587814331
0.5213773250579834 0.14524058997631073 0.4619452953338623
0.44769254326820374 0.11617173999547958 0.4125390350818634
0.3847882151603699 0.18599945306777954 0.44886311888694763
0.4275774359703064 0.16496959328651428 0.5583735704421997
0.46736574172973633 0.2493918091058731 0.428325891494751
0.4660661220550537 0.23028555512428284 0.48731979727745056
0.3426627218723297 0.2145869880914688 0.41685083508491516
0.4715099632740021 0.22568154335021973 0.5262802243232727
0.4331243634223938 0.11205058544874191 0.5150462985038757
0.437622994184494 0.2260875552892685 0.5195877552032471
0.5288959741592407 0.1532585322856903 0.47372663021087646
0.43113502860069275 0.29627272486686707 0.47752970457077026
0.3575030267238617 0.12608808279037476 0.5691123604774475
0.4116086959838867 0.16062894463539124 0.5172942280769348
0.3944319486618042 0.17755451798439026 0.5056170225143433
0.48535993695259094 0.15077273547649384 0.5177675485610962
0.40528979897499084 0.3000134527683258 0.5322039127349854
0.4493241310119629 0.13202957808971405 0.4358702003955841
0.2809375524520874 0.2099820226430893 0.4412285387516022
0.46693435311317444 0.23383714258670807 0.4657769501209259
0.44580256938934326 0.1531771719455719 0.49947360157966614
0.3534336984157562 0.2520850896835327 0.4225381314754486
0.3151557445526123 0.20813103020191193 0.4826256036758423
0.44443902373313904 0.21127213537693024 0.593410849571228
0.32604122161865234 0.19171546399593353 0.49313509464263916
0.3751543462276459 0.26261600852012634 0.5931575894355774
0.3003169000148773 0.22479446232318878 0.4619203209877014
0.28146854043006897 0.1834980845451355 0.57210373878479
0.45883387327194214 0.1885937601327896 0.563291609287262
0.4045482873916626 0.2480621039867401 0.5265215635299683
0.43791618943214417 0.10753954946994781 0.5005061030387878
0.45085883140563965 0.2402888834476471 0.5363038778305054
0.4498748779296875 0.2529919743537903 0.5174633264541626
0.35190528631210327 0.15240027010440826 0.5121060013771057
0.31594282388687134 0.15506751835346222 0.4674103856086731
0.3517906963825226 0.148098424077034 0.5918065905570984
0.41836345195770264 0.23846901953220367 0.4719479978084564
0.39847835898399353 0.23537351191043854 0.43133115768432617
0.41778963804244995 0.10396485030651093 0.4921903610229492
0.46246784925460815 0.2618257999420166 0.5116631984710693
0.407840758562088 0.22896715998649597 0.44933345913887024
0.5089640021324158 0.19485464692115784 0.5055587887763977
0.47243624925613403 0.15882058441638947 0.5764868259429932
0.44443902373313904 0.21127213537693024 0.593410849571228
0.32604122161865234 0.19171546399593353 0.49313509464263916
0.3751543462276459 0.26261600852012634 0.5931575894355774
0.2810210883617401 0.1846352219581604 0.5980521440505981
0.40642210841178894 0.1662931740283966 0.5030754804611206
0.3814311921596527 0.13782256841659546 0.49636226892471313
0.48023176193237305 0.16297978162765503 0.5242814421653748
0.5028670430183411 0.134054496884346 0.4426299035549164
0.42098215222358704 0.16960623860359192 0.44758281111717224
0.4918951988220215 0.19346606731414795 0.5297414064407349
0.4241425395011902 0.11426874250173569 0.42524707317352295
0.4527428448200226 0.148430734872818 0.5452967286109924
0.5238944888114929 0.16986724734306335 0.552161455154419
0.4766834080219269 0.14774490892887115 0.43671780824661255
0.33386409282684326 0.14806923270225525 0.4516766369342804
0.42348018288612366 0.20627744495868683 0.5313116312026978
0.35156577825546265 0.20779941976070404 0.41844189167022705
0.5299413204193115 0.1770993173122406 0.43365904688835144
0.3750031590461731 0.20731203258037567 0.4258057177066803
0.4589459002017975 0.2178942710161209 0.5180723071098328
0.4260859191417694 0.19229978322982788 0.5659888982772827
0.4715099632740021 0.22568154335021973 0.5262802243232727
0.38763314485549927 0.2455529421567917 0.5960242748260498
0.4075552821159363 0.17578774690628052 0.4076178967952728
0.3841640055179596 0.24101661145687103 0.5708634853363037
0.49674078822135925 0.16931143403053284 0.42633751034736633
0.45851489901542664 0.18351267278194427 0.5556302070617676
0.38733553886413574 0.11903098225593567 0.5055717825889587
0.4019554555416107 0.2190459966659546 0.5140018463134766
0.3533022403717041 0.16603989899158478 0.5827944874763489
0.4625524878501892 0.18124109506607056 0.4515443444252014
0.4515412747859955 0.1702696830034256 0.4362676441669464
0.4496515095233917 0.1944071650505066 0.5326753854751587
0.31115344166755676 0.17531998455524445 0.4452151656150818
0.3834059536457062 0.10189041495323181 0.582426905632019
0.3824506998062134 0.18489375710487366 0.5288285613059998
0.40047529339790344 0.26963090896606445 0.4971996545791626
0.37464481592178345 0.2386932224035263 0.5101427435874939
0.47853460907936096 0.2675270140171051 0.43505603075027466
0.3489026725292206 0.19362658262252808 0.5041574835777283
0.5004658699035645 0.21337024867534637 0.43757933378219604
0.5076989531517029 0.18291260302066803 0.546427309513092
0.42709827423095703 0.1270061433315277 0.4914434552192688
0.4360954463481903 0.13713237643241882 0.591513454914093
0.4614403247833252 0.26981469988822937 0.5015997886657715
0.3519860804080963 0.17411048710346222 0.5330007672309875
0.3279286324977875 0.21374444663524628 0.5838180184364319
0.46096256375312805 0.12774750590324402 0.4036700427532196
0.33303573727607727 0.21180309355258942 0.45114463567733765
0.3864372968673706 0.2868192791938782 0.542921245098114
0.4019683003425598 0.24673067033290863 0.5894337892532349
0.40001630783081055 0.11336059123277664 0.5797038078308105
0.40688076615333557 0.18961162865161896 0.5783464312553406
0.3448585569858551 0.16321931779384613 0.5195351839065552
0.453939288854599 0.26146578788757324 0.433896005153656
0.41301146149635315 0.17941169440746307 0.5164756774902344
0.35834801197052 0.2512179911136627 0.4253847301006317
0.4183128774166107 0.1251445710659027 0.4259010851383209
0.32856979966163635 0.19956780970096588 0.5996280908584595
0.3140518069267273 0.16458773612976074 0.4945683777332306
0.4400634169578552 0.14081573486328125 0.5478121638298035
0.37394872307777405 0.11062563955783844 0.5173365473747253
0.3864735960960388 0.1014164611697197 0.5638460516929626
0.4308566153049469 0.24595049023628235 0.47263431549072266
0.33811840415000916 0.19261613488197327 0.5268118381500244
0.41835856437683105 0.11142222583293915 0.482940137386322
0.41334226727485657 0.1968579739332199 0.5237340927124023
0.3501036465167999 0.23321375250816345 0.4179314970970154
0.412796288728714 0.17406819760799408 0.5385528802871704
0.3413170278072357 0.12154500931501389 0.5695127248764038
0.5038387775421143 0.1499614715576172 0.5192593932151794
0.5211983919143677 0.18220265209674835 0.5183499455451965
0.40349578857421875 0.12364442646503448 0.579864501953125
0.43482163548469543 0.24509063363075256 0.4884985089302063
0.41732028126716614 0.1146584153175354 0.4767143130302429
0.3934984803199768 0.13964450359344482 0.5864865183830261
0.33955439925193787 0.1516849249601364 0.4869610667228699
0.45367205142974854 0.26019158959388733 0.548667311668396
0.39134544134140015 0.12666596472263336 0.4869224727153778
0.4154324531555176 0.1275380551815033 0.5005271434783936
0.35811564326286316 0.21983742713928223 0.4102983772754669
0.41343456506729126 0.2663823962211609 0.4907219707965851
0.344835489988327 0.24969187378883362 0.5384480357170105
0.5118545293807983 0.14631867408752441 0.5682650804519653
0.5236989855766296 0.15550497174263 0.5196316838264465
0.3609172999858856 0.2358720898628235 0.44556623697280884
0.32604122161865234 0.19171546399593353 0.49313509464263916
0.3751543462276459 0.26261600852012634 0.5931575894355774
0.2810210883617401 0.1846352219581604 0.5980521440505981
0.40642210841178894 0.1662931740283966 0.5030754804611206
0.4642466902732849 0.2378271073102951 0.4818941354751587
0.36506780982017517 0.2170124650001526 0.4817372262477875
0.39684778451919556 0.2563282549381256 0.5228487253189087
0.44291701912879944 0.22955048084259033 0.4488331973552704
0.4329533278942108 0.15632177889347076 0.5839435458183289
0.4025278687477112 0.22791801393032074 0.589769184589386
0.4164173901081085 0.16807393729686737 0.5946093201637268
0.37562188506126404 0.16358694434165955 0.5667288899421692
0.37386298179626465 0.20650620758533478 0.4864124357700348
0.44253119826316833 0.2599937319755554 0.6164540648460388
0.43580666184425354 0.2594072222709656 0.4966292381286621
0.29017168283462524 0.1843099594116211 0.5495721101760864
0.35452359914779663 0.164262592792511 0.4452679753303528
0.44879046082496643 0.1705048680305481 0.5291189551353455
0.4546643793582916 0.18373067677021027 0.42205843329429626
0.32828956842422485 0.23693199455738068 0.5051631927490234
0.33919915556907654 0.14170551300048828 0.4327797591686249
0.41328057646751404 0.10796955972909927 0.4199225604534149
0.4155188798904419 0.3124486804008484 0.5761356949806213
0.3578702509403229 0.1567218005657196 0.4354970455169678
0.44927018880844116 0.17869119346141815 0.43347811698913574
0.3229619264602661 0.1961059421300888 0.4993543326854706
0.38283783197402954 0.2650708854198456 0.5808462500572205
0.37541118264198303 0.2805248200893402 0.5244578123092651
0.49197810888290405 0.1926347017288208 0.5544319152832031
0.4866374135017395 0.1721123307943344 0.6157819628715515
0.4617807865142822 0.1824113428592682 0.4423165023326874
0.36821448802948 0.2061779946088791 0.4357244372367859
0.3555188775062561 0.1569904088973999 0.5169399380683899
0.3333593010902405 0.2147769331932068 0.41716697812080383
0.4557671546936035 0.17736467719078064 0.4752957224845886
0.4418071508407593 0.2424764335155487 0.6094709038734436
0.48893412947654724 0.2056499868631363 0.5415597558021545
0.33877474069595337 0.17418172955513 0.4966734051704407
0.38513270020484924 0.2901054620742798 0.5982629656791687
0.3816987872123718 0.11322256922721863 0.4612586200237274
0.4795263707637787 0.12344330549240112 0.4933032989501953
0.377137154340744 0.2653018534183502 0.49542975425720215
0.38724562525749207 0.1226571798324585 0.477669894695282
0.4012313783168793 0.2032516747713089 0.47458964586257935
0.5405073761940002 0.16641168296337128 0.5368602871894836
0.3798045217990875 0.11044792830944061 0.4379073977470398
0.37643754482269287 0.11741426587104797 0.41302722692489624
0.3846642076969147 0.11304766684770584 0.40994083881378174
0.4032026529312134 0.2713683545589447 0.4258916974067688
0.3549675941467285 0.13534580171108246 0.5714645385742188
0.4227418601512909 0.32409587502479553 0.46964335441589355
0.4018874168395996 0.2875608801841736 0.5159916877746582
0.44157785177230835 0.11936017870903015 0.48290351033210754
0.33582767844200134 0.1613648533821106 0.43723437190055847
0.3534119129180908 0.1664917916059494 0.47067925333976746
0.3560013771057129 0.14344337582588196 0.4159775376319885
0.3760055899620056 0.261872798204422 0.4971249997615814
0.3439326286315918 0.14288035035133362 0.584837019443512
0.4099506735801697 0.11288902163505554 0.5262084007263184
0.37754490971565247 0.18290629982948303 0.5898963212966919
0.3948342204093933 0.20197829604148865 0.48510560393333435
0.33921945095062256 0.13214857876300812 0.4604087173938751
0.43791618943214417 0.10753954946994781 0.5005061030387878
0.43402838706970215 0.22951173782348633 0.4139527380466461
0.4133031368255615 0.1751701384782791 0.6028735637664795
0.339664101600647 0.21741335093975067 0.5524777173995972
0.4712767004966736 0.2503083348274231 0.5507478713989258
0.44933968782424927 0.27034565806388855 0.5449351668357849
0.47055521607398987 0.14403830468654633 0.46813735365867615
0.35349294543266296 0.1929064840078354 0.4629019498825073
0.41101181507110596 0.15692682564258575 0.4134991466999054
0.3432534635066986 0.2372582107782364 0.43348830938339233
0.4984992742538452 0.15004003047943115 0.5756196975708008
0.3870812654495239 0.2567240297794342 0.5997181534767151
0.3500577509403229 0.16474731266498566 0.46556052565574646
0.3282378613948822 0.18516755104064941 0.49403995275497437
0.45323100686073303 0.27671435475349426 0.5094435811042786
0.33858221769332886 0.19795887172222137 0.4015181064605713
0.38709425926208496 0.22461172938346863 0.5454856157302856
0.4512876868247986 0.17123770713806152 0.5877627730369568
0.3756677806377411 0.2513331174850464 0.4937107563018799
0.3808600902557373 0.26841971278190613 0.4281961917877197
0.31542104482650757 0.2055344134569168 0.4002297520637512
0.351091206073761 0.17404146492481232 0.538905918598175
0.34223124384880066 0.1988968402147293 0.40318426489830017
0.31243443489074707 0.16953839361667633 0.48806971311569214
0.3957463502883911 0.14748045802116394 0.4035049080848694
0.37480783462524414 0.23897050321102142 0.44422250986099243
0.32001814246177673 0.22609025239944458 0.5132730603218079
0.41882002353668213 0.10532520711421967 0.5135778188705444
0.4642435312271118 0.22954481840133667 0.5722367763519287
0.3869004249572754 0.11451196670532227 0.44505375623703003
0.49312564730644226 0.21550701558589935 0.5238779187202454
0.44332441687583923 0.11150188744068146 0.39777693152427673
0.4550134241580963 0.20170478522777557 0.5568336844444275
0.43402838706970215 0.22951173782348633 0.4139527380466461
0.4133031368255615 0.1751701384782791 0.6028735637664795
0.339664101600647 0.21741335093975067 0.5524777173995972
0.4712767004966736 0.2503083348274231 0.5507478713989258
0.44933968782424927 0.27034565806388855 0.5449351668357849
0.47055521607398987 0.14403830468654633 0.46813735365867615
0.3358299434185028 0.1982806771993637 0.4260156452655792
0.37753263115882874 0.11539964377880096 0.4184763431549072
0.41101181507110596 0.15692682564258575 0.4134991466999054
0.3432534635066986 0.2372582107782364 0.43348830938339233
0.4984992742538452 0.15004003047943115 0.5756196975708008
0.3870812654495239 0.2567240297794342 0.5997181534767151
0.3500577509403229 0.16474731266498566 0.46556052565574646
0.3282378613948822 0.18516755104064941 0.49403995275497437
0.45323100686073303 0.27671435475349426 0.5094435811042786
0.33858221769332886 0.19795887172222137 0.4015181064605713
0.43099668622016907 0.12002233415842056 0.5329453945159912
0.502231776714325 0.16404439508914948 0.47180598974227905
0.38932543992996216 0.19249434769153595 0.4625321924686432
0.34090372920036316 0.19713610410690308 0.41665974259376526
0.31243443489074707 0.16953839361667633 0.48806971311569214
0.3957463502883911 0.14748045802116394 0.4035049080848694
0.37480783462524414 0.23897050321102142 0.44422250986099243
0.32001814246177673 0.22609025239944458 0.5132730603218079
0.41882002353668213 0.10532520711421967 0.5135778188705444
0.4642435312271118 0.22954481840133667 0.5722367763519287
0.3869004249572754 0.11451196670532227 0.44505375623703003
0.32441267371177673 0.2431592345237732 0.4373778700828552
0.44564399123191833 0.15212488174438477 0.5874601006507874
0.44332441687583923 0.11150188744068146 0.39777693152427673
0.45024389028549194 0.1841716319322586 0.6051198840141296
0.3201483488082886 0.21211007237434387 0.4748167395591736
0.3255710005760193 0.1992291361093521 0.5688794255256653
0.40891069173812866 0.11459054797887802 0.4301491975784302
0.36821448802948 0.2061779946088791 0.4357244372367859
0.3555188775062561 0.1569904088973999 0.5169399380683899
0.3333593010902405 0.2147769331932068 0.41716697812080383
0.4557671546936035 0.17736467719078064 0.4752957224845886
0.4418071508407593 0.2424764335155487 0.6094709038734436
0.48893412947654724 0.2056499868631363 0.5415597558021545
0.33877474069595337 0.17418172955513 0.4966734051704407
0.38513270020484924 0.2901054620742798 0.5982629656791687
0.3816987872123718 0.11322256922721863 0.4612586200237274
0.4795263707637787 0.12344330549240112 0.4933032989501953
0.377137154340744 0.2653018534183502 0.49542975425720215
0.38724562525749207 0.1226571798324585 0.477669894695282
0.4012313783168793 0.2032516747713089 0.47458964586257935
0.5405073761940002 0.16641168296337128 0.5368602871894836
0.3798045217990875 0.11044792830944061 0.4379073977470398
0.3849134147167206 0.23913586139678955 0.5960038900375366
0.4884679317474365 0.12201759964227676 0.5816369652748108
0.4752759039402008 0.18476374447345734 0.528330385684967
0.3437460660934448 0.1702442467212677 0.5930368900299072
0.3651888966560364 0.17839521169662476 0.45504969358444214
0.49825650453567505 0.1495894491672516 0.4337845742702484
0.4141191840171814 0.1077127754688263 0.5156936645507812
0.3707900941371918 0.1422215700149536 0.4976232647895813
0.31506943702697754 0.23631706833839417 0.4013725817203522
0.43957650661468506 0.21410153806209564 0.5700392127037048
0.337182879447937 0.11519105732440948 0.5891711711883545
0.45126473903656006 0.15184666216373444 0.4831710457801819
0.382500022649765 0.15408165752887726 0.6031057834625244
0.42468154430389404 0.13210710883140564 0.4776798486709595
0.5238944888114929 0.16986724734306335 0.552161455154419
0.3382610082626343 0.1947750598192215 0.45647647976875305
0.3006249666213989 0.20409168303012848 0.5001850128173828
0.30713513493537903 0.21116666495800018 0.45455464720726013
0.42857426404953003 0.18705491721630096 0.42944180965423584
0.43780824542045593 0.23574216663837433 0.5591748356819153
0.3905644714832306 0.12265202403068542 0.4875069260597229
0.31121742725372314 0.18903914093971252 0.5108786821365356
0.315915584564209 0.17995458841323853 0.5566921234130859
0.4890192747116089 0.21908847987651825 0.5189334750175476
0.385367214679718 0.2554948925971985 0.5436962246894836
0.3691672682762146 0.21854282915592194 0.5494815111160278
0.3528589904308319 0.15853433310985565 0.6002675890922546
0.4764324128627777 0.2157130241394043 0.4827956259250641
0.4245854616165161 0.17364366352558136 0.5526615381240845
0.43126678466796875 0.20330382883548737 0.50758296251297
0.3849134147167206 0.23913586139678955 0.5960038900375366
0.5312716960906982 0.19604209065437317 0.4529237747192383
0.4884679317474365 0.12201759964227676 0.5816369652748108
0.4752759039402008 0.18476374447345734 0.528330385684967
0.3437460660934448 0.1702442467212677 0.5930368900299072
0.3651888966560364 0.17839521169662476 0.45504969358444214
0.49825650453567505 0.1495894491672516 0.4337845742702484
0.4141191840171814 0.1077127754688263 0.5156936645507812
0.3707900941371918 0.1422215700149536 0.4976232647895813
0.31506943702697754 0.23631706833839417 0.4013725817203522
0.43957650661468506 0.21410153806209564 0.5700392127037048
0.337182879447937 0.11519105732440948 0.5891711711883545
0.45126473903656006 0.15184666216373444 0.4831710457801819
0.3539345860481262 0.24495722353458405 0.5751129984855652
0.4042336940765381 0.11851684749126434 0.5170474052429199
0.38926011323928833 0.1373743712902069 0.5812094807624817
0.46672290563583374 0.11850384622812271 0.6029413342475891
0.30643248558044434 0.15441393852233887 0.5531280636787415
0.4316689074039459 0.16908025741577148 0.5298438668251038
0.43460407853126526 0.20939835906028748 0.595281720161438
0.48613229393959045 0.13635903596878052 0.4931270182132721
0.41450855135917664 0.15375381708145142 0.5962559580802917
0.5064261555671692 0.1745152473449707 0.44810983538627625
0.4014049470424652 0.25758248567581177 0.603374183177948
0.3182552754878998 0.15419244766235352 0.523979127407074
0.4084981679916382 0.1323712021112442 0.5228245258331299
0.3098655939102173 0.17357002198696136 0.5204585194587708
0.41505053639411926 0.10363176465034485 0.48419877886772156
0.39704135060310364 0.10751409828662872 0.5503771305084229
0.4926756024360657 0.18231672048568726 0.5438232421875
0.32372230291366577 0.13559530675411224 0.5619627237319946
0.46884414553642273 0.12273027002811432 0.603672206401825
0.45463836193084717 0.21872596442699432 0.4577277898788452
0.4294474720954895 0.19408325850963593 0.4813312888145447
0.31073808670043945 0.1791253685951233 0.5721527934074402
0.4201854467391968 0.3224750757217407 0.4507615268230438
0.42320212721824646 0.24176105856895447 0.52667635679245
0.4356931447982788 0.20215575397014618 0.5060629844665527
0.41828733682632446 0.1508345603942871 0.5464467406272888
0.40338873863220215 0.2053682655096054 0.5576891899108887
0.5048913359642029 0.15572002530097961 0.5167940855026245
0.38263311982154846 0.17953947186470032 0.5617870092391968
0.5417451858520508 0.16663631796836853 0.48379063606262207
0.43120038509368896 0.3139198124408722 0.43858858942985535
0.4172860383987427 0.16989514231681824 0.4148086607456207
0.43355774879455566 0.11601974815130234 0.44183963537216187
0.34768155217170715 0.16222016513347626 0.5666897892951965
0.3744414150714874 0.1157393530011177 0.5477893948554993
0.48528778553009033 0.13995017111301422 0.49008920788764954
0.5168763399124146 0.18709121644496918 0.5838440656661987
0.3304160237312317 0.20680654048919678 0.4457080066204071
0.4001310467720032 0.2636697590351105 0.438770592212677
0.3706408143043518 0.15731431543827057 0.3935076892375946
0.3137360215187073 0.23579829931259155 0.40877172350883484
0.32809141278266907 0.2165939211845398 0.4252815246582031
0.4055524468421936 0.2513851225376129 0.5190711617469788
0.4732542037963867 0.13179923593997955 0.49621883034706116
0.331575870513916 0.15560704469680786 0.4242762625217438
0.33027172088623047 0.22761490941047668 0.5034064054489136
0.38469481468200684 0.11151472479104996 0.3827742636203766
0.44472378492355347 0.23781731724739075 0.46197953820228577
0.3509262204170227 0.23535604774951935 0.5350476503372192
0.41624918580055237 0.13218563795089722 0.5974802374839783
0.3784182667732239 0.12847900390625 0.5752342939376831
0.3810676336288452 0.2578698992729187 0.45233941078186035
0.3438389301300049 0.19516810774803162 0.5526246428489685
0.42793920636177063 0.1818632185459137 0.6069613099098206
0.47999975085258484 0.1764579862356186 0.4161013662815094
0.3183578550815582 0.1981329768896103 0.5567169785499573
0.4547509551048279 0.18012689054012299 0.523144543170929
0.5152072906494141 0.1663385033607483 0.4216558635234833
0.31867551803588867 0.17461393773555756 0.457264244556427
0.3515186011791229 0.16406065225601196 0.5294092893600464
0.5199620127677917 0.1843184530735016 0.5501238703727722
0.36442726850509644 0.2228078842163086 0.4543059170246124
0.3318674862384796 0.23774638772010803 0.4791865646839142
0.4128694236278534 0.21009708940982819 0.5983745455741882
0.4388704001903534 0.23515762388706207 0.46091336011886597
0.41219767928123474 0.2713657319545746 0.49125105142593384
0.351714551448822 0.22130337357521057 0.5550541877746582
0.474861741065979 0.23768430948257446 0.5717248916625977
0.43402838706970215 0.22951173782348633 0.4139527380466461
0.4133031368255615 0.1751701384782791 0.6028735637664795
0.43821215629577637 0.22474579513072968 0.5438041687011719
0.46072208881378174 0.23749497532844543 0.5730239748954773
0.40060943365097046 0.23464787006378174 0.5423514246940613
0.40425896644592285 0.23213322460651398 0.4394877552986145
0.4495003819465637 0.17944294214248657 0.4648207426071167
0.3471934497356415 0.24685437977313995 0.5017804503440857
0.4118630290031433 0.29723381996154785 0.4914746880531311
0.42017239332199097 0.246725931763649 0.5549290180206299
0.3885743319988251 0.13030827045440674 0.4347572922706604
0.5200009942054749 0.1455438733100891 0.4228827655315399
0.3486718535423279 0.20718854665756226 0.42005497217178345
0.4806274175643921 0.13276274502277374 0.5395073890686035
0.41534850001335144 0.2020806223154068 0.5604280829429626
0.40547677874565125 0.28223371505737305 0.617280125617981
0.37443578243255615 0.1295469105243683 0.42331260442733765
0.37987762689590454 0.15381906926631927 0.4602518081665039
0.5234090089797974 0.17962537705898285 0.5223606824874878
0.4952032268047333 0.21808484196662903 0.5282960534095764
0.365444540977478 0.12984797358512878 0.431511789560318
0.42156505584716797 0.2898608446121216 0.4403223395347595
0.410556823015213 0.26325103640556335 0.48470601439476013
0.4800037443637848 0.1238166019320488 0.4203142821788788
0.295758455991745 0.1921769231557846 0.4182201027870178
0.40072646737098694 0.2697230875492096 0.5816928148269653
0.33510035276412964 0.2050636261701584 0.5685951113700867
0.47756487131118774 0.26030293107032776 0.45585066080093384
0.33361193537712097 0.15323685109615326 0.4667522609233856
0.43543604016304016 0.20775645971298218 0.6089254021644592
0.43976831436157227 0.18268786370754242 0.5650300979614258
0.47674036026000977 0.24577555060386658 0.5331851243972778
0.3678511083126068 0.10775109380483627 0.548751711845398
0.455535888671875 0.12824295461177826 0.5684208869934082
0.41163745522499084 0.12857738137245178 0.6032504439353943
0.3790441155433655 0.2524055242538452 0.597564160823822
0.5058121681213379 0.17138297855854034 0.4958086609840393
0.5302878618240356 0.1517714112997055 0.4526608884334564
0.3736157715320587 0.1821957528591156 0.47734883427619934
0.47538328170776367 0.13375569880008698 0.46102356910705566
0.477531373500824 0.16890443861484528 0.5807686448097229
0.5168763399124146 0.18709121644496918 0.5838440656661987
0.41338637471199036 0.12937283515930176 0.5734861493110657
0.3692508339881897 0.16984614729881287 0.5326199531555176
0.413655549287796 0.2125060260295868 0.5169873237609863
0.42856985330581665 0.30151742696762085 0.5270615220069885
0.31392043828964233 0.18937699496746063 0.555482804775238
0.5033887028694153 0.1827017068862915 0.447910338640213
0.35277271270751953 0.12594519555568695 0.5981307625770569
0.46280437707901 0.23995795845985413 0.48441898822784424
0.5182557702064514 0.14664070308208466 0.5021851658821106
0.5006117224693298 0.14635132253170013 0.4166776239871979
0.4231472313404083 0.1127329021692276 0.4796191155910492
0.3551637828350067 0.21924522519111633 0.45082709193229675
0.43739327788352966 0.19632160663604736 0.44984376430511475
0.34102603793144226 0.19439905881881714 0.4141209125518799
0.39541223645210266 0.10446960479021072 0.4556654691696167
0.46402913331985474 0.12671953439712524 0.5321467518806458
0.4065885841846466 0.10717394948005676 0.45369911193847656
0.3866739273071289 0.10632037371397018 0.5507883429527283
0.4100179970264435 0.17170895636081696 0.6057955622673035
0.4287354648113251 0.20241595804691315 0.47160041332244873
0.3723040819168091 0.19635285437107086 0.41920047998428345
0.44927018880844116 0.17869119346141815 0.43347811698913574
0.3555188775062561 0.1569904088973999 0.5169399380683899
0.3333593010902405 0.2147769331932068 0.41716697812080383
0.4557671546936035 0.17736467719078064 0.4752957224845886
0.4418071508407593 0.2424764335155487 0.6094709038734436
0.48893412947654724 0.2056499868631363 0.5415597558021545
0.33877474069595337 0.17418172955513 0.4966734051704407
0.38513270020484924 0.2901054620742798 0.5982629656791687
0.3816987872123718 0.11322256922721863 0.4612586200237274
0.4795263707637787 0.12344330549240112 0.4933032989501953
0.377137154340744 0.2653018534183502 0.49542975425720215
0.38724562525749207 0.1226571798324585 0.477669894695282
0.4012313783168793 0.2032516747713089 0.47458964586257935
0.5405073761940002 0.16641168296337128 0.5368602871894836
0.3798045217990875 0.11044792830944061 0.4379073977470398
0.37643754482269287 0.11741426587104797 0.41302722692489624
0.3846642076969147 0.11304766684770584 0.40994083881378174
0.4032026529312134 0.2713683545589447 0.4258916974067688
0.3549675941467285 0.13534580171108246 0.5714645385742188
0.4227418601512909 0.32409587502479553 0.46964335441589355
0.4018874168395996 0.2875608801841736 0.5159916877746582
0.44157785177230835 0.11936017870903015 0.48290351033210754
0.33582767844200134 0.1613648533821106 0.43723437190055847
0.3534119129180908 0.1664917916059494 0.47067925333976746
0.3560013771057129 0.14344337582588196 0.4159775376319885
0.3760055899620056 0.261872798204422 0.4971249997615814
0.35207948088645935 0.21990153193473816 0.5307244658470154
0.4220254123210907 0.1511862426996231 0.5894044637680054
0.33103179931640625 0.2120998054742813 0.552091121673584
0.33078983426094055 0.2120741903781891 0.4097228944301605
0.3930028975009918 0.1442735493183136 0.47481048107147217
0.39079272747039795 0.15711349248886108 0.42523446679115295
0.3583231568336487 0.13686597347259521 0.4199974536895752
0.41163745522499084 0.12857738137245178 0.6032504439353943
0.3790441155433655 0.2524055242538452 0.597564160823822
0.3842116594314575 0.20128600299358368 0.5206300616264343
0.3854520618915558 0.11577490717172623 0.5478743314743042
0.3789477050304413 0.14370128512382507 0.44709107279777527
0.38912680745124817 0.26873743534088135 0.505279004573822
0.42804908752441406 0.1928413212299347 0.40981489419937134
0.3255710005760193 0.1992291361093521 0.5688794255256653
0.40891069173812866 0.11459054797887802 0.4301491975784302
0.36821448802948 0.2061779946088791 0.4357244372367859
0.3555188775062561 0.1569904088973999 0.5169399380683899
0.3333593010902405 0.2147769331932068 0.41716697812080383
0.4557671546936035 0.17736467719078064 0.4752957224845886
0.4418071508407593 0.2424764335155487 0.6094709038734436
0.48893412947654724 0.2056499868631363 0.5415597558021545
0.33877474069595337 0.17418172955513 0.4966734051704407
0.38513270020484924 0.2901054620742798 0.5982629656791687
0.3816987872123718 0.11322256922721863 0.4612586200237274
0.4795263707637787 0.12344330549240112 0.4933032989501953
0.5369952917098999 0.1634015589952469 0.44251710176467896
0.4145645201206207 0.14605626463890076 0.6056917309761047
0.3319670855998993 0.1943093091249466 0.432123064994812
0.3633863031864166 0.27027422189712524 0.5459300875663757
0.39930596947669983 0.2413337081670761 0.4825400710105896
0.40589797496795654 0.16168160736560822 0.44969847798347473
0.43215861916542053 0.18527182936668396 0.5959905982017517
0.3601160943508148 0.16897860169410706 0.41434648633003235
0.4798252582550049 0.19190609455108643 0.569115161895752
0.44646868109703064 0.17868833243846893 0.5401939153671265
0.5159040093421936 0.17405743896961212 0.611107349395752
0.40470680594444275 0.1434926688671112 0.5763128995895386
0.3214857578277588 0.1319197118282318 0.5704949498176575
0.43543604016304016 0.20775645971298218 0.6089254021644592
0.40969210863113403 0.13992774486541748 0.4935672879219055
0.40860646963119507 0.10813228040933609 0.430866003036499
0.379393994808197 0.11108297854661942 0.48643043637275696
0.3553400933742523 0.18567635118961334 0.5259546041488647
0.3778536319732666 0.2598000764846802 0.4755276143550873
0.4399546682834625 0.18866047263145447 0.4386257529258728
0.4288901388645172 0.12101106345653534 0.39173147082328796
0.36787983775138855 0.1034814864397049 0.590758204460144
0.3928893506526947 0.28601276874542236 0.49531975388526917
0.3673717975616455 0.14965668320655823 0.5129565596580505
0.4455988109111786 0.29596278071403503 0.44838792085647583
0.3984856903553009 0.2525065541267395 0.43448540568351746
0.36707964539527893 0.26060807704925537 0.45260122418403625
0.3308473825454712 0.21087606251239777 0.5210542678833008
0.321490615606308 0.20152612030506134 0.49486297369003296
0.4331563711166382 0.20196588337421417 0.487547367811203
0.4834158718585968 0.14092528820037842 0.5627310276031494
0.41508203744888306 0.12025940418243408 0.5979970097541809
0.4463903605937958 0.24487487971782684 0.4320548176765442
0.3232886493206024 0.19123853743076324 0.47913575172424316
0.370347797870636 0.24209940433502197 0.47926345467567444
0.44436243176460266 0.22448647022247314 0.5535459518432617
0.43835246562957764 0.20384253561496735 0.48969972133636475
0.3157047629356384 0.19679692387580872 0.4622596502304077
0.4731520116329193 0.1827576458454132 0.4239877760410309
0.44026660919189453 0.22162991762161255 0.5202131867408752
0.45257800817489624 0.20688052475452423 0.45427149534225464
0.3568950295448303 0.19490034878253937 0.4308769404888153
0.4475290775299072 0.2671054005622864 0.5889285802841187
0.423654705286026 0.24452023208141327 0.5747383832931519
0.3976559042930603 0.21724706888198853 0.5464010238647461
0.44564399123191833 0.15212488174438477 0.5874601006507874
0.30203816294670105 0.18137376010417938 0.4473041594028473
0.41325101256370544 0.17574506998062134 0.4871532618999481
0.35325491428375244 0.24622361361980438 0.4230708181858063
0.4114898443222046 0.17878255248069763 0.4625749886035919
0.48189467191696167 0.225328266620636 0.48463553190231323
0.35961803793907166 0.222153902053833 0.5229969024658203
0.43890729546546936 0.17379558086395264 0.42539137601852417
0.31963780522346497 0.2272208333015442 0.5174074172973633
0.38467684388160706 0.20579035580158234 0.49667882919311523
0.40470680594444275 0.1434926688671112 0.5763128995895386
0.31102561950683594 0.22352814674377441 0.5729225277900696
0.3566874861717224 0.15140648186206818 0.4433584213256836
0.4789178967475891 0.19884653389453888 0.41709452867507935
0.4954734146595001 0.1939411759376526 0.5986250638961792
0.4779775142669678 0.23071110248565674 0.4354794919490814
0.466026246547699 0.21737855672836304 0.5110472440719604
0.49480244517326355 0.18480244278907776 0.5401036143302917
0.37944430112838745 0.10490722954273224 0.5282105207443237
0.429389089345932 0.10546658933162689 0.4922277331352234
0.35600653290748596 0.1439298540353775 0.5112500190734863
0.4434586465358734 0.13316012918949127 0.5139680504798889
0.34417521953582764 0.24015815556049347 0.5707806348800659
0.34582602977752686 0.22359679639339447 0.46459752321243286
0.45582467317581177 0.1372535228729248 0.5428720116615295
0.4089337885379791 0.31296297907829285 0.5237935781478882
0.35428985953330994 0.10914696753025055 0.5858273506164551
0.36862820386886597 0.1309373825788498 0.43873870372772217
0.3757179081439972 0.13164201378822327 0.49436286091804504
0.365370512008667 0.14713312685489655 0.48435452580451965
0.46420344710350037 0.1562347412109375 0.5025593638420105
0.44332441687583923 0.11150188744068146 0.39777693152427673
0.45024389028549194 0.1841716319322586 0.6051198840141296
0.4437073767185211 0.22931620478630066 0.5241918563842773
0.3546408414840698 0.12248239666223526 0.5468231439590454
0.39248567819595337 0.2761583924293518 0.5594014525413513
0.3824141323566437 0.11721545457839966 0.5008658766746521
0.5483437776565552 0.17734825611114502 0.45500683784484863
0.3912613093852997 0.208016499876976 0.4930013120174408
0.45785272121429443 0.21155323088169098 0.5797504186630249
0.4241168200969696 0.28342461585998535 0.47836777567863464
0.46016785502433777 0.23202452063560486 0.4677622318267822
0.5276508927345276 0.18257345259189606 0.5209946632385254
0.3786362111568451 0.16347746551036835 0.5531660914421082
0.3566874861717224 0.15140648186206818 0.4433584213256836
0.33466827869415283 0.23302094638347626 0.43682533502578735
0.44198325276374817 0.24770082533359528 0.5172416567802429
0.3825133144855499 0.19139423966407776 0.5639907121658325
0.3518177270889282 0.15896974503993988 0.5184623599052429
0.36177489161491394 0.2744215726852417 0.5205797553062439
0.49480244517326355 0.18480244278907776 0.5401036143302917
0.370347797870636 0.24209940433502197 0.47926345467567444
0.44436243176460266 0.22448647022247314 0.5535459518432617
0.43835246562957764 0.20384253561496735 0.48969972133636475
0.3157047629356384 0.19679692387580872 0.4622596502304077
0.4731520116329193 0.1827576458454132 0.4239877760410309
0.44026660919189453 0.22162991762161255 0.5202131867408752
0.45257800817489624 0.20688052475452423 0.45427149534225464
0.41778743267059326 0.17325595021247864 0.4228372275829315
0.4475290775299072 0.2671054005622864 0.5889285802841187
0.39312395453453064 0.2805781364440918 0.5758147239685059
0.46420344710350037 0.1562347412109375 0.5025593638420105
0.3929707705974579 0.1494617462158203 0.5469931960105896
0.4277407228946686 0.12387154996395111 0.5989771485328674
0.4779415726661682 0.13035611808300018 0.46617060899734497
0.4495992064476013 0.14986562728881836 0.5105058550834656
0.46961936354637146 0.14626894891262054 0.43303754925727844
0.3158988356590271 0.16454291343688965 0.556804358959198
0.44612306356430054 0.16599193215370178 0.5604615211486816
0.4358690083026886 0.2578244209289551 0.4702874720096588
0.3826453387737274 0.12214206904172897 0.5474817752838135
0.5104095935821533 0.19127215445041656 0.5729472637176514
0.3472306430339813 0.13909222185611725 0.5104944109916687
0.4056420624256134 0.302685409784317 0.5393372178077698
0.39747384190559387 0.15303851664066315 0.43961891531944275
0.49227282404899597 0.16625936329364777 0.4771658480167389
0.40360960364341736 0.3044460415840149 0.5835755467414856
0.3257991373538971 0.2200966626405716 0.46227580308914185
0.4851228594779968 0.18250441551208496 0.43353769183158875
0.3977660834789276 0.14092914760112762 0.47774603962898254
0.4493957757949829 0.16773173213005066 0.5853384733200073
0.3509455621242523 0.14366088807582855 0.5973491072654724
0.5042350888252258 0.17626608908176422 0.42541390657424927
0.4303582012653351 0.13970649242401123 0.6042430996894836
0.36523371934890747 0.21035584807395935 0.5795592069625854
0.4193419814109802 0.24113230407238007 0.47103381156921387
0.4348439574241638 0.14721782505512238 0.5360795855522156
0.39317500591278076 0.1079506203532219 0.42996594309806824
0.3198205232620239 0.1853131651878357 0.4275420606136322
0.4223695993423462 0.2382183074951172 0.4401639997959137
0.40517616271972656 0.19692806899547577 0.5062286853790283
0.2991105020046234 0.19464996457099915 0.583865761756897
0.3640877604484558 0.20542055368423462 0.5117298364639282
0.3916725516319275 0.10713627189397812 0.422768771648407
0.4151756167411804 0.1082470640540123 0.5932132601737976
0.45024389028549194 0.1841716319322586 0.6051198840141296
0.39747384190559387 0.15303851664066315 0.43961891531944275
0.49227282404899597 0.16625936329364777 0.4771658480167389
0.40360960364341736 0.3044460415840149 0.5835755467414856
0.3257991373538971 0.2200966626405716 0.46227580308914185
0.3257991373538971 0.2200966626405716 0.46227580308914185
0.4851228594779968 0.18250441551208496 0.43353769183158875
0.4851228594779968 0.18250441551208496 0.43353769183158875
0.3977660834789276 0.14092914760112762 0.47774603962898254
0.4493957757949829 0.16773173213005066 0.5853384733200073
0.3509455621242523 0.14366088807582855 0.5973491072654724
0.5042350888252258 0.17626608908176422 0.42541390657424927
0.4303582012653351 0.13970649242401123 0.6042430996894836
0.36523371934890747 0.21035584807395935 0.5795592069625854
0.4185057282447815 0.20989906787872314 0.4529634118080139
0.3611758053302765 0.11428069323301315 0.5279126167297363
0.39317500591278076 0.1079506203532219 0.42996594309806824
0.3198205232620239 0.1853131651878357 0.4275420606136322
0.3985574543476105 0.2261260598897934 0.41673997044563293
0.34574806690216064 0.17550818622112274 0.45381054282188416
0.3797621726989746 0.1253330558538437 0.46972811222076416
0.2991105020046234 0.19464996457099915 0.583865761756897
0.3640877604484558 0.20542055368423462 0.5117298364639282
0.3916725516319275 0.10713627189397812 0.422768771648407
0.4151756167411804 0.1082470640540123 0.5932132601737976
0.4836635887622833 0.11973224580287933 0.5081697702407837
0.418374627828598 0.17212940752506256 0.4050291180610657
0.418374627828598 0.17212940752506256 0.4050291180610657
0.47719326615333557 0.20085202157497406 0.47994521260261536
0.45482563972473145 0.1640995591878891 0.45875272154808044
0.3678828179836273 0.1924106627702713 0.58372563123703
0.4039614200592041 0.10228012502193451 0.4959452748298645
0.4437073767185211 0.22931620478630066 0.5241918563842773
0.41364121437072754 0.1283271312713623 0.5209795832633972
0.40378066897392273 0.2717744708061218 0.4655555486679077
0.3262346684932709 0.1990545243024826 0.49676820635795593
0.3360669016838074 0.24160216748714447 0.6006344556808472
0.40722158551216125 0.17550776898860931 0.470998615026474
0.37282079458236694 0.25001654028892517 0.5075981616973877
0.36441391706466675 0.2550739049911499 0.5691530704498291
0.3780602216720581 0.21034982800483704 0.5559535622596741
0.43234580755233765 0.11280453205108643 0.504158616065979
0.4034217596054077 0.20556671917438507 0.5634214878082275
0.4179011881351471 0.24777159094810486 0.5238748788833618
0.3969176113605499 0.17767639458179474 0.5773301720619202
0.518258273601532 0.19574671983718872 0.43666231632232666
0.378427654504776 0.22307166457176208 0.49827930331230164
0.43866589665412903 0.1676250547170639 0.5828396677970886
0.5243955254554749 0.1684340089559555 0.5974336862564087
0.44776153564453125 0.24464663863182068 0.5169007182121277
0.4347395598888397 0.2706497311592102 0.5445921421051025
0.4334064722061157 0.2075873613357544 0.5509048104286194
0.30895406007766724 0.17133615911006927 0.45729079842567444
0.30895406007766724 0.17133615911006927 0.45729079842567444
0.4947260320186615 0.13011708855628967 0.42757317423820496
0.3153734803199768 0.18737341463565826 0.47343650460243225
0.40069901943206787 0.16462454199790955 0.41677823662757874
0.3866412043571472 0.195327028632164 0.41759318113327026
0.3742109537124634 0.21107055246829987 0.45120131969451904
0.42023858428001404 0.17545728385448456 0.5001722574234009
0.4430028796195984 0.29845571517944336 0.4781123101711273
0.3216269016265869 0.1702917218208313 0.43733683228492737
0.44514626264572144 0.25719353556632996 0.5971973538398743
0.3992125988006592 0.2436337172985077 0.45795753598213196
0.4594762623310089 0.14538045227527618 0.520209789276123
0.40722158551216125 0.17550776898860931 0.470998615026474
0.37282079458236694 0.25001654028892517 0.5075981616973877
0.36441391706466675 0.2550739049911499 0.5691530704498291
0.3780602216720581 0.21034982800483704 0.5559535622596741
0.43234580755233765 0.11280453205108643 0.504158616065979
0.4034217596054077 0.20556671917438507 0.5634214878082275
0.4179011881351471 0.24777159094810486 0.5238748788833618
0.3969176113605499 0.17767639458179474 0.5773301720619202
0.518258273601532 0.19574671983718872 0.43666231632232666
0.31697845458984375 0.1938997060060501 0.5008108019828796
0.5243955254554749 0.1684340089559555 0.5974336862564087
0.44776153564453125 0.24464663863182068 0.5169007182121277
0.4347395598888397 0.2706497311592102 0.5445921421051025
0.4334064722061157 0.2075873613357544 0.5509048104286194
0.30895406007766724 0.17133615911006927 0.45729079842567444
0.4947260320186615 0.13011708855628967 0.42757317423820496
0.3189399540424347 0.20832960307598114 0.4346100986003876
0.4204549789428711 0.12086896598339081 0.48620086908340454
0.42535918951034546 0.23192453384399414 0.5996425747871399
0.402118444442749 0.1998109221458435 0.6103740334510803
0.5096411108970642 0.16050998866558075 0.43936774134635925
0.43417492508888245 0.20577681064605713 0.4235483705997467
0.38597723841667175 0.1774665266275406 0.4456283748149872
0.37766242027282715 0.22240106761455536 0.540399432182312
0.4759522080421448 0.24826982617378235 0.5112360119819641
0.49209925532341003 0.15942232310771942 0.4095381498336792
0.31130191683769226 0.17306461930274963 0.47680217027664185
0.37062758207321167 0.25213944911956787 0.5738003849983215
0.3826453387737274 0.12214206904172897 0.5474817752838135
0.5104095935821533 0.19127215445041656 0.5729472637176514
0.3892016112804413 0.12940040230751038 0.4769369065761566
0.37395143508911133 0.1437891125679016 0.3962085247039795
0.3698130249977112 0.24053984880447388 0.4247681200504303
0.3865806758403778 0.23194412887096405 0.5277809500694275
0.3692643940448761 0.2611837089061737 0.5724664330482483
0.43473702669143677 0.14703141152858734 0.4546767473220825
0.3546184003353119 0.20997171103954315 0.40807926654815674
0.3940693736076355 0.1624797135591507 0.5805279612541199
0.5077058672904968 0.18912677466869354 0.4834388196468353
0.34717750549316406 0.19578154385089874 0.5744113922119141
0.416675865650177 0.1352556347846985 0.44520193338394165
0.4850970208644867 0.17538009583950043 0.41224759817123413
0.5323268175125122 0.1519356518983841 0.46294090151786804
0.458484947681427 0.19836825132369995 0.47526657581329346
0.4813734292984009 0.22043749690055847 0.5050005912780762
0.4708743691444397 0.17691755294799805 0.4759904742240906
0.4302537143230438 0.1163976639509201 0.5719336271286011
0.40416139364242554 0.2857167422771454 0.5807530283927917
0.36606597900390625 0.19552196562290192 0.4298294484615326
0.3447136878967285 0.18900375068187714 0.39790481328964233
0.4518122971057892 0.1724628359079361 0.5675756335258484
0.46338680386543274 0.23179630935192108 0.5151989459991455
0.5471677780151367 0.1651008576154709 0.4450443387031555
0.3388134837150574 0.18761423230171204 0.41528797149658203
0.500735342502594 0.1463199108839035 0.5741754174232483
0.4453549087047577 0.21095038950443268 0.4359287917613983
0.4754652678966522 0.2508518397808075 0.5263346433639526
0.40925565361976624 0.1557663232088089 0.5419631004333496
0.4583032429218292 0.21808592975139618 0.5397060513496399
0.49402832984924316 0.20402486622333527 0.4795180559158325
0.4021875560283661 0.11491524428129196 0.5991523265838623
0.5055617690086365 0.137542262673378 0.5934674143791199
0.38328075408935547 0.17361578345298767 0.4224781394004822
0.4779415726661682 0.13035611808300018 0.46617060899734497
0.5251675844192505 0.16158324480056763 0.5431141257286072
0.4803563952445984 0.1608801931142807 0.44103166460990906
0.3270812928676605 0.16829149425029755 0.5976714491844177
0.45170432329177856 0.11322472989559174 0.39895910024642944
0.40537986159324646 0.2055332064628601 0.5612446665763855
0.3091716468334198 0.18926946818828583 0.5695585608482361
0.3531842827796936 0.11486071348190308 0.5727747082710266
