ply
format ascii 1.0
element vertex 823
property float x
property float y
property float z
end_header
0.33737000823020935 0.1884618103504181 0.4900069236755371
0.4598621726036072 0.1901128739118576 0.589013934135437
0.42135170102119446 0.12028757482767105 0.5102200508117676
0.3818362355232239 0.14536762237548828 0.4898638427257538
0.3289923667907715 0.14643259346485138 0.584234893321991
0.4054553508758545 0.1347644031047821 0.6003314852714539
0.5407413244247437 0.13580486178398132 0.5484445095062256
0.39534592628479004 0.14544786512851715 0.44761961698532104
0.3565155267715454 0.10756725817918777 0.5854690074920654
0.5387008190155029 0.15026460587978363 0.5136075615882874
0.43669384717941284 0.13932327926158905 0.5540291666984558
0.4076494872570038 0.1676064282655716 0.5445278882980347
0.38416045904159546 0.24696224927902222 0.4932837188243866
0.3524976670742035 0.13264845311641693 0.3952891528606415
0.4568634033203125 0.16689416766166687 0.5176785588264465
0.42357146739959717 0.2496369481086731 0.46594929695129395
0.4327433705329895 0.1649368405342102 0.5841330289840698
0.48471108078956604 0.17527763545513153 0.4970828890800476
0.42280113697052 0.22528250515460968 0.5379396080970764
0.4334477186203003 0.10530329495668411 0.5946060419082642
0.4859118163585663 0.12886372208595276 0.47141411900520325
0.4235527515411377 0.0999298095703125 0.5619474053382874
0.3755992352962494 0.2151377648115158 0.49163269996643066
0.3986758887767792 0.1852368861436844 0.5651949644088745
0.4753659963607788 0.20276696979999542 0.4232376515865326
0.493393212556839 0.19151967763900757 0.4584891200065613
0.33070656657218933 0.19913485646247864 0.5246859788894653
0.3806246817111969 0.14802314341068268 0.5206111669540405
0.48101821541786194 0.2438248097896576 0.5098428130149841
0.36862504482269287 0.14668262004852295 0.5874218940734863
0.42702603340148926 0.18482258915901184 0.5426607728004456
0.41170772910118103 0.15889759361743927 0.4544265568256378
0.481963187456131 0.19471032917499542 0.4251553416252136
0.5184465646743774 0.126632422208786 0.4845201373100281
0.4647902548313141 0.1774592399597168 0.4117302894592285
0.37344780564308167 0.19623441994190216 0.4638505280017853
0.47956401109695435 0.11344607919454575 0.5214622020721436
0.4608027935028076 0.19346734881401062 0.5361738204956055
0.3554210364818573 0.21864646673202515 0.540705680847168
0.39833372831344604 0.26445817947387695 0.43925607204437256
0.5438129901885986 0.16754761338233948 0.4293416738510132
0.4183782935142517 0.16005660593509674 0.425057977437973
0.48379266262054443 0.10876773297786713 0.48535028100013733
0.4396025538444519 0.1952916532754898 0.5520333051681519
0.37724581360816956 0.2283422350883484 0.4588180482387543
0.4582243859767914 0.25347885489463806 0.4947337210178375
0.4598621726036072 0.1901128739118576 0.589013934135437
0.4866831600666046 0.12520959973335266 0.4590812027454376
0.4487440586090088 0.12716954946517944 0.4834047555923462
0.3660103380680084 0.13720352947711945 0.48043951392173767
0.35347872972488403 0.19442370533943176 0.5835998058319092
0.4315459430217743 0.18697892129421234 0.5907372832298279
0.36145317554473877 0.2426062971353531 0.4300658702850342
0.3823449909687042 0.1464751660823822 0.39171069860458374
0.3750856816768646 0.11061776429414749 0.5655384063720703
0.3996584415435791 0.11659318953752518 0.4974955916404724
0.5408716797828674 0.2023143768310547 0.4352305829524994
0.43489208817481995 0.20656995475292206 0.5271801948547363
0.3139056861400604 0.16314558684825897 0.5450621843338013
0.39407584071159363 0.263816237449646 0.6048759818077087
0.34637850522994995 0.15785463154315948 0.4515868127346039
0.3194231390953064 0.207969069480896 0.5235372185707092
0.4308449327945709 0.26077815890312195 0.4420577585697174
0.3504786491394043 0.1301838457584381 0.5249201655387878
0.4045112133026123 0.11088380217552185 0.5439688563346863
0.5017102360725403 0.1498834639787674 0.5881993174552917
0.38334548473358154 0.1117648109793663 0.45718979835510254
0.4201669991016388 0.16426879167556763 0.5333365797996521
0.3150468170642853 0.14508754014968872 0.5838797688484192
0.4100077152252197 0.10271837562322617 0.5243353247642517
0.34807050228118896 0.22579306364059448 0.4457300901412964
0.38163846731185913 0.24574552476406097 0.5914306044578552
0.3841550946235657 0.1718502640724182 0.5206136703491211
0.33819660544395447 0.15990667045116425 0.5651242733001709
0.3453643321990967 0.13624250888824463 0.5393717885017395
0.52097088098526 0.1412578821182251 0.5077205896377563
0.41950276494026184 0.17342105507850647 0.4114893674850464
0.3961572051048279 0.23339876532554626 0.5149093866348267
0.3762229084968567 0.12395633012056351 0.47185128927230835
0.4119850993156433 0.1590830236673355 0.530973494052887
0.5407413244247437 0.13580486178398132 0.5484445095062256
0.39544814825057983 0.1441521942615509 0.42465412616729736
0.4812004864215851 0.16117341816425323 0.44351276755332947
0.4299317002296448 0.13210904598236084 0.4531671106815338
0.4020538032054901 0.2474576234817505 0.5316565036773682
0.46209022402763367 0.1723504364490509 0.5332044363021851
0.37514108419418335 0.11110396683216095 0.5323264002799988
0.43101420998573303 0.11044931411743164 0.5817646980285645
0.48684442043304443 0.23590660095214844 0.47085368633270264
0.5196933746337891 0.17530186474323273 0.6086776852607727
0.4966764450073242 0.1191234290599823 0.5104684233665466
0.4659542441368103 0.2730463743209839 0.46118977665901184
0.39235106110572815 0.16271361708641052 0.4461519420146942
0.4919072389602661 0.14139848947525024 0.443450003862381
0.347013384103775 0.1778179258108139 0.5210715532302856
0.376755952835083 0.12286272644996643 0.3851132392883301
0.4785716235637665 0.23170174658298492 0.46263036131858826
0.4337194263935089 0.21100880205631256 0.4161447286605835
0.481888085603714 0.11210673302412033 0.5131945013999939
0.4628657102584839 0.13963621854782104 0.5638307332992554
0.4519406855106354 0.2354804277420044 0.5789822936058044
0.4701347053050995 0.12588314712047577 0.5859479904174805
0.4617800712585449 0.23990555107593536 0.4301287829875946
0.44526997208595276 0.2012862116098404 0.4598492980003357
0.3812240958213806 0.22504691779613495 0.5958432555198669
0.33737000823020935 0.1884618103504181 0.4900069236755371
0.43619436025619507 0.18983076512813568 0.4763776659965515
0.3389466404914856 0.2255120426416397 0.47657185792922974
0.4220609962940216 0.23940883576869965 0.5213744640350342
0.4187241494655609 0.09975000470876694 0.5675825476646423
0.4414001405239105 0.2398987114429474 0.4611203968524933
0.3148147761821747 0.16643790900707245 0.5600554943084717
0.46220076084136963 0.19987747073173523 0.5297781825065613
0.4525437355041504 0.26359912753105164 0.42481672763824463
0.49422943592071533 0.1974983811378479 0.43244031071662903
0.30516159534454346 0.1566571742296219 0.45818498730659485
0.5475686192512512 0.1507970243692398 0.5189148187637329
0.3843143582344055 0.1642197072505951 0.49043816328048706
0.48114755749702454 0.1323052942752838 0.5969666242599487
0.3507011830806732 0.12359277158975601 0.49164289236068726
0.3600202202796936 0.1731649786233902 0.41281360387802124
0.44789573550224304 0.17823436856269836 0.5721046924591064
0.48568689823150635 0.15347133576869965 0.4903031885623932
0.3643842935562134 0.19405777752399445 0.5909762382507324
0.46193116903305054 0.11067601293325424 0.47300875186920166
0.4181165099143982 0.1690956950187683 0.5383663177490234
0.3763912320137024 0.12290027737617493 0.45677676796913147
0.459608256816864 0.1456601619720459 0.43450450897216797
0.42286911606788635 0.1646072268486023 0.5812151432037354
0.36844006180763245 0.13582463562488556 0.5644983053207397
0.4260059893131256 0.25625962018966675 0.4925767183303833
0.38505643606185913 0.23714952170848846 0.48262137174606323
0.3024585247039795 0.18620215356349945 0.4928942620754242
0.4209401607513428 0.2270677536725998 0.4922957122325897
0.4419216513633728 0.13353583216667175 0.6054373383522034
0.3443029820919037 0.155349999666214 0.5582261681556702
0.4456302523612976 0.1346132755279541 0.5122287273406982
0.5380349159240723 0.16532187163829803 0.4856022000312805
0.4042401611804962 0.2620117962360382 0.5652909278869629
0.49270790815353394 0.14471423625946045 0.4765130877494812
0.3371315598487854 0.2065393179655075 0.5281646251678467
0.4794463515281677 0.15742938220500946 0.47042563557624817
0.5289366245269775 0.129825159907341 0.5844593048095703
0.4502567946910858 0.2539970278739929 0.5424816608428955
0.31843551993370056 0.18651050329208374 0.47556522488594055
0.46872058510780334 0.24048632383346558 0.5018690228462219
0.33095255494117737 0.11800113320350647 0.5711601376533508
0.4578050971031189 0.2808241546154022 0.47013765573501587
0.46856921911239624 0.11124861240386963 0.5744734406471252
0.4202129542827606 0.2276083081960678 0.5244584679603577
0.39470815658569336 0.10986240953207016 0.5126335024833679
0.4033535420894623 0.13720887899398804 0.39172548055648804
0.5199496150016785 0.15282507240772247 0.49751517176628113
0.5167512893676758 0.1332363486289978 0.5717077851295471
0.4257151782512665 0.27259111404418945 0.4885733425617218
0.43590936064720154 0.11602932214736938 0.4709016978740692
0.42034631967544556 0.21341949701309204 0.5046085715293884
0.3028993606567383 0.18306517601013184 0.4101667106151581
0.4018581807613373 0.16031774878501892 0.42059966921806335
0.4210054278373718 0.28258684277534485 0.6006100177764893
0.36832675337791443 0.16285501420497894 0.5722836852073669
0.4395569860935211 0.1047942265868187 0.46072933077812195
0.3352702856063843 0.12468179315328598 0.49418768286705017
0.3843126595020294 0.12550456821918488 0.5415589213371277
0.44733449816703796 0.19753797352313995 0.5645734667778015
0.48867952823638916 0.12869831919670105 0.4743625223636627
0.3962763249874115 0.1321241557598114 0.5704070925712585
0.4543455243110657 0.14866988360881805 0.5903879404067993
0.520536482334137 0.148082435131073 0.6084830164909363
0.33394336700439453 0.13742640614509583 0.431667298078537
0.4086376130580902 0.2592228651046753 0.4708310663700104
0.37498414516448975 0.1507929116487503 0.5471253991127014
0.3898718059062958 0.16683651506900787 0.40446415543556213
0.4188615083694458 0.2411806732416153 0.505480945110321
0.5331752300262451 0.13382500410079956 0.5651041269302368
0.5113934874534607 0.1601782888174057 0.5680187940597534
0.5155988931655884 0.20358680188655853 0.5327013731002808
0.47234514355659485 0.22856660187244415 0.5652885437011719
0.34972333908081055 0.2036646008491516 0.5520187020301819
0.30581825971603394 0.14785343408584595 0.5289272665977478
0.42891353368759155 0.19464872777462006 0.4926612079143524
0.42100095748901367 0.215091735124588 0.44853267073631287
0.45478078722953796 0.20516544580459595 0.5793817043304443
0.4839537739753723 0.21311189234256744 0.4711887240409851
0.3299300968647003 0.1439158022403717 0.4464390277862549
0.3675295114517212 0.16417810320854187 0.3957323133945465
0.36600011587142944 0.19001325964927673 0.6067385673522949
0.3846873342990875 0.21700027585029602 0.42030274868011475
0.47515687346458435 0.19715970754623413 0.5589688420295715
0.3856046199798584 0.22942852973937988 0.41413697600364685
0.4010962247848511 0.10676004737615585 0.5185644626617432
0.4188336431980133 0.10907740890979767 0.5191475749015808
0.4852842390537262 0.14578287303447723 0.5135864019393921
0.34030231833457947 0.19749797880649567 0.5019983053207397
0.4129091799259186 0.22806333005428314 0.5807897448539734
0.4047713875770569 0.12476083636283875 0.4266752600669861
0.45598703622817993 0.12805712223052979 0.48501065373420715
0.3540189862251282 0.21035972237586975 0.6060472130775452
0.4995144009590149 0.1774436980485916 0.47281476855278015
0.4543455243110657 0.14866988360881805 0.5903879404067993
0.3149045407772064 0.1520659476518631 0.462671160697937
0.4326641261577606 0.26711609959602356 0.4201422333717346
0.48888975381851196 0.1535436511039734 0.5802379250526428
0.43178051710128784 0.23355382680892944 0.59768146276474
0.36238396167755127 0.1669645458459854 0.4162681996822357
0.37309303879737854 0.20392665266990662 0.5919680595397949
0.4339204430580139 0.29399582743644714 0.5299349427223206
0.30380088090896606 0.19097323715686798 0.48276185989379883
0.4459366202354431 0.11140947788953781 0.5496407151222229
0.3003678619861603 0.16209930181503296 0.5054968595504761
0.41062507033348083 0.15319035947322845 0.40151193737983704
0.3424348533153534 0.1333259642124176 0.51927649974823
0.4348300099372864 0.1989181786775589 0.4572281241416931
0.4173057973384857 0.22051312029361725 0.4155523180961609
0.4428679049015045 0.23170502483844757 0.5618730783462524
0.38961061835289 0.15752728283405304 0.5018867254257202
0.38368749618530273 0.191718190908432 0.5657936334609985
0.39600250124931335 0.10557302832603455 0.4317489266395569
0.34229233860969543 0.11946387588977814 0.5729963779449463
0.35432082414627075 0.13469339907169342 0.39229002594947815
0.4126812815666199 0.256481409072876 0.4486335813999176
0.5059722065925598 0.1718304604291916 0.4620603621006012
0.5367078185081482 0.1262339949607849 0.45685523748397827
0.39133504033088684 0.18688331544399261 0.4785442352294922
0.5266625881195068 0.20882929861545563 0.44864708185195923
0.3605761229991913 0.17285892367362976 0.397180438041687
0.4257802963256836 0.10417208820581436 0.46179038286209106
0.360579252243042 0.15584945678710938 0.4137577414512634
0.4082546830177307 0.15342555940151215 0.5867769718170166
0.41382768750190735 0.10885892808437347 0.5410310626029968
0.4007897973060608 0.1074589192867279 0.44906309247016907
0.4582243859767914 0.25347885489463806 0.4947337210178375
0.5024697780609131 0.1809675246477127 0.5410528779029846
0.41382768750190735 0.10885892808437347 0.5410310626029968
0.4007897973060608 0.1074589192867279 0.44906309247016907
0.3098154366016388 0.19406303763389587 0.5582766532897949
0.47159087657928467 0.22782237827777863 0.6193510890007019
0.4538249969482422 0.10657849162817001 0.4608916938304901
0.4525691866874695 0.14054906368255615 0.5244039297103882
0.44035065174102783 0.28340789675712585 0.5315855145454407
0.3275901675224304 0.15295791625976562 0.4122130870819092
0.3465423583984375 0.1837567538022995 0.541260302066803
0.3943091034889221 0.11816278845071793 0.500501275062561
0.45824092626571655 0.1436738669872284 0.5338423252105713
0.4086713194847107 0.15635117888450623 0.5684584379196167
0.4314159154891968 0.10537011921405792 0.3831482529640198
0.48187461495399475 0.1786070615053177 0.5505340695381165
0.3882276117801666 0.10516064614057541 0.4750608801841736
0.38435715436935425 0.12202007323503494 0.4303974509239197
0.3973683714866638 0.17089535295963287 0.3999231457710266
0.46275120973587036 0.1477530151605606 0.48753055930137634
0.35334715247154236 0.1729813665151596 0.4513866901397705
0.4388338029384613 0.2769993543624878 0.4371149241924286
0.38078513741493225 0.12975627183914185 0.5349316596984863
0.5051459670066833 0.22781863808631897 0.43479469418525696
0.4406905174255371 0.21470533311367035 0.5877695083618164
0.5276873707771301 0.16757085919380188 0.509066104888916
0.42221173644065857 0.11182932555675507 0.5146070718765259
0.42221173644065857 0.11182932555675507 0.5146070718765259
0.46176451444625854 0.17592701315879822 0.44588083028793335
0.42262035608291626 0.17450715601444244 0.4133574366569519
0.42262035608291626 0.17450715601444244 0.4133574366569519
0.4212026596069336 0.165371373295784 0.4201103746891022
0.4020538032054901 0.2474576234817505 0.5316565036773682
0.3098154366016388 0.19406303763389587 0.5582766532897949
0.4102729856967926 0.11389940232038498 0.46912747621536255
0.4377926290035248 0.2314375638961792 0.5914528965950012
0.4538249969482422 0.10657849162817001 0.4608916938304901
0.4525691866874695 0.14054906368255615 0.5244039297103882
0.44035065174102783 0.28340789675712585 0.5315855145454407
0.3275901675224304 0.15295791625976562 0.4122130870819092
0.3465423583984375 0.1837567538022995 0.541260302066803
0.42011845111846924 0.19768281280994415 0.48866036534309387
0.4839569330215454 0.23404181003570557 0.49243390560150146
0.39216476678848267 0.14020411670207977 0.5899293422698975
0.45824092626571655 0.1436738669872284 0.5338423252105713
0.4086713194847107 0.15635117888450623 0.5684584379196167
0.4314159154891968 0.10537011921405792 0.3831482529640198
0.48187461495399475 0.1786070615053177 0.5505340695381165
0.38435715436935425 0.12202007323503494 0.4303974509239197
0.3973683714866638 0.17089535295963287 0.3999231457710266
0.46275120973587036 0.1477530151605606 0.48753055930137634
0.35334715247154236 0.1729813665151596 0.4513866901397705
0.4388338029384613 0.2769993543624878 0.4371149241924286
0.38078513741493225 0.12975627183914185 0.5349316596984863
0.5051459670066833 0.22781863808631897 0.43479469418525696
0.3840658366680145 0.12843546271324158 0.44065025448799133
0.4406905174255371 0.21470533311367035 0.5877695083618164
0.5276873707771301 0.16757085919380188 0.509066104888916
0.42221173644065857 0.11182932555675507 0.5146070718765259
0.46176451444625854 0.17592701315879822 0.44588083028793335
0.42262035608291626 0.17450715601444244 0.4133574366569519
0.5376440286636353 0.16182929277420044 0.45529934763908386
0.4212026596069336 0.165371373295784 0.4201103746891022
0.5439395904541016 0.1505543291568756 0.598135232925415
0.4020538032054901 0.2474576234817505 0.5316565036773682
0.3977251350879669 0.1323443055152893 0.5375280976295471
0.4911406934261322 0.14116400480270386 0.49556487798690796
0.49861159920692444 0.1699744462966919 0.5640940070152283
0.4097231328487396 0.10268355160951614 0.515559196472168
0.3365209996700287 0.20234304666519165 0.5510362386703491
0.3565899729728699 0.13890181481838226 0.5229877233505249
0.3630823791027069 0.14196465909481049 0.5544565320014954
0.465000718832016 0.20645733177661896 0.44912755489349365
0.3595384359359741 0.19383615255355835 0.4901100695133209
0.4667266011238098 0.20040687918663025 0.5566649436950684
0.3624359667301178 0.15267834067344666 0.4961867928504944
0.4138658344745636 0.18136709928512573 0.41958263516426086
0.4287453293800354 0.2271832674741745 0.4218243956565857
0.4492519795894623 0.11820121109485626 0.5371952652931213
0.5232592821121216 0.1763896346092224 0.5438727736473083
0.3626132607460022 0.14794635772705078 0.5690686106681824
0.391829252243042 0.14112669229507446 0.5117513537406921
0.37914639711380005 0.14099903404712677 0.5049284100532532
0.3604077398777008 0.23943845927715302 0.557712972164154
0.41437748074531555 0.183482825756073 0.4737914800643921
0.5099949240684509 0.1870708465576172 0.4707443118095398
0.4797426164150238 0.2344493716955185 0.46524038910865784
0.4257650673389435 0.11487719416618347 0.46945294737815857
0.463894784450531 0.11311517655849457 0.4297466278076172
0.5048589110374451 0.13428911566734314 0.4773575961589813
0.47381502389907837 0.14602546393871307 0.5330844521522522
0.42059192061424255 0.16361838579177856 0.41661423444747925
0.5637935996055603 0.14779286086559296 0.45189496874809265
0.39396485686302185 0.25366127490997314 0.4548026919364929
0.5059722065925598 0.1718304604291916 0.4620603621006012
0.5367078185081482 0.1262339949607849 0.45685523748397827
0.3996584415435791 0.11659318953752518 0.4974955916404724
0.3465423583984375 0.1837567538022995 0.541260302066803
0.42011845111846924 0.19768281280994415 0.48866036534309387
0.4839569330215454 0.23404181003570557 0.49243390560150146
0.39216476678848267 0.14020411670207977 0.5899293422698975
0.45824092626571655 0.1436738669872284 0.5338423252105713
0.4086713194847107 0.15635117888450623 0.5684584379196167
0.280833899974823 0.17160336673259735 0.4980837106704712
0.3754718601703644 0.20759089291095734 0.47634297609329224
0.4976687431335449 0.16477669775485992 0.42319655418395996
0.33561745285987854 0.14947840571403503 0.4468846321105957
0.4369840621948242 0.1141849234700203 0.4507773816585541
0.41861242055892944 0.16597577929496765 0.5232511758804321
0.44012683629989624 0.20798082649707794 0.4499596059322357
0.44501617550849915 0.11274119466543198 0.4937151074409485
0.45954006910324097 0.13721737265586853 0.40642714500427246
0.45767372846603394 0.24328893423080444 0.4496019780635834
0.3792147934436798 0.12127041816711426 0.46926987171173096
0.40985235571861267 0.11900467425584793 0.3893063962459564
0.4667918086051941 0.21789781749248505 0.42277586460113525
0.47534188628196716 0.10973779112100601 0.5775163769721985
0.5006110072135925 0.14493875205516815 0.5306057333946228
0.4061071276664734 0.14656543731689453 0.5030264258384705
0.4783420264720917 0.22039440274238586 0.5954665541648865
0.3405626118183136 0.19115446507930756 0.433255136013031
0.5165330171585083 0.21950937807559967 0.46669718623161316
0.4535795748233795 0.10637583583593369 0.4432813227176666
0.4820237159729004 0.16704712808132172 0.5404540300369263
0.3819957971572876 0.21570448577404022 0.42702141404151917
0.4307972192764282 0.10655847936868668 0.5506302714347839
0.5000296235084534 0.11310266703367233 0.542330265045166
0.3880099952220917 0.10504027456045151 0.5716286301612854
0.47515687346458435 0.19715970754623413 0.5589688420295715
0.33230310678482056 0.11664886027574539 0.5738072991371155
0.3955642580986023 0.21083614230155945 0.47525057196617126
0.3871600031852722 0.1475352793931961 0.5125181674957275
0.4614447057247162 0.11584130674600601 0.4788155257701874
0.4439147710800171 0.17753401398658752 0.5389859676361084
0.394575297832489 0.2505449950695038 0.5002602934837341
0.3534034788608551 0.22837954759597778 0.4455350339412689
0.37067878246307373 0.22636562585830688 0.6047893762588501
0.4420985281467438 0.25260916352272034 0.4646947383880615
0.42636290192604065 0.19633761048316956 0.5504546761512756
0.3397047221660614 0.11506351828575134 0.5604461431503296
0.519353449344635 0.20014187693595886 0.49250680208206177
0.3621661961078644 0.20786245167255402 0.4308411180973053
0.3643151819705963 0.22509057819843292 0.5982358455657959
0.5096282958984375 0.13396421074867249 0.5562627911567688
0.3279225826263428 0.19199955463409424 0.4795715808868408
0.4604199528694153 0.2021644413471222 0.5685064196586609
0.43755263090133667 0.1840628683567047 0.5020037293434143
0.32668766379356384 0.17964765429496765 0.4528696537017822
0.3931727111339569 0.1269114464521408 0.47823578119277954
0.37803566455841064 0.14450503885746002 0.5944435596466064
0.38386204838752747 0.2024471014738083 0.5167368650436401
0.4267946183681488 0.2299409955739975 0.5317742228507996
0.49782466888427734 0.1714611053466797 0.518101692199707
0.4417037069797516 0.2615598738193512 0.5810828804969788
0.3869607150554657 0.18289941549301147 0.4213472902774811
0.3971693813800812 0.10469405353069305 0.5059833526611328
0.40698274970054626 0.21803340315818787 0.44760745763778687
0.3529890477657318 0.16739614307880402 0.536595344543457
0.42524391412734985 0.1675691455602646 0.5547004342079163
0.280833899974823 0.17160336673259735 0.4980837106704712
0.39428532123565674 0.24783657491207123 0.5675637722015381
0.3937537670135498 0.11756975203752518 0.5822178721427917
0.4023177921772003 0.1136753037571907 0.583196222782135
0.3870288133621216 0.22329817712306976 0.45587101578712463
0.43426448106765747 0.24499797821044922 0.6135989427566528
0.40048396587371826 0.1412133425474167 0.5108441710472107
0.5218536257743835 0.1323675513267517 0.5129446983337402
0.4861358404159546 0.11651474237442017 0.458027720451355
0.5036277770996094 0.18348944187164307 0.5492509603500366
0.4139212369918823 0.1371219903230667 0.40980568528175354
0.48647940158843994 0.13749101758003235 0.40711212158203125
0.38568589091300964 0.10337074846029282 0.5715469121932983
0.4278097152709961 0.1596863865852356 0.4559088349342346
0.36859971284866333 0.2166169136762619 0.5004453659057617
0.37779122591018677 0.20504336059093475 0.44576284289360046
0.37744688987731934 0.2363218069076538 0.4313546419143677
0.3639942407608032 0.12987421452999115 0.42795994877815247
0.4109691083431244 0.2293584793806076 0.5070583820343018
0.49108821153640747 0.11476410180330276 0.45002099871635437
0.43614909052848816 0.10917390137910843 0.44948118925094604
0.33678945899009705 0.16637440025806427 0.3963048756122589
0.5252106785774231 0.1373641937971115 0.5737597346305847
0.43895187973976135 0.19045166671276093 0.4512408971786499
0.46560388803482056 0.15058211982250214 0.5449872612953186
0.45638716220855713 0.16955451667308807 0.4935480058193207
0.370270699262619 0.154934823513031 0.599865198135376
0.5210275650024414 0.18568050861358643 0.5737549662590027
0.4090229272842407 0.20435629785060883 0.5200309753417969
0.34801775217056274 0.14554372429847717 0.5067627429962158
0.34758442640304565 0.11571867763996124 0.5221872329711914
0.4696628153324127 0.1680392026901245 0.41781315207481384
0.4357931911945343 0.2744181156158447 0.46750032901763916
0.3352702856063843 0.12468179315328598 0.49418768286705017
0.42230576276779175 0.14085404574871063 0.4031274914741516
0.47028711438179016 0.20031994581222534 0.5982383489608765
0.4846675992012024 0.11310875415802002 0.46622875332832336
0.45825353264808655 0.1837349236011505 0.5273402333259583
0.4247884452342987 0.1909080594778061 0.4503132998943329
0.4328860640525818 0.11174546182155609 0.5471419095993042
0.35150256752967834 0.12527361512184143 0.5173103213310242
0.43133744597435 0.1694200336933136 0.4737946391105652
0.4269789755344391 0.12515240907669067 0.393353670835495
0.41771793365478516 0.11888965964317322 0.5949149131774902
0.3825770318508148 0.18630129098892212 0.4742410480976105
0.4463523328304291 0.2189035564661026 0.5367839336395264
0.38138216733932495 0.22339966893196106 0.5713626742362976
0.44702228903770447 0.2353418469429016 0.5366339683532715
0.47140246629714966 0.15199516713619232 0.5493454337120056
0.35558804869651794 0.1509353071451187 0.5230982899665833
0.36388853192329407 0.17788195610046387 0.5027389526367188
0.3834972381591797 0.18323169648647308 0.5137390494346619
0.4998989403247833 0.19366401433944702 0.5180039405822754
0.4445548355579376 0.2731936573982239 0.5281767249107361
0.44936248660087585 0.1462142914533615 0.5092746615409851
0.32342249155044556 0.20623674988746643 0.563625156879425
0.3994775712490082 0.14993925392627716 0.5800211429595947
0.4309399724006653 0.27956151962280273 0.44797658920288086
0.4292159080505371 0.11217570304870605 0.47506585717201233
0.46407321095466614 0.13084621727466583 0.4752281904220581
0.3759709894657135 0.16664808988571167 0.5000182390213013
0.38230371475219727 0.21116025745868683 0.48084041476249695
0.5606158375740051 0.14973759651184082 0.42454779148101807
0.3902151882648468 0.18696124851703644 0.4284481704235077
0.3902910053730011 0.12567153573036194 0.48744988441467285
0.37344780564308167 0.19623441994190216 0.4638505280017853
0.45283451676368713 0.10378463566303253 0.570476233959198
0.42254722118377686 0.10869206488132477 0.5963257551193237
0.41527059674263 0.17077317833900452 0.601358950138092
0.36302220821380615 0.15465772151947021 0.5503823161125183
0.46710872650146484 0.17594148218631744 0.4908950924873352
0.31116217374801636 0.17674478888511658 0.5573832392692566
0.34900209307670593 0.13205160200595856 0.41566184163093567
0.45645132660865784 0.18148042261600494 0.4366244077682495
0.49110159277915955 0.1810835599899292 0.49520930647850037
0.5565735697746277 0.14992405474185944 0.5482756495475769
0.5056148171424866 0.1191067323088646 0.42183181643486023
0.5133015513420105 0.22783753275871277 0.4431690573692322
0.38325244188308716 0.24156038463115692 0.5626649856567383
0.39703479409217834 0.21781626343727112 0.5139840841293335
0.5037181377410889 0.19732491672039032 0.5124629735946655
0.5016374588012695 0.22214332222938538 0.5211126804351807
0.3426986634731293 0.15219314396381378 0.4229762852191925
0.48104551434516907 0.1797788292169571 0.6162077784538269
0.5091599225997925 0.19763469696044922 0.5209742188453674
0.42234912514686584 0.1530979871749878 0.6037604212760925
0.3210696280002594 0.2040521651506424 0.5031837224960327
0.34478017687797546 0.12096305191516876 0.5923557281494141
0.46931424736976624 0.14297549426555634 0.5346868634223938
0.3420904576778412 0.17055881023406982 0.5355083346366882
0.34763407707214355 0.23005102574825287 0.434111088514328
0.3270254135131836 0.12558232247829437 0.5567524433135986
0.4278392493724823 0.12560904026031494 0.44610995054244995
0.4550039768218994 0.23623043298721313 0.5810043215751648
0.37300869822502136 0.21284548938274384 0.4255887567996979
0.512941837310791 0.15130874514579773 0.4732004702091217
0.43688347935676575 0.15498307347297668 0.43105414509773254
0.44733449816703796 0.19753797352313995 0.5645734667778015
0.3971693813800812 0.10469405353069305 0.5059833526611328
0.40698274970054626 0.21803340315818787 0.44760745763778687
0.3529890477657318 0.16739614307880402 0.536595344543457
0.280833899974823 0.17160336673259735 0.4980837106704712
0.3754718601703644 0.20759089291095734 0.47634297609329224
0.4976687431335449 0.16477669775485992 0.42319655418395996
0.33561745285987854 0.14947840571403503 0.4468846321105957
0.4369840621948242 0.1141849234700203 0.4507773816585541
0.41861242055892944 0.16597577929496765 0.5232511758804321
0.44012683629989624 0.20798082649707794 0.4499596059322357
0.41861242055892944 0.16597577929496765 0.5232511758804321
0.44012683629989624 0.20798082649707794 0.4499596059322357
0.44501617550849915 0.11274119466543198 0.4937151074409485
0.45954006910324097 0.13721737265586853 0.40642714500427246
0.45767372846603394 0.24328893423080444 0.4496019780635834
0.3792147934436798 0.12127041816711426 0.46926987171173096
0.40985235571861267 0.11900467425584793 0.3893063962459564
0.4667918086051941 0.21789781749248505 0.42277586460113525
0.47534188628196716 0.10973779112100601 0.5775163769721985
0.5006110072135925 0.14493875205516815 0.5306057333946228
0.4061071276664734 0.14656543731689453 0.5030264258384705
0.4783420264720917 0.22039440274238586 0.5954665541648865
0.3576839566230774 0.1752212643623352 0.5944992303848267
0.3908994197845459 0.13286909461021423 0.4175040125846863
0.4016750156879425 0.11120150238275528 0.5505708456039429
0.38373202085494995 0.1123926192522049 0.504699170589447
0.4513600468635559 0.1724063754081726 0.5363117456436157
0.36170709133148193 0.10900457203388214 0.5562744140625
0.4417116343975067 0.21540263295173645 0.5476038455963135
0.4066879153251648 0.2445227950811386 0.4908026158809662
0.38496309518814087 0.11818971484899521 0.42093417048454285
0.4533405005931854 0.12433481961488724 0.5015609264373779
0.44702228903770447 0.2353418469429016 0.5366339683532715
0.47140246629714966 0.15199516713619232 0.5493454337120056
0.38257312774658203 0.15867243707180023 0.5437975525856018
0.41133928298950195 0.1729557067155838 0.5254241228103638
0.4998989403247833 0.19366401433944702 0.5180039405822754
0.4445548355579376 0.2731936573982239 0.5281767249107361
0.44936248660087585 0.1462142914533615 0.5092746615409851
0.5455047488212585 0.15619990229606628 0.422738254070282
0.39187735319137573 0.11054626107215881 0.5138835906982422
0.3258260190486908 0.140736922621727 0.47067007422447205
0.47611692547798157 0.23453845083713531 0.5337429046630859
0.4292159080505371 0.11217570304870605 0.47506585717201233
0.4728938937187195 0.22677038609981537 0.5280279517173767
0.46407321095466614 0.13084621727466583 0.4752281904220581
0.3759709894657135 0.16664808988571167 0.5000182390213013
0.5606158375740051 0.14973759651184082 0.42454779148101807
0.37314572930336 0.1016395166516304 0.5880729556083679
0.3902151882648468 0.18696124851703644 0.4284481704235077
0.3902910053730011 0.12567153573036194 0.48744988441467285
0.45116907358169556 0.15767082571983337 0.5111106634140015
0.28662580251693726 0.17576764523983002 0.5544946193695068
0.41900092363357544 0.13147340714931488 0.45449352264404297
0.3644193112850189 0.18536368012428284 0.40948984026908875
0.30561333894729614 0.1472039818763733 0.5151904225349426
0.45104527473449707 0.1915757656097412 0.5745611786842346
0.39084264636039734 0.12311971187591553 0.39534685015678406
0.39325791597366333 0.1692497283220291 0.42816558480262756
0.532928466796875 0.1425679475069046 0.439454048871994
0.3129466772079468 0.16436077654361725 0.5849619507789612
0.37114471197128296 0.21351291239261627 0.5938015580177307
0.48893123865127563 0.1129193902015686 0.4503231644630432
0.30656373500823975 0.15389271080493927 0.522753119468689
0.36302220821380615 0.15465772151947021 0.5503823161125183
0.46710872650146484 0.17594148218631744 0.4908950924873352
0.31116217374801636 0.17674478888511658 0.5573832392692566
0.49128392338752747 0.21086591482162476 0.44551995396614075
0.415783554315567 0.19447413086891174 0.5585241317749023
0.45645132660865784 0.18148042261600494 0.4366244077682495
0.33433404564857483 0.15828785300254822 0.5535066723823547
0.3633032441139221 0.19379863142967224 0.4782363474369049
0.34815749526023865 0.18967927992343903 0.5656012892723083
0.3191760778427124 0.13152463734149933 0.5566805005073547
0.4355120360851288 0.24513916671276093 0.6083123087882996
0.5493999123573303 0.1369372308254242 0.44981321692466736
0.36913612484931946 0.17745882272720337 0.41835644841194153
0.3884889781475067 0.1863962560892105 0.5227487683296204
0.3641020357608795 0.2001398503780365 0.47961145639419556
0.49716123938560486 0.20150434970855713 0.543398916721344
0.3936064839363098 0.1095360741019249 0.5481328964233398
0.46103858947753906 0.1579435169696808 0.5659818649291992
0.3414357602596283 0.17052388191223145 0.5358364582061768
0.437138170003891 0.16993749141693115 0.5748487114906311
0.451530784368515 0.2514885663986206 0.5826899409294128
0.4390611946582794 0.2496711015701294 0.5048715472221375
0.37941762804985046 0.12290368974208832 0.5953748226165771
0.3845372796058655 0.23507171869277954 0.43005624413490295
0.4231469929218292 0.21251140534877777 0.45318832993507385
0.546492874622345 0.16474738717079163 0.5367018580436707
0.38243433833122253 0.11199566721916199 0.4427919387817383
0.420656681060791 0.26266443729400635 0.4964327812194824
0.4317304790019989 0.17375315725803375 0.45376670360565186
0.38659194111824036 0.2000858634710312 0.5053923726081848
0.4330749809741974 0.2188590168952942 0.5110464096069336
0.5266625881195068 0.20882929861545563 0.44864708185195923
0.3105171024799347 0.19158247113227844 0.45383307337760925
0.34734034538269043 0.13926081359386444 0.4300403296947479
0.3093295991420746 0.1776091456413269 0.44241929054260254
0.3503422141075134 0.17591983079910278 0.5083112716674805
0.41423216462135315 0.27298930287361145 0.516555666923523
0.4504172205924988 0.11734173446893692 0.4532187581062317
0.41055089235305786 0.12322139739990234 0.4023348391056061
0.42384421825408936 0.22084790468215942 0.5591944456100464
0.45283451676368713 0.10378463566303253 0.570476233959198
0.42254722118377686 0.10869206488132477 0.5963257551193237
0.41527059674263 0.17077317833900452 0.601358950138092
0.36302220821380615 0.15465772151947021 0.5503823161125183
0.46710872650146484 0.17594148218631744 0.4908950924873352
0.31116217374801636 0.17674478888511658 0.5573832392692566
0.49128392338752747 0.21086591482162476 0.44551995396614075
0.4371834993362427 0.25696420669555664 0.5813091993331909
0.39227867126464844 0.17905716598033905 0.42786064743995667
0.3803806006908417 0.13843876123428345 0.4502277672290802
0.4190369248390198 0.11952123790979385 0.5797858834266663
0.353270947933197 0.14042499661445618 0.5710831880569458
0.3549148440361023 0.12233130633831024 0.5251079201698303
0.4269862174987793 0.11789026856422424 0.5390857458114624
0.44933536648750305 0.20984774827957153 0.5721356272697449
0.43072906136512756 0.1860232651233673 0.5829670429229736
0.4943867027759552 0.22586354613304138 0.547263503074646
0.44079461693763733 0.20180392265319824 0.46714961528778076
0.5483798384666443 0.16887901723384857 0.44376665353775024
0.4502469003200531 0.22045886516571045 0.49020621180534363
0.40308961272239685 0.13037705421447754 0.44544681906700134
0.44310462474823 0.10379485785961151 0.46821126341819763
0.3395960330963135 0.16501528024673462 0.47681641578674316
0.3098154366016388 0.19406303763389587 0.5582766532897949
0.353270947933197 0.14042499661445618 0.5710831880569458
0.3549148440361023 0.12233130633831024 0.5251079201698303
0.4269862174987793 0.11789026856422424 0.5390857458114624
0.44933536648750305 0.20984774827957153 0.5721356272697449
0.43072906136512756 0.1860232651233673 0.5829670429229736
0.4943867027759552 0.22586354613304138 0.547263503074646
0.44079461693763733 0.20180392265319824 0.46714961528778076
0.5483798384666443 0.16887901723384857 0.44376665353775024
0.4502469003200531 0.22045886516571045 0.49020621180534363
0.40308961272239685 0.13037705421447754 0.44544681906700134
0.43866318464279175 0.10682296007871628 0.47792306542396545
0.3209943473339081 0.18513207137584686 0.4446156919002533
0.40271416306495667 0.1363074630498886 0.4592630863189697
0.5429545044898987 0.15515562891960144 0.45021525025367737
0.45834091305732727 0.15617994964122772 0.6063292622566223
0.4222544729709625 0.13137494027614594 0.583471417427063
0.3145982623100281 0.201462060213089 0.500436007976532
0.3161877393722534 0.18232086300849915 0.39791983366012573
0.342338889837265 0.1705143302679062 0.5064643025398254
0.33753645420074463 0.16575559973716736 0.4684818387031555
0.5010655522346497 0.1760156750679016 0.4784492552280426
0.4036298394203186 0.10985536873340607 0.4274106025695801
0.47152411937713623 0.13471539318561554 0.4060051143169403
0.4030857980251312 0.15885214507579803 0.4967382252216339
0.32171279191970825 0.13726221024990082 0.5896030068397522
0.3518742024898529 0.1688094437122345 0.40798214077949524
0.43361032009124756 0.12747648358345032 0.4491254687309265
0.40377557277679443 0.21723204851150513 0.40823760628700256
0.38750025629997253 0.2011050432920456 0.49754080176353455
0.38581153750419617 0.11148806661367416 0.5025767087936401
0.34971678256988525 0.17127011716365814 0.5238440632820129
0.3930949866771698 0.19438695907592773 0.5518779754638672
0.3420904576778412 0.17055881023406982 0.5355083346366882
0.48877817392349243 0.2041274905204773 0.5819521546363831
0.38786423206329346 0.22606328129768372 0.5213914513587952
0.4261896014213562 0.2668437659740448 0.4277594983577728
0.43466636538505554 0.29042237997055054 0.5067115426063538
0.32171279191970825 0.13726221024990082 0.5896030068397522
0.3518742024898529 0.1688094437122345 0.40798214077949524
0.44854214787483215 0.11936859786510468 0.46582549810409546
0.3518742024898529 0.1688094437122345 0.40798214077949524
0.43361032009124756 0.12747648358345032 0.4491254687309265
0.40377557277679443 0.21723204851150513 0.40823760628700256
0.546492874622345 0.16474738717079163 0.5367018580436707
0.38243433833122253 0.11199566721916199 0.4427919387817383
0.420656681060791 0.26266443729400635 0.4964327812194824
0.4317304790019989 0.17375315725803375 0.45376670360565186
0.38659194111824036 0.2000858634710312 0.5053923726081848
0.4330749809741974 0.2188590168952942 0.5110464096069336
0.4742170572280884 0.21772688627243042 0.6156109571456909
0.39337193965911865 0.1612330675125122 0.4466899037361145
0.42578065395355225 0.21403072774410248 0.45114269852638245
0.4935873746871948 0.17025922238826752 0.4280499815940857
0.480329692363739 0.1808072030544281 0.6065670251846313
0.4073545038700104 0.21239662170410156 0.4433366358280182
0.5361942648887634 0.21228574216365814 0.426848441362381
0.37044355273246765 0.23628345131874084 0.4832756221294403
0.42347776889801025 0.284783273935318 0.5649310946464539
0.4141894280910492 0.1044391617178917 0.4622962176799774
0.3537525236606598 0.17209330201148987 0.49038639664649963
0.5109132528305054 0.14328724145889282 0.5538094639778137
0.46881991624832153 0.10806117206811905 0.5568571090698242
0.3261837661266327 0.21450947225093842 0.4921494126319885
0.2973373830318451 0.1491718888282776 0.592283308506012
0.4425523579120636 0.11303770542144775 0.5396839380264282
0.4729510247707367 0.16599808633327484 0.5289086103439331
0.3203343451023102 0.1910453736782074 0.47286900877952576
0.45981791615486145 0.1741311252117157 0.5368478894233704
0.40235254168510437 0.17049384117126465 0.559370756149292
0.4539400637149811 0.16699399054050446 0.4138973653316498
0.45580005645751953 0.28132206201553345 0.45144280791282654
0.454210489988327 0.2653254270553589 0.5350816249847412
0.454210489988327 0.2653254270553589 0.5350816249847412
0.403502881526947 0.22090448439121246 0.5438433885574341
0.46602508425712585 0.2569442093372345 0.4664750099182129
0.2854609787464142 0.1670871376991272 0.5574377179145813
0.47438180446624756 0.1781364232301712 0.49215614795684814
0.34201717376708984 0.18784022331237793 0.45481985807418823
0.4397663474082947 0.1024606004357338 0.5024561882019043
0.4397663474082947 0.1024606004357338 0.5024561882019043
0.3818499445915222 0.1281910091638565 0.552761435508728
0.4142399728298187 0.11081819236278534 0.529892086982727
0.35050174593925476 0.15899045765399933 0.4488222002983093
0.5408300161361694 0.13170985877513885 0.5072044134140015
0.47740018367767334 0.11433226615190506 0.5325275659561157
0.47436803579330444 0.14486002922058105 0.5241855978965759
0.5055777430534363 0.14198938012123108 0.5515006184577942
0.49151283502578735 0.17126630246639252 0.5125412344932556
0.5055777430534363 0.14198938012123108 0.5515006184577942
0.49151283502578735 0.17126630246639252 0.5125412344932556
0.49151283502578735 0.17126630246639252 0.5125412344932556
0.38345035910606384 0.17974154651165009 0.528883159160614
0.2939983010292053 0.1738441437482834 0.4690883755683899
0.511074423789978 0.19073019921779633 0.4418012499809265
0.3486008942127228 0.17370788753032684 0.48938122391700745
0.4976687431335449 0.16477669775485992 0.42319655418395996
0.30561333894729614 0.1472039818763733 0.5151904225349426
0.45104527473449707 0.1915757656097412 0.5745611786842346
0.39084264636039734 0.12311971187591553 0.39534685015678406
0.39084264636039734 0.12311971187591553 0.39534685015678406
0.39325791597366333 0.1692497283220291 0.42816558480262756
0.4636171758174896 0.1503116339445114 0.5945876240730286
0.441053569316864 0.26398342847824097 0.5205560326576233
0.48879316449165344 0.18945148587226868 0.5478276610374451
0.5090299844741821 0.16749867796897888 0.5083770155906677
0.3990885317325592 0.15127092599868774 0.4858134090900421
0.45212510228157043 0.12277421355247498 0.4916810393333435
0.34377798438072205 0.16536670923233032 0.5535703301429749
0.3185494840145111 0.17321668565273285 0.42049846053123474
0.35086479783058167 0.12703174352645874 0.5691930055618286
0.37373238801956177 0.14758680760860443 0.5843188762664795
0.4139164686203003 0.22512803971767426 0.4635230302810669
0.5189194679260254 0.20816649496555328 0.4973016381263733
0.3128102421760559 0.17488828301429749 0.3972342908382416
0.4122931957244873 0.18156909942626953 0.4348938763141632
0.3470175862312317 0.2010951042175293 0.5800753831863403
0.44528067111968994 0.24665994942188263 0.6137707829475403
0.47666773200035095 0.108770951628685 0.4595668315887451
0.4231358766555786 0.11013206839561462 0.5375795960426331
0.4221624732017517 0.23021410405635834 0.5982162356376648
0.5195412635803223 0.1314353346824646 0.49428004026412964
0.4647229015827179 0.10761846601963043 0.5307681560516357
0.4425523579120636 0.11303770542144775 0.5396839380264282
0.4729510247707367 0.16599808633327484 0.5289086103439331
0.47715526819229126 0.14445777237415314 0.49322310090065
0.4699288308620453 0.17473432421684265 0.5906808972358704
0.35408827662467957 0.12764930725097656 0.49000343680381775
0.4066879153251648 0.2445227950811386 0.4908026158809662
0.34201717376708984 0.18784022331237793 0.45481985807418823
0.4397663474082947 0.1024606004357338 0.5024561882019043
0.3818499445915222 0.1281910091638565 0.552761435508728
0.4142399728298187 0.11081819236278534 0.529892086982727
0.35050174593925476 0.15899045765399933 0.4488222002983093
0.5408300161361694 0.13170985877513885 0.5072044134140015
0.47740018367767334 0.11433226615190506 0.5325275659561157
0.47436803579330444 0.14486002922058105 0.5241855978965759
0.5055777430534363 0.14198938012123108 0.5515006184577942
0.49151283502578735 0.17126630246639252 0.5125412344932556
0.38345035910606384 0.17974154651165009 0.528883159160614
0.2939983010292053 0.1738441437482834 0.4690883755683899
0.511074423789978 0.19073019921779633 0.4418012499809265
0.3486008942127228 0.17370788753032684 0.48938122391700745
0.32135188579559326 0.1620856374502182 0.5035050511360168
0.42285585403442383 0.1042138859629631 0.4788348376750946
0.3435654044151306 0.1383337676525116 0.5897661447525024
0.4085044264793396 0.1573846936225891 0.4675326347351074
0.4555070996284485 0.12316525727510452 0.5980203747749329
0.4691426455974579 0.13144226372241974 0.5477204918861389
0.3105171024799347 0.19158247113227844 0.45383307337760925
0.3471713662147522 0.21000432968139648 0.5380353331565857
0.3959823548793793 0.23475076258182526 0.4098520874977112
0.39204564690589905 0.11520317941904068 0.5958171486854553
0.37253066897392273 0.19722527265548706 0.4909212291240692
0.42579928040504456 0.2623046934604645 0.5884513258934021
0.47935137152671814 0.16396111249923706 0.5589050650596619
0.3057244122028351 0.14385908842086792 0.5655986070632935
0.4657153785228729 0.19505716860294342 0.5656881928443909
0.37422460317611694 0.1258971244096756 0.4247105121612549
0.3482968211174011 0.15743225812911987 0.5483903288841248
0.45554211735725403 0.14483189582824707 0.4818175137042999
0.45116907358169556 0.15767082571983337 0.5111106634140015
0.28662580251693726 0.17576764523983002 0.5544946193695068
0.41900092363357544 0.13147340714931488 0.45449352264404297
0.3644193112850189 0.18536368012428284 0.40948984026908875
0.30561333894729614 0.1472039818763733 0.5151904225349426
0.45104527473449707 0.1915757656097412 0.5745611786842346
0.39084264636039734 0.12311971187591553 0.39534685015678406
0.3906358778476715 0.12306049466133118 0.3954581916332245
0.49071958661079407 0.23296517133712769 0.4506879448890686
0.44719061255455017 0.21961937844753265 0.5129461884498596
0.4636171758174896 0.1503116339445114 0.5945876240730286
0.4345342218875885 0.26102492213249207 0.5990512371063232
0.4528684914112091 0.20203575491905212 0.46390071511268616
0.32135188579559326 0.1620856374502182 0.5035050511360168
0.42285585403442383 0.1042138859629631 0.4788348376750946
0.3435654044151306 0.1383337676525116 0.5897661447525024
0.4085044264793396 0.1573846936225891 0.4675326347351074
0.4555070996284485 0.12316525727510452 0.5980203747749329
0.4691426455974579 0.13144226372241974 0.5477204918861389
0.3105171024799347 0.19158247113227844 0.45383307337760925
0.34734034538269043 0.13926081359386444 0.4300403296947479
0.3093295991420746 0.1776091456413269 0.44241929054260254
0.3503422141075134 0.17591983079910278 0.5083112716674805
0.41423216462135315 0.27298930287361145 0.516555666923523
0.4504172205924988 0.11734173446893692 0.4532187581062317
0.41055089235305786 0.12322139739990234 0.4023348391056061
0.42384421825408936 0.22084790468215942 0.5591944456100464
0.45283451676368713 0.10378463566303253 0.570476233959198
0.42254722118377686 0.10869206488132477 0.5963257551193237
0.41527059674263 0.17077317833900452 0.601358950138092
0.36302220821380615 0.15465772151947021 0.5503823161125183
0.3332592248916626 0.2042318880558014 0.5160521268844604
0.39204564690589905 0.11520317941904068 0.5958171486854553
0.37253066897392273 0.19722527265548706 0.4909212291240692
0.42579928040504456 0.2623046934604645 0.5884513258934021
0.47935137152671814 0.16396111249923706 0.5589050650596619
0.3057244122028351 0.14385908842086792 0.5655986070632935
0.4657153785228729 0.19505716860294342 0.5656881928443909
0.37422460317611694 0.1258971244096756 0.4247105121612549
0.3482968211174011 0.15743225812911987 0.5483903288841248
0.3915846049785614 0.13188350200653076 0.4845621585845947
0.5447376370429993 0.18110741674900055 0.4806220531463623
0.3506646752357483 0.21114155650138855 0.5968783497810364
0.45220503211021423 0.10637234151363373 0.46112900972366333
0.5066065788269043 0.1557266116142273 0.49824321269989014
0.3364151418209076 0.14116846024990082 0.4719866216182709
0.34985536336898804 0.21832147240638733 0.590470016002655
