ply
format ascii 1.0
element vertex 823
property float x
property float y
property float z
end_header
0.3710751235485077 0.11988036334514618 0.5871299505233765
0.49482324719429016 0.24235130846500397 0.4727543294429779
0.4921693503856659 0.10888936370611191 0.5710346698760986
0.47527438402175903 0.2609366476535797 0.5045710802078247
0.4964405298233032 0.1615137904882431 0.41511791944503784
0.3639677166938782 0.12683051824569702 0.42126762866973877
0.4356421232223511 0.13097569346427917 0.5329927802085876
0.5282055139541626 0.19279703497886658 0.49002331495285034
0.4519718289375305 0.1752205193042755 0.4858664274215698
0.4081008732318878 0.19447582960128784 0.43637415766716003
0.4818311333656311 0.18588317930698395 0.5490576028823853
0.5747193098068237 0.16167959570884705 0.43684107065200806
0.44162464141845703 0.11457531899213791 0.4633488059043884
0.48099440336227417 0.17349427938461304 0.4128692150115967
0.41942140460014343 0.23104901611804962 0.546994149684906
0.4251360595226288 0.09677821397781372 0.5603533387184143
0.40233585238456726 0.2392958402633667 0.48139968514442444
0.3240126669406891 0.14694879949092865 0.45109543204307556
0.5010465383529663 0.14802736043930054 0.47346410155296326
0.45793768763542175 0.20463870465755463 0.4613182842731476
0.48469799757003784 0.16964909434318542 0.5777509212493896
0.45959925651550293 0.13576430082321167 0.4059160351753235
0.44405657052993774 0.1532098352909088 0.4823656678199768
0.4448404610157013 0.15794003009796143 0.49527013301849365
0.3342302441596985 0.17018291354179382 0.584969162940979
0.34807682037353516 0.13885408639907837 0.5712316036224365
0.4793582558631897 0.24405677616596222 0.46684837341308594
0.4484085440635681 0.10490161925554276 0.4989755153656006
0.4768907427787781 0.2493697702884674 0.42783358693122864
0.4419567286968231 0.17470122873783112 0.41207897663116455
0.517457127571106 0.11066708713769913 0.4626881778240204
0.388824999332428 0.16120874881744385 0.5932767391204834
0.5039804577827454 0.2077452689409256 0.43410661816596985
0.43643292784690857 0.13787148892879486 0.5734994411468506
0.3807312548160553 0.17988398671150208 0.5821441411972046
0.38971585035324097 0.17688672244548798 0.5158982276916504
0.3995612561702728 0.21811579167842865 0.5391435623168945
0.406524658203125 0.13411806523799896 0.40116140246391296
0.400689959526062 0.1736576110124588 0.5389681458473206
0.4553191363811493 0.12541308999061584 0.38984665274620056
0.48388031125068665 0.19949448108673096 0.5620304942131042
0.4463344216346741 0.12187474966049194 0.43506455421447754
0.4171847999095917 0.21099726855754852 0.5734696388244629
0.4240162968635559 0.1662939488887787 0.461876779794693
0.3408815860748291 0.18634092807769775 0.49165403842926025
0.43596160411834717 0.111229807138443 0.4513358771800995
0.3548023998737335 0.19751723110675812 0.4250830113887787
0.4551485776901245 0.24991370737552643 0.5227586030960083
0.4872211813926697 0.21981272101402283 0.5202010273933411
0.3952387571334839 0.23230306804180145 0.596953272819519
0.3158387243747711 0.17256881296634674 0.3983658254146576
0.4758578836917877 0.21819087862968445 0.5336319804191589
0.4619143009185791 0.10877920687198639 0.5249007940292358
0.366350382566452 0.12115051597356796 0.44438835978507996
0.5113915205001831 0.23065227270126343 0.4289253354072571
0.43481385707855225 0.13275682926177979 0.4063570499420166
0.4427274763584137 0.2592628300189972 0.5021052360534668
0.44958001375198364 0.10714133083820343 0.5094339847564697
0.3404412269592285 0.1566287726163864 0.5633198618888855
0.4260008931159973 0.1331103891134262 0.537259578704834
0.42159655690193176 0.10992834717035294 0.5597076416015625
0.47884058952331543 0.19631704688072205 0.44733676314353943
0.4499453902244568 0.22490732371807098 0.5515281558036804
0.4442146420478821 0.23215432465076447 0.47663766145706177
0.3104681670665741 0.17359262704849243 0.5830661058425903
0.549994945526123 0.1940947026014328 0.44363299012184143
0.35753750801086426 0.12266550958156586 0.4997270405292511
0.39407286047935486 0.12086966633796692 0.5838662981987
0.4235106110572815 0.16371536254882812 0.49147704243659973
0.29353564977645874 0.1567869633436203 0.48043668270111084
0.40952661633491516 0.2139442414045334 0.5420741438865662
0.39034926891326904 0.1610129177570343 0.511383593082428
0.38766539096832275 0.1614466905593872 0.40203356742858887
0.302819162607193 0.1568082571029663 0.42793869972229004
0.3678489327430725 0.18923801183700562 0.5993110537528992
0.4774148762226105 0.12695451080799103 0.5746046304702759
0.371044397354126 0.1912240982055664 0.4934033155441284
0.4880369007587433 0.1284269094467163 0.5913084745407104
0.400547593832016 0.24012522399425507 0.46442726254463196
0.3990831971168518 0.1295611560344696 0.49570590257644653
0.4067745506763458 0.138907790184021 0.5782580971717834
0.4638882279396057 0.12107635289430618 0.457607626914978
0.4650861918926239 0.13583339750766754 0.41223061084747314
0.5089195966720581 0.11231295764446259 0.4451155662536621
0.43161097168922424 0.16598042845726013 0.4167988896369934
0.41573894023895264 0.1608869433403015 0.42599183320999146
0.5036607384681702 0.10805182158946991 0.5519915819168091
0.3053708076477051 0.15868514776229858 0.4211694896221161
0.31711676716804504 0.1736103892326355 0.40753424167633057
0.3681861162185669 0.14122246205806732 0.5078455805778503
0.5146023035049438 0.14631401002407074 0.4851815104484558
0.5015319585800171 0.17020992934703827 0.43972885608673096
0.3349827229976654 0.15089067816734314 0.3982387185096741
0.4867646098136902 0.24020057916641235 0.4826834201812744
0.43650877475738525 0.1356603354215622 0.4002699553966522
0.30345720052719116 0.14575640857219696 0.5420088768005371
0.454989492893219 0.26704564690589905 0.44871899485588074
0.5259632468223572 0.1383989453315735 0.4584830105304718
0.406595915555954 0.14090511202812195 0.5078259110450745
0.389301061630249 0.15823611617088318 0.5472537279129028
0.41137829422950745 0.18200960755348206 0.5366699695587158
0.3470921218395233 0.20063844323158264 0.4447728395462036
0.39969050884246826 0.2034076750278473 0.5786780118942261
0.4437490403652191 0.1552613228559494 0.5035325288772583
0.5096595883369446 0.12744203209877014 0.5366113185882568
0.44031035900115967 0.1392783373594284 0.4071097671985626
0.4338740110397339 0.1579003781080246 0.5916693806648254
0.48207759857177734 0.2366858720779419 0.5301046967506409
0.4515169858932495 0.20015038549900055 0.42109254002571106
0.4880369007587433 0.1284269094467163 0.5913084745407104
0.400547593832016 0.24012522399425507 0.46442726254463196
0.3990831971168518 0.1295611560344696 0.49570590257644653
0.4067745506763458 0.138907790184021 0.5782580971717834
0.4638882279396057 0.12107635289430618 0.457607626914978
0.4650861918926239 0.13583339750766754 0.41223061084747314
0.5089195966720581 0.11231295764446259 0.4451155662536621
0.4403158128261566 0.13239020109176636 0.481681227684021
0.5371639132499695 0.12140655517578125 0.6167540550231934
0.4677918553352356 0.13356377184391022 0.4388636648654938
0.4345869719982147 0.10482186824083328 0.5148619413375854
0.46098440885543823 0.10333377867937088 0.5099301934242249
0.487515926361084 0.23937098681926727 0.4979293942451477
0.4099939465522766 0.22404123842716217 0.4206194579601288
0.5509780645370483 0.14752475917339325 0.4575781226158142
0.39222201704978943 0.20535852015018463 0.5016830563545227
0.35165169835090637 0.14126315712928772 0.4198710322380066
0.42755794525146484 0.09876739978790283 0.575747013092041
0.44159549474716187 0.2364071011543274 0.4642823338508606
0.3937790095806122 0.2260558009147644 0.41883811354637146
0.45671993494033813 0.23408320546150208 0.4196050465106964
0.3991090655326843 0.18869870901107788 0.5585963726043701
0.3297586739063263 0.18245242536067963 0.5404602885246277
0.3678489327430725 0.18923801183700562 0.5993110537528992
0.4774148762226105 0.12695451080799103 0.5746046304702759
0.371044397354126 0.1912240982055664 0.4934033155441284
0.4880369007587433 0.1284269094467163 0.5913084745407104
0.400547593832016 0.24012522399425507 0.46442726254463196
0.3990831971168518 0.1295611560344696 0.49570590257644653
0.4067745506763458 0.138907790184021 0.5782580971717834
0.4638882279396057 0.12107635289430618 0.457607626914978
0.4650861918926239 0.13583339750766754 0.41223061084747314
0.5089195966720581 0.11231295764446259 0.4451155662536621
0.4722643494606018 0.12180672585964203 0.583345890045166
0.5257174372673035 0.11568722873926163 0.5751440525054932
0.5177690386772156 0.21450665593147278 0.5289833545684814
0.49917495250701904 0.20737212896347046 0.44592100381851196
0.4067446291446686 0.11005745828151703 0.5807269811630249
0.41003113985061646 0.11279752105474472 0.38468441367149353
0.3214866518974304 0.16238456964492798 0.5567890405654907
0.4419567286968231 0.17470122873783112 0.41207897663116455
0.517457127571106 0.11066708713769913 0.4626881778240204
0.388824999332428 0.16120874881744385 0.5932767391204834
0.40260064601898193 0.13121210038661957 0.4991423785686493
0.5110219120979309 0.21396088600158691 0.5714730620384216
0.31627845764160156 0.18179689347743988 0.5305724740028381
0.48221832513809204 0.12783432006835938 0.5099945664405823
0.4678097665309906 0.23466387391090393 0.6143178939819336
0.4374755322933197 0.14079326391220093 0.605167031288147
0.39191436767578125 0.10392393916845322 0.46309563517570496
0.3899230659008026 0.13339374959468842 0.555787980556488
0.48147502541542053 0.23889613151550293 0.5656589865684509
0.4119122624397278 0.10891064256429672 0.3868449330329895
0.4744167625904083 0.11052293330430984 0.42044559121131897
0.36057162284851074 0.16218604147434235 0.5495929718017578
0.3202143907546997 0.17707955837249756 0.5028033256530762
0.33279356360435486 0.19723398983478546 0.4318041205406189
0.4533035159111023 0.2762186825275421 0.47881224751472473
0.3991881310939789 0.17661826312541962 0.475863516330719
0.4428890347480774 0.11949624121189117 0.6048181653022766
0.32878339290618896 0.12402859330177307 0.4731498956680298
0.39044660329818726 0.15136627852916718 0.5018423795700073
0.4596168100833893 0.16637597978115082 0.516170859336853
0.3891254961490631 0.16328607499599457 0.5186281204223633
0.46318161487579346 0.22470484673976898 0.42374542355537415
0.505387008190155 0.20080316066741943 0.4738127887248993
0.4280659258365631 0.15993863344192505 0.4566601812839508
0.4184131622314453 0.09814126044511795 0.5279685854911804
0.33986780047416687 0.15593257546424866 0.5936732888221741
0.49361106753349304 0.1125793382525444 0.5712863802909851
0.34052902460098267 0.16893264651298523 0.5271360874176025
0.44405657052993774 0.1532098352909088 0.4823656678199768
0.3935724198818207 0.23508107662200928 0.6025750637054443
0.3977307081222534 0.1029796153306961 0.5391461849212646
0.3813897967338562 0.12597976624965668 0.5739443302154541
0.48074430227279663 0.20489424467086792 0.5161705613136292
0.4840529263019562 0.19499459862709045 0.4776281416416168
0.47983643412590027 0.15492890775203705 0.4990915060043335
0.3842709958553314 0.15030696988105774 0.40701350569725037
0.4559534788131714 0.11333102732896805 0.567354679107666
0.48953211307525635 0.21988534927368164 0.5104050636291504
0.5105211138725281 0.2313532680273056 0.45384395122528076
0.4552135169506073 0.11134304851293564 0.49932119250297546
0.4890294373035431 0.13463528454303741 0.5024504661560059
0.4086528718471527 0.10839138925075531 0.5788716077804565
0.48482152819633484 0.18237416446208954 0.4718534052371979
0.3225746154785156 0.11665698885917664 0.5847801566123962
0.3678489327430725 0.18923801183700562 0.5993110537528992
0.4774148762226105 0.12695451080799103 0.5746046304702759
0.371044397354126 0.1912240982055664 0.4934033155441284
0.4880369007587433 0.1284269094467163 0.5913084745407104
0.400547593832016 0.24012522399425507 0.46442726254463196
0.3990831971168518 0.1295611560344696 0.49570590257644653
0.4677143692970276 0.19287371635437012 0.5028654336929321
0.5470477342605591 0.16670995950698853 0.4882286489009857
0.42483773827552795 0.2370254546403885 0.4962068796157837
0.4694020748138428 0.11146809160709381 0.4281425476074219
0.4815216660499573 0.1416732668876648 0.4932591915130615
0.5517338514328003 0.16173790395259857 0.6052606701850891
0.4761613607406616 0.21114784479141235 0.48246288299560547
0.3472942113876343 0.1282176971435547 0.3899533748626709
0.38730335235595703 0.10455761104822159 0.5510717630386353
0.47258394956588745 0.15489569306373596 0.5055615901947021
0.43306365609169006 0.10508938878774643 0.5699127316474915
0.4418160915374756 0.10156156122684479 0.6037712693214417
0.4246332347393036 0.25144264101982117 0.5653413534164429
0.5039804577827454 0.2077452689409256 0.43410661816596985
0.43643292784690857 0.13787148892879486 0.5734994411468506
0.3807312548160553 0.17988398671150208 0.5821441411972046
0.38971585035324097 0.17688672244548798 0.5158982276916504
0.3995612561702728 0.21811579167842865 0.5391435623168945
0.406524658203125 0.13411806523799896 0.40116140246391296
0.400689959526062 0.1736576110124588 0.5389681458473206
0.3633909225463867 0.12296927720308304 0.4874073565006256
0.47096285223960876 0.13584834337234497 0.4342246651649475
0.444746732711792 0.11668816953897476 0.5571874976158142
0.3215233087539673 0.16358891129493713 0.43084877729415894
0.35776573419570923 0.1755758374929428 0.5154110193252563
0.4518612325191498 0.11041057109832764 0.5179994702339172
0.36915430426597595 0.16909846663475037 0.5950982570648193
0.4015205204486847 0.1174384132027626 0.42192378640174866
0.4178631603717804 0.10138611495494843 0.5007999539375305
0.48562875390052795 0.15158788859844208 0.44514718651771545
0.5322479605674744 0.15459319949150085 0.49050426483154297
0.35989096760749817 0.11905156821012497 0.5413731336593628
0.5496289730072021 0.15800881385803223 0.41790273785591125
0.41555869579315186 0.21015888452529907 0.5780016779899597
0.40586763620376587 0.09937573969364166 0.5665525794029236
0.3238358795642853 0.17763912677764893 0.530704140663147
0.5488993525505066 0.1324271708726883 0.457407683134079
0.4032604992389679 0.1992470622062683 0.5868794918060303
0.453300803899765 0.20025235414505005 0.5823478698730469
0.4426724314689636 0.14162065088748932 0.5390084981918335
0.5196555852890015 0.16655392944812775 0.580314576625824
0.46474915742874146 0.2076367884874344 0.6147239804267883
0.45148617029190063 0.27205225825309753 0.4324900507926941
0.5329321026802063 0.13807614147663116 0.41906821727752686
0.4547472298145294 0.1289249211549759 0.49948734045028687
0.5453726053237915 0.13037638366222382 0.4596517086029053
0.5082971453666687 0.1725054234266281 0.42810890078544617
0.4902920126914978 0.15730956196784973 0.4754086136817932
0.4817943274974823 0.12153831869363785 0.4503798484802246
0.538353443145752 0.14136478304862976 0.5955521464347839
0.4463273882865906 0.10187828540802002 0.4206714928150177
0.3937232792377472 0.12625236809253693 0.5221700072288513
0.5564438104629517 0.18815547227859497 0.4402083456516266
0.5104794502258301 0.14196932315826416 0.5963810086250305
0.5458061695098877 0.16071869432926178 0.4364158511161804
0.5174230337142944 0.15024332702159882 0.5178965330123901
0.42165589332580566 0.15701556205749512 0.42127490043640137
0.42114055156707764 0.14783106744289398 0.556767463684082
0.5493713021278381 0.12219806015491486 0.5245742797851562
0.4292290210723877 0.1432812362909317 0.4712086021900177
0.4348205626010895 0.13852529227733612 0.5449534058570862
0.41607028245925903 0.11458942294120789 0.4057901203632355
0.46650344133377075 0.11156118661165237 0.5583171248435974
0.40878355503082275 0.21471697092056274 0.5995200872421265
0.5081538558006287 0.13548138737678528 0.45544272661209106
0.3744465112686157 0.13102763891220093 0.5165011882781982
0.3486461341381073 0.1740737408399582 0.4494011402130127
0.4751255512237549 0.13190694153308868 0.4329192340373993
0.4767896831035614 0.15768957138061523 0.606478214263916
0.468562513589859 0.15777043998241425 0.6103456616401672
0.4004778265953064 0.10625918209552765 0.5875558853149414
0.36945003271102905 0.11836576461791992 0.4884311556816101
0.5611736178398132 0.14010797441005707 0.575404703617096
0.45397236943244934 0.16161195933818817 0.5453113913536072
0.3639677166938782 0.12683051824569702 0.42126762866973877
0.41252395510673523 0.19169607758522034 0.6106274127960205
0.44335925579071045 0.2261793464422226 0.5970442891120911
0.3874562382698059 0.16503071784973145 0.4981693923473358
0.45821940898895264 0.24197418987751007 0.4583754539489746
0.36091887950897217 0.20833103358745575 0.56313157081604
0.3835459351539612 0.11554425954818726 0.5584374666213989
0.5335054397583008 0.13866092264652252 0.5832257866859436
0.42648160457611084 0.09898674488067627 0.5267772674560547
0.44366177916526794 0.17223462462425232 0.5058395266532898
0.37586885690689087 0.11875074356794357 0.5184521675109863
0.3555396497249603 0.11812155693769455 0.5848779082298279
0.4293634593486786 0.2590904235839844 0.6099388003349304
0.40714704990386963 0.1673375517129898 0.45688965916633606
0.4421823024749756 0.14539361000061035 0.564639687538147
0.3768537938594818 0.1773979663848877 0.4433654546737671
0.43354684114456177 0.10196581482887268 0.42381972074508667
0.5365122556686401 0.20312310755252838 0.43913087248802185
0.4215463697910309 0.1376342475414276 0.5150441527366638
0.4876626133918762 0.11424347758293152 0.5728842616081238
0.4753537178039551 0.25300249457359314 0.5076279044151306
0.429920494556427 0.15373589098453522 0.4634772837162018
0.4668031632900238 0.1333368420600891 0.5964691042900085
0.4460633397102356 0.15363654494285583 0.4308996796607971
0.4418298900127411 0.09962078183889389 0.44838547706604004
0.38951605558395386 0.15504217147827148 0.4502667784690857
0.49361637234687805 0.13472740352153778 0.573386013507843
0.42432674765586853 0.18544569611549377 0.4345570504665375
0.505305826663971 0.1697710007429123 0.443601131439209
0.4917304813861847 0.15457984805107117 0.4141189455986023
0.3577948212623596 0.11126751452684402 0.49379265308380127
0.4446578025817871 0.21328940987586975 0.4815939664840698
0.4467853307723999 0.15521758794784546 0.4704403579235077
0.3435805141925812 0.1650729477405548 0.5943059325218201
0.47738152742385864 0.2448001354932785 0.4637352526187897
0.3915754556655884 0.12706178426742554 0.5281237959861755
0.421107679605484 0.14764608442783356 0.4426063299179077
0.4207669794559479 0.09764807671308517 0.529005765914917
0.47327306866645813 0.18605783581733704 0.49611854553222656
0.3853788375854492 0.11386208236217499 0.523151159286499
0.4864780902862549 0.19181831181049347 0.5829164385795593
0.4337148070335388 0.1744707077741623 0.6048186421394348
0.5640413761138916 0.13674864172935486 0.5092414617538452
0.5288702845573425 0.13931189477443695 0.6047270894050598
0.4858357310295105 0.13169994950294495 0.4814630150794983
0.3034209907054901 0.13594606518745422 0.54892498254776
0.4983285665512085 0.17785167694091797 0.5993639826774597
0.5483570098876953 0.1511419266462326 0.4161307215690613
0.44745299220085144 0.174522265791893 0.5259137749671936
0.3205452859401703 0.13587404787540436 0.5306715965270996
0.41745445132255554 0.10119040310382843 0.5681783556938171
0.44345518946647644 0.10904841125011444 0.42231717705726624
0.42498502135276794 0.11640427261590958 0.44925427436828613
0.46331003308296204 0.16142310202121735 0.5188221335411072
0.33274418115615845 0.19678907096385956 0.4248833656311035
0.41572973132133484 0.1529891937971115 0.4720960855484009
0.42041876912117004 0.18588042259216309 0.48130151629447937
0.4581092894077301 0.1284700483083725 0.5284674167633057
0.49485477805137634 0.1793052852153778 0.4808070659637451
0.5031409859657288 0.12521708011627197 0.43517041206359863
0.31589239835739136 0.16137607395648956 0.5093465447425842
0.49874264001846313 0.22318045794963837 0.4553717076778412
0.4914611279964447 0.14267155528068542 0.5603035092353821
0.4374910295009613 0.10575014352798462 0.3807357847690582
0.46744072437286377 0.2557998299598694 0.5387508869171143
0.3655206263065338 0.1523158997297287 0.41464078426361084
0.3859807252883911 0.16318880021572113 0.5889569520950317
0.40253886580467224 0.13648270070552826 0.46018099784851074
0.3742632567882538 0.11329083889722824 0.42581072449684143
0.568463146686554 0.13466905057430267 0.5667581558227539
0.31411102414131165 0.16809804737567902 0.4533804953098297
0.43769019842147827 0.21101804077625275 0.4435481131076813
0.509914219379425 0.15603795647621155 0.5540028214454651
0.49181681871414185 0.14109349250793457 0.5960692167282104
0.4814550280570984 0.22054830193519592 0.5399267077445984
0.3901686668395996 0.10107706487178802 0.5413935780525208
0.3195289075374603 0.1526656150817871 0.47168847918510437
0.4542674422264099 0.23869146406650543 0.45138874650001526
0.5371909737586975 0.1835738867521286 0.422245055437088
0.46110689640045166 0.11798062920570374 0.49174556136131287
0.4043305516242981 0.23617102205753326 0.4199567139148712
0.4395327866077423 0.15048521757125854 0.5431770086288452
0.4349824786186218 0.1938316375017166 0.5642285346984863
0.41392359137535095 0.24221280217170715 0.5714365243911743
0.5429434180259705 0.11543424427509308 0.5619602203369141
0.43879052996635437 0.12273544073104858 0.5977221727371216
0.48351943492889404 0.18673956394195557 0.45663368701934814
0.48014676570892334 0.12425112724304199 0.4295211434364319
0.35930201411247253 0.1692349761724472 0.4010544717311859
0.4579264223575592 0.12590213119983673 0.6024512052536011
0.3569442927837372 0.21009236574172974 0.45942509174346924
0.45102939009666443 0.23000246286392212 0.47601884603500366
0.33201974630355835 0.12417120486497879 0.47334179282188416
0.49706605076789856 0.14636743068695068 0.5292571187019348
0.5572356581687927 0.13305608928203583 0.49986788630485535
0.3745597302913666 0.20025627315044403 0.4256308972835541
0.4518612325191498 0.11041057109832764 0.5179994702339172
0.5131914019584656 0.1210150346159935 0.40576106309890747
0.38727903366088867 0.14668333530426025 0.5397377610206604
0.5636481642723083 0.13843263685703278 0.4821401834487915
0.40586763620376587 0.09937573969364166 0.5665525794029236
0.3238358795642853 0.17763912677764893 0.530704140663147
0.5488993525505066 0.1324271708726883 0.457407683134079
0.4032604992389679 0.1992470622062683 0.5868794918060303
0.453300803899765 0.20025235414505005 0.5823478698730469
0.4426724314689636 0.14162065088748932 0.5390084981918335
0.5196555852890015 0.16655392944812775 0.580314576625824
0.46474915742874146 0.2076367884874344 0.6147239804267883
0.4434554874897003 0.15977129340171814 0.5252445936203003
0.5479173064231873 0.1753460317850113 0.4812280535697937
0.49760445952415466 0.16024954617023468 0.5733262896537781
0.45748141407966614 0.2718646228313446 0.5361577868461609
0.42118972539901733 0.11638578027486801 0.4269447922706604
0.34539955854415894 0.13527438044548035 0.45590776205062866
0.48183950781822205 0.26429250836372375 0.4339597225189209
0.5415999293327332 0.14975468814373016 0.56113201379776
0.37785452604293823 0.19539840519428253 0.5768755674362183
0.44535404443740845 0.2065316140651703 0.4694671630859375
0.47010698914527893 0.21762214601039886 0.5579481720924377
0.43238601088523865 0.11911432445049286 0.595390796661377
0.38723060488700867 0.14800213277339935 0.48125869035720825
0.3279230296611786 0.14385724067687988 0.5016175508499146
0.452628493309021 0.14815135300159454 0.48537778854370117
0.3872474431991577 0.175185889005661 0.5985613465309143
0.5443764925003052 0.1185552179813385 0.48186635971069336
0.4358484447002411 0.15831030905246735 0.4374256730079651
0.39952051639556885 0.16600172221660614 0.5322997570037842
0.4580318033695221 0.19252796471118927 0.5253620743751526
0.5411204695701599 0.16890458762645721 0.4513237178325653
0.3472942113876343 0.1282176971435547 0.3899533748626709
0.38730335235595703 0.10455761104822159 0.5510717630386353
0.5100919008255005 0.15114498138427734 0.4821414351463318
0.36791500449180603 0.11085209995508194 0.5745559930801392
0.43651387095451355 0.10776562988758087 0.5376020669937134
0.43574121594429016 0.2263890951871872 0.5009678602218628
0.39140570163726807 0.18269433081150055 0.6029348969459534
0.5323576331138611 0.19280871748924255 0.5636760592460632
0.5507842898368835 0.17756882309913635 0.4397611916065216
0.5435565710067749 0.14582569897174835 0.49118220806121826
0.4917934536933899 0.134206160902977 0.47068163752555847
0.3679598271846771 0.14008522033691406 0.5900482535362244
0.3606649339199066 0.1542934626340866 0.5249611139297485
0.3174532949924469 0.1614236831665039 0.5105931162834167
0.32015150785446167 0.13601943850517273 0.4570156931877136
0.5648572444915771 0.14891524612903595 0.4973655939102173
0.4815998077392578 0.1618431955575943 0.45564597845077515
0.35269272327423096 0.10766980797052383 0.5905541777610779
0.41392359137535095 0.24221280217170715 0.5714365243911743
0.5429434180259705 0.11543424427509308 0.5619602203369141
0.43879052996635437 0.12273544073104858 0.5977221727371216
0.48351943492889404 0.18673956394195557 0.45663368701934814
0.48014676570892334 0.12425112724304199 0.4295211434364319
0.35930201411247253 0.1692349761724472 0.4010544717311859
0.4579264223575592 0.12590213119983673 0.6024512052536011
0.3569442927837372 0.21009236574172974 0.45942509174346924
0.45102939009666443 0.23000246286392212 0.47601884603500366
0.33201974630355835 0.12417120486497879 0.47334179282188416
0.49706605076789856 0.14636743068695068 0.5292571187019348
0.5572356581687927 0.13305608928203583 0.49986788630485535
0.3745597302913666 0.20025627315044403 0.4256308972835541
0.5343900322914124 0.14166240394115448 0.4652387797832489
0.4379674792289734 0.10622390359640121 0.5662894248962402
0.42531636357307434 0.25449255108833313 0.6144362092018127
0.3142802119255066 0.16160458326339722 0.5693633556365967
0.4860677719116211 0.20270252227783203 0.5090492963790894
0.5390039086341858 0.12703396379947662 0.4693964719772339
0.3596034646034241 0.12474014610052109 0.45910319685935974
0.47166907787323 0.2560335099697113 0.4558514654636383
0.4076128900051117 0.1534237265586853 0.5442646145820618
0.4762588143348694 0.19447843730449677 0.600299060344696
0.39135685563087463 0.15814201533794403 0.46499112248420715
0.47761356830596924 0.18178533017635345 0.6023416519165039
0.36923402547836304 0.16392263770103455 0.508507251739502
0.4952356815338135 0.11859025806188583 0.5211228132247925
0.4696463942527771 0.24594923853874207 0.4697057604789734
0.41392359137535095 0.24221280217170715 0.5714365243911743
0.5429434180259705 0.11543424427509308 0.5619602203369141
0.43879052996635437 0.12273544073104858 0.5977221727371216
0.48351943492889404 0.18673956394195557 0.45663368701934814
0.48014676570892334 0.12425112724304199 0.4295211434364319
0.35930201411247253 0.1692349761724472 0.4010544717311859
0.4579264223575592 0.12590213119983673 0.6024512052536011
0.3569442927837372 0.21009236574172974 0.45942509174346924
0.45102939009666443 0.23000246286392212 0.47601884603500366
0.33201974630355835 0.12417120486497879 0.47334179282188416
0.49706605076789856 0.14636743068695068 0.5292571187019348
0.5572356581687927 0.13305608928203583 0.49986788630485535
0.3745597302913666 0.20025627315044403 0.4256308972835541
0.43898043036460876 0.15990696847438812 0.4381396472454071
0.49496451020240784 0.1120833083987236 0.49994322657585144
0.3237099349498749 0.15056723356246948 0.5627918839454651
0.5604219436645508 0.13437145948410034 0.4745766520500183
0.45223864912986755 0.2732614278793335 0.4733361303806305
0.4876626133918762 0.11424347758293152 0.5728842616081238
0.4753537178039551 0.25300249457359314 0.5076279044151306
0.429920494556427 0.15373589098453522 0.4634772837162018
0.4668031632900238 0.1333368420600891 0.5964691042900085
0.4460633397102356 0.15363654494285583 0.4308996796607971
0.4418298900127411 0.09962078183889389 0.44838547706604004
0.38951605558395386 0.15504217147827148 0.4502667784690857
0.49812978506088257 0.20245546102523804 0.5583311915397644
0.30548855662345886 0.149864062666893 0.45571836829185486
0.38052141666412354 0.12520809471607208 0.5190065503120422
0.44051557779312134 0.11209296435117722 0.5212146639823914
0.40863755345344543 0.09930062294006348 0.5099378824234009
0.46275362372398376 0.15215261280536652 0.4474797248840332
0.5463376045227051 0.14840209484100342 0.4572015106678009
0.5583757162094116 0.12779583036899567 0.44116541743278503
0.4799756109714508 0.21221287548542023 0.4567672610282898
0.44209468364715576 0.15753833949565887 0.5536510944366455
0.4634475111961365 0.19561277329921722 0.4328348934650421
0.3489404618740082 0.1955173909664154 0.5561493635177612
0.44818052649497986 0.27149203419685364 0.548186719417572
0.43580392003059387 0.10257691144943237 0.4077546298503876
0.5091622471809387 0.16090001165866852 0.60917729139328
0.41364434361457825 0.23957842588424683 0.459342896938324
0.46034833788871765 0.12109019607305527 0.45737123489379883
0.36375710368156433 0.18560750782489777 0.5566001534461975
0.43942156434059143 0.14429225027561188 0.49093204736709595
0.37051576375961304 0.14329199492931366 0.4509653151035309
0.48542696237564087 0.18715916574001312 0.4209599792957306
0.5270243287086487 0.19539086520671844 0.5861832499504089
0.42170339822769165 0.19691045582294464 0.504665732383728
0.44729796051979065 0.17011195421218872 0.46503695845603943
0.3238358795642853 0.17763912677764893 0.530704140663147
0.46650344133377075 0.11156118661165237 0.5583171248435974
0.40878355503082275 0.21471697092056274 0.5995200872421265
0.5081538558006287 0.13548138737678528 0.45544272661209106
0.3744465112686157 0.13102763891220093 0.5165011882781982
0.3486461341381073 0.1740737408399582 0.4494011402130127
0.4751255512237549 0.13190694153308868 0.4329192340373993
0.4767896831035614 0.15768957138061523 0.606478214263916
0.468562513589859 0.15777043998241425 0.6103456616401672
0.5611736178398132 0.14010797441005707 0.575404703617096
0.37221086025238037 0.18795327842235565 0.46686112880706787
0.32750049233436584 0.14908555150032043 0.5808789730072021
0.45194676518440247 0.1022660881280899 0.5919744968414307
0.44705796241760254 0.17088273167610168 0.5369543433189392
0.544882595539093 0.16859778761863708 0.47689273953437805
0.5667680501937866 0.14689470827579498 0.5401358604431152
0.45617425441741943 0.10932669043540955 0.4710974097251892
0.3068495988845825 0.17002525925636292 0.457544207572937
0.43580392003059387 0.10257691144943237 0.4077546298503876
0.5091622471809387 0.16090001165866852 0.60917729139328
0.41364434361457825 0.23957842588424683 0.459342896938324
0.4121344983577728 0.12447842210531235 0.4341070353984833
0.3570699095726013 0.12447135150432587 0.49787548184394836
0.5545647740364075 0.13574843108654022 0.491061270236969
0.3577112853527069 0.18806146085262299 0.5310643911361694
0.4942895770072937 0.18593209981918335 0.4803822338581085
0.4421638250350952 0.11787804961204529 0.48106756806373596
0.504403829574585 0.10825028270483017 0.6136286854743958
0.44729796051979065 0.17011195421218872 0.46503695845603943
0.3734995126724243 0.11286111176013947 0.5388445258140564
0.49337074160575867 0.17699255049228668 0.5125570893287659
0.42214247584342957 0.18620522320270538 0.5092111825942993
0.5488993525505066 0.1324271708726883 0.457407683134079
0.40878355503082275 0.21471697092056274 0.5995200872421265
0.5081538558006287 0.13548138737678528 0.45544272661209106
0.3744465112686157 0.13102763891220093 0.5165011882781982
0.3486461341381073 0.1740737408399582 0.4494011402130127
0.4751255512237549 0.13190694153308868 0.4329192340373993
0.4767896831035614 0.15768957138061523 0.606478214263916
0.3314334750175476 0.14880257844924927 0.42144498229026794
0.37221086025238037 0.18795327842235565 0.46686112880706787
0.32750049233436584 0.14908555150032043 0.5808789730072021
0.45194676518440247 0.1022660881280899 0.5919744968414307
0.32788917422294617 0.13663165271282196 0.5386326313018799
0.3889771103858948 0.16241523623466492 0.43629997968673706
0.3082147538661957 0.14907407760620117 0.5707087516784668
0.43580392003059387 0.10257691144943237 0.4077546298503876
0.5091622471809387 0.16090001165866852 0.60917729139328
0.41364434361457825 0.23957842588424683 0.459342896938324
0.46034833788871765 0.12109019607305527 0.45737123489379883
0.4603484272956848 0.12109013646841049 0.45737138390541077
0.5545647740364075 0.13574843108654022 0.491061270236969
0.3577112853527069 0.18806146085262299 0.5310643911361694
0.4942895770072937 0.18593209981918335 0.4803822338581085
0.39715540409088135 0.2197062224149704 0.5500379800796509
0.5270243287086487 0.19539086520671844 0.5861832499504089
0.504403829574585 0.10825028270483017 0.6136286854743958
0.3330553472042084 0.11827883869409561 0.5291576385498047
0.3734995126724243 0.11286111176013947 0.5388445258140564
0.42214247584342957 0.18620522320270538 0.5092111825942993
0.475883424282074 0.11259451508522034 0.4469691216945648
0.4139247238636017 0.16583730280399323 0.44256263971328735
0.4960591793060303 0.12193556129932404 0.42826199531555176
0.49426135420799255 0.23968498408794403 0.4866783618927002
0.5479173064231873 0.1753460317850113 0.4812280535697937
0.5283420085906982 0.177582249045372 0.5229308605194092
0.4878266453742981 0.1923474222421646 0.534679651260376
0.46876204013824463 0.16221758723258972 0.5535427331924438
0.3881022036075592 0.22156494855880737 0.5089658498764038
0.4093087911605835 0.2378028780221939 0.44675448536872864
0.4483208954334259 0.17433221638202667 0.5865628123283386
0.49962371587753296 0.216124027967453 0.5622990131378174
0.49639949202537537 0.11672575771808624 0.42658358812332153
0.46502432227134705 0.25906819105148315 0.4457431137561798
0.3278786838054657 0.14934183657169342 0.447782427072525
0.39077118039131165 0.20685365796089172 0.4877256453037262
0.4789881706237793 0.10904643684625626 0.4775853753089905
0.4661901593208313 0.1377277821302414 0.48441874980926514
0.4346081614494324 0.1005130261182785 0.5289936661720276
0.48594143986701965 0.15106870234012604 0.6051222085952759
0.3879461884498596 0.18796104192733765 0.5134700536727905
0.38127318024635315 0.21469680964946747 0.4646638333797455
0.36873969435691833 0.11011651903390884 0.5319803357124329
0.41777557134628296 0.11264738440513611 0.49948158860206604
0.33946719765663147 0.1487845778465271 0.5717788934707642
0.4279496669769287 0.12114698439836502 0.41424164175987244
0.41596001386642456 0.14196598529815674 0.5556058287620544
0.5310388207435608 0.1842908263206482 0.5357089638710022
0.42295655608177185 0.0989280641078949 0.43677961826324463
0.36264005303382874 0.13214068114757538 0.5117583870887756
0.355394572019577 0.1552758365869522 0.471762090921402
0.3722835183143616 0.11882014572620392 0.5915077328681946
0.5102687478065491 0.1429574340581894 0.5989207625389099
0.36123815178871155 0.17149212956428528 0.5228899121284485
0.47465187311172485 0.2515987157821655 0.5428175330162048
0.33660855889320374 0.14315256476402283 0.5768691897392273
0.40878355503082275 0.21471697092056274 0.5995200872421265
0.3160671293735504 0.1654045432806015 0.4865424633026123
0.42479580640792847 0.1871548295021057 0.43368011713027954
0.343776673078537 0.12450919300317764 0.477251797914505
0.46523499488830566 0.27749502658843994 0.430993914604187
0.43588846921920776 0.18523822724819183 0.44083794951438904
0.4586668312549591 0.15430514514446259 0.48095789551734924
0.456247478723526 0.1105768233537674 0.46662554144859314
0.4367019534111023 0.10189273953437805 0.46135756373405457
0.47035837173461914 0.20423667132854462 0.5554558038711548
0.503758430480957 0.15421999990940094 0.5087910294532776
0.41666379570961 0.20753470063209534 0.5208688378334045
0.4754669666290283 0.10919182002544403 0.3890189230442047
0.3769073188304901 0.11008115857839584 0.5131210684776306
0.38316622376441956 0.12286622822284698 0.5934363007545471
0.4969332814216614 0.17404133081436157 0.5131664872169495
0.5344105958938599 0.12811315059661865 0.5752597451210022
0.3836081624031067 0.13867852091789246 0.4894754886627197
0.4312727451324463 0.11266737431287766 0.48012876510620117
0.33912795782089233 0.19405034184455872 0.5061778426170349
0.4811500608921051 0.23493844270706177 0.5960403084754944
0.4846712648868561 0.15805016458034515 0.45686012506484985
0.4956284463405609 0.11699157953262329 0.5785069465637207
0.4717906713485718 0.19501402974128723 0.6015315055847168
0.41515547037124634 0.24120233952999115 0.4934859275817871
0.4292222559452057 0.10786982625722885 0.593502402305603
0.4723074436187744 0.25003063678741455 0.551601231098175
0.4801514148712158 0.1367986649274826 0.5988595485687256
0.4993816614151001 0.13796132802963257 0.5086280703544617
0.43924519419670105 0.22200237214565277 0.4526430368423462
0.41219109296798706 0.22007867693901062 0.567340075969696
0.5094249844551086 0.1452762484550476 0.5688134431838989
0.49496451020240784 0.1120833083987236 0.49994322657585144
0.49150484800338745 0.11433836072683334 0.5104798078536987
0.38691383600234985 0.14259041845798492 0.5606057047843933
0.5283420085906982 0.177582249045372 0.5229308605194092
0.4878266453742981 0.1923474222421646 0.534679651260376
0.46876204013824463 0.16221758723258972 0.5535427331924438
0.3881022036075592 0.22156494855880737 0.5089658498764038
0.4093087911605835 0.2378028780221939 0.44675448536872864
0.4483208954334259 0.17433221638202667 0.5865628123283386
0.49962371587753296 0.216124027967453 0.5622990131378174
0.49639949202537537 0.11672575771808624 0.42658358812332153
0.46502432227134705 0.25906819105148315 0.4457431137561798
0.3278786838054657 0.14934183657169342 0.447782427072525
0.39077118039131165 0.20685365796089172 0.4877256453037262
0.4789881706237793 0.10904643684625626 0.4775853753089905
0.4390827715396881 0.1237466111779213 0.5898892283439636
0.5199667811393738 0.11818587779998779 0.5541222095489502
0.3359365165233612 0.1516217589378357 0.5936046838760376
0.41637179255485535 0.1157611533999443 0.5064030289649963
0.33254313468933105 0.14910157024860382 0.3994929790496826
0.4643283486366272 0.2605626881122589 0.5347580909729004
0.4303548038005829 0.10316968709230423 0.40193840861320496
0.4576607644557953 0.191114142537117 0.4671785533428192
0.4685992896556854 0.12880107760429382 0.5680536031723022
0.48836666345596313 0.158554807305336 0.40940189361572266
0.4232320785522461 0.22091993689537048 0.5799386501312256
0.480239599943161 0.27001696825027466 0.4335291385650635
0.44461360573768616 0.2291896492242813 0.5720664858818054
0.4375588893890381 0.10056369006633759 0.43158265948295593
0.34475281834602356 0.17028209567070007 0.4065912961959839
0.44342032074928284 0.21074384450912476 0.5890145897865295
0.40981900691986084 0.12414045631885529 0.5111170411109924
0.3237099349498749 0.15056723356246948 0.5627918839454651
0.456247478723526 0.1105768233537674 0.46662554144859314
0.4367019534111023 0.10189273953437805 0.46135756373405457
0.47035837173461914 0.20423667132854462 0.5554558038711548
0.503758430480957 0.15421999990940094 0.5087910294532776
0.41666379570961 0.20753470063209534 0.5208688378334045
0.4754669666290283 0.10919182002544403 0.3890189230442047
0.3769073188304901 0.11008115857839584 0.5131210684776306
0.38316622376441956 0.12286622822284698 0.5934363007545471
0.4969332814216614 0.17404133081436157 0.5131664872169495
0.5053789019584656 0.17283889651298523 0.46204790472984314
0.5345988273620605 0.1283133178949356 0.5749990940093994
0.3578294813632965 0.11516783386468887 0.48338934779167175
0.43955111503601074 0.09874097257852554 0.5999808311462402
0.4578409790992737 0.14226806163787842 0.512157142162323
0.4674372971057892 0.22888346016407013 0.48420462012290955
0.4668968915939331 0.25318923592567444 0.46275806427001953
0.3326355814933777 0.14906218647956848 0.5140082240104675
0.4956284463405609 0.11699157953262329 0.5785069465637207
0.4717906713485718 0.19501402974128723 0.6015315055847168
0.41515547037124634 0.24120233952999115 0.4934859275817871
0.4292222559452057 0.10786982625722885 0.593502402305603
0.4723074436187744 0.25003063678741455 0.551601231098175
0.4801514148712158 0.1367986649274826 0.5988595485687256
0.4993816614151001 0.13796132802963257 0.5086280703544617
0.4058431088924408 0.11552167683839798 0.536004900932312
0.39695003628730774 0.19578659534454346 0.5824607014656067
0.41219109296798706 0.22007867693901062 0.567340075969696
0.5094249844551086 0.1452762484550476 0.5688134431838989
0.34840208292007446 0.15945900976657867 0.5796166658401489
0.43578875064849854 0.25711244344711304 0.6137303113937378
0.3612569570541382 0.21341311931610107 0.49491140246391296
0.5572356581687927 0.13305608928203583 0.49986788630485535
0.456247478723526 0.1105768233537674 0.46662554144859314
0.503758430480957 0.15421999990940094 0.5087910294532776
0.41666379570961 0.20753470063209534 0.5208688378334045
0.4754669666290283 0.10919182002544403 0.3890189230442047
0.3769073188304901 0.11008115857839584 0.5131210684776306
0.38316622376441956 0.12286622822284698 0.5934363007545471
0.5053789019584656 0.17283889651298523 0.46204790472984314
0.5345988273620605 0.1283133178949356 0.5749990940093994
0.3578294813632965 0.11516783386468887 0.48338934779167175
0.43955111503601074 0.09874097257852554 0.5999808311462402
0.4578409790992737 0.14226806163787842 0.512157142162323
0.4674372971057892 0.22888346016407013 0.48420462012290955
0.4668968915939331 0.25318923592567444 0.46275806427001953
0.3326355814933777 0.14906218647956848 0.5140082240104675
0.5090251564979553 0.12256889790296555 0.4914872944355011
0.4004611372947693 0.23082266747951508 0.5090630650520325
0.3495387136936188 0.12151634693145752 0.5913263559341431
0.42103761434555054 0.13131503760814667 0.5280181169509888
0.31689637899398804 0.13666634261608124 0.4760613441467285
0.4105948209762573 0.1881573498249054 0.5470813512802124
0.4961561858654022 0.1145334541797638 0.590090274810791
0.43419578671455383 0.1696830838918686 0.5085617899894714
0.5253156423568726 0.11246336996555328 0.4711061418056488
0.41219109296798706 0.22007867693901062 0.567340075969696
0.5094249844551086 0.1452762484550476 0.5688134431838989
0.34840208292007446 0.15945900976657867 0.5796166658401489
0.43578875064849854 0.25711244344711304 0.6137303113937378
0.3612569570541382 0.21341311931610107 0.49491140246391296
0.5084179043769836 0.15928232669830322 0.4629492163658142
0.4457152485847473 0.10043957829475403 0.47087156772613525
0.4331929683685303 0.14945319294929504 0.5947005152702332
0.3430853486061096 0.19063983857631683 0.4043337404727936
0.49962371587753296 0.216124027967453 0.5622990131378174
0.49639949202537537 0.11672575771808624 0.42658358812332153
0.46502432227134705 0.25906819105148315 0.4457431137561798
0.3278786838054657 0.14934183657169342 0.447782427072525
0.39077118039131165 0.20685365796089172 0.4877256453037262
0.4789881706237793 0.10904643684625626 0.4775853753089905
0.4661901593208313 0.1377277821302414 0.48441874980926514
0.4346081614494324 0.1005130261182785 0.5289936661720276
0.48594143986701965 0.15106870234012604 0.6051222085952759
0.4297516345977783 0.11221936345100403 0.44001707434654236
0.4292605221271515 0.20744730532169342 0.5740235447883606
0.4764592945575714 0.11479924619197845 0.569656252861023
0.4313686192035675 0.12883436679840088 0.4095305800437927
0.38700050115585327 0.10653644055128098 0.4611436426639557
0.3650130033493042 0.20364491641521454 0.4270237982273102
0.36574774980545044 0.1690322309732437 0.4203912615776062
0.38053542375564575 0.1593070775270462 0.5561457872390747
0.4928010404109955 0.1170298308134079 0.49732038378715515
0.4971909523010254 0.1499263495206833 0.46568819880485535
0.4861038625240326 0.23536759614944458 0.5232981443405151
0.4672890305519104 0.17865119874477386 0.4747200906276703
0.4424998462200165 0.17584560811519623 0.46263816952705383
0.523769199848175 0.14825652539730072 0.4428772032260895
0.353259414434433 0.1171293631196022 0.5173001289367676
0.5176202654838562 0.15328475832939148 0.49167877435684204
0.46116122603416443 0.25892454385757446 0.4525805413722992
0.27886268496513367 0.15050636231899261 0.5816895961761475
0.42337116599082947 0.11246198415756226 0.592889666557312
0.5303691029548645 0.13407394289970398 0.5474302768707275
0.40231654047966003 0.11036118865013123 0.5771904587745667
0.35818442702293396 0.18841882050037384 0.5317116975784302
0.43898043036460876 0.15990696847438812 0.4381396472454071
0.4661901593208313 0.1377277821302414 0.48441874980926514
0.4346081614494324 0.1005130261182785 0.5289936661720276
0.48594143986701965 0.15106870234012604 0.6051222085952759
0.3879461884498596 0.18796104192733765 0.5134700536727905
0.38127318024635315 0.21469680964946747 0.4646638333797455
0.36873969435691833 0.11011651903390884 0.5319803357124329
0.41777557134628296 0.11264738440513611 0.49948158860206604
0.33946719765663147 0.1487845778465271 0.5717788934707642
0.4279496669769287 0.12114698439836502 0.41424164175987244
0.41596001386642456 0.14196598529815674 0.5556058287620544
0.5310388207435608 0.1842908263206482 0.5357089638710022
0.42295655608177185 0.0989280641078949 0.43677961826324463
0.36264005303382874 0.13214068114757538 0.5117583870887756
0.355394572019577 0.1552758365869522 0.471762090921402
0.38395029306411743 0.12125539034605026 0.5128876566886902
0.4754693806171417 0.23811176419258118 0.4352322518825531
0.44296330213546753 0.24234646558761597 0.5795958042144775
0.44577911496162415 0.11774607002735138 0.46055611968040466
0.4750106930732727 0.24143074452877045 0.4859105348587036
0.45019546151161194 0.13252894580364227 0.5259622931480408
0.4026950001716614 0.1890464425086975 0.5878358483314514
0.4376339018344879 0.25358420610427856 0.4526239335536957
0.4645048677921295 0.27653592824935913 0.46100524067878723
0.367704838514328 0.20720094442367554 0.5264695286750793
0.46129029989242554 0.11584529280662537 0.43209147453308105
0.40770745277404785 0.16240788996219635 0.6045435070991516
0.4576604962348938 0.16680502891540527 0.5700426697731018
0.4577590525150299 0.14553220570087433 0.49157464504241943
0.42514219880104065 0.1382819563150406 0.4180045425891876
0.49442166090011597 0.11172895133495331 0.5788178443908691
0.43368881940841675 0.14372135698795319 0.48576629161834717
0.43898043036460876 0.15990696847438812 0.4381396472454071
0.4013768136501312 0.12443584203720093 0.5382010340690613
0.3586985766887665 0.21151100099086761 0.5382216572761536
0.336281955242157 0.13569320738315582 0.5004912614822388
0.46912798285484314 0.24836863577365875 0.5425170063972473
0.4236871302127838 0.0984049141407013 0.49883416295051575
0.452504962682724 0.14325262606143951 0.4615946114063263
0.5566694736480713 0.17823590338230133 0.45813682675361633
0.34258925914764404 0.19100172817707062 0.5248140692710876
0.43346792459487915 0.10162284225225449 0.5639779567718506
0.40981900691986084 0.12414045631885529 0.5111170411109924
0.4368106722831726 0.17199788987636566 0.6105251908302307
0.4755207896232605 0.2128395140171051 0.42856070399284363
0.5184672474861145 0.12258318811655045 0.6001067757606506
0.41594570875167847 0.102381631731987 0.5196059346199036
0.479618102312088 0.10332462191581726 0.5714969038963318
0.4980625510215759 0.21527442336082458 0.6099970936775208
0.3818577826023102 0.11565101146697998 0.48737698793411255
0.4248600900173187 0.1270686388015747 0.5543732047080994
0.5072276592254639 0.11662837862968445 0.3986563980579376
0.4182640314102173 0.15675915777683258 0.5990594625473022
0.42640674114227295 0.1214945837855339 0.4900273084640503
0.4847099184989929 0.10786230862140656 0.5300013422966003
0.5660874843597412 0.15574173629283905 0.4636369049549103
0.394924134016037 0.11325927823781967 0.4842032790184021
0.3188678026199341 0.1327526867389679 0.4747869670391083
0.44703829288482666 0.10070085525512695 0.5334426760673523
0.43079715967178345 0.11029960960149765 0.5893869400024414
0.3984200358390808 0.14034299552440643 0.4060409963130951
0.3888733983039856 0.1205657497048378 0.5074588656425476
0.4178118407726288 0.16700728237628937 0.55101078748703
0.4117327034473419 0.10255870968103409 0.4726601839065552
0.49496451020240784 0.1120833083987236 0.49994322657585144
0.45190733671188354 0.24157476425170898 0.5737544298171997
0.42144694924354553 0.2282320111989975 0.5046569108963013
