ply
format ascii 1.0
element vertex 824
property float x
property float y
property float z
end_header
0.5562114715576172 0.15972624719142914 0.5349680781364441
0.508312463760376 0.1519894003868103 0.4930894672870636
0.4549119770526886 0.11088794469833374 0.40427762269973755
0.4087069630622864 0.10944629460573196 0.4742456376552582
0.34171193838119507 0.16269712150096893 0.5192269086837769
0.466413289308548 0.21485991775989532 0.4237799048423767
0.4765914976596832 0.2136405110359192 0.5260452032089233
0.4061295986175537 0.19562798738479614 0.5289662480354309
0.5296026468276978 0.15872722864151 0.47386500239372253
0.41208356618881226 0.16207443177700043 0.5483359098434448
0.5133957862854004 0.17205867171287537 0.5243239998817444
0.442534476518631 0.12779855728149414 0.4326236844062805
0.3510836660861969 0.1336938589811325 0.585774302482605
0.3891045153141022 0.15678751468658447 0.44667381048202515
0.4533715844154358 0.10438837856054306 0.4290124773979187
0.5186398029327393 0.1767786294221878 0.5520932674407959
0.5381914377212524 0.15820161998271942 0.5758160352706909
0.48273974657058716 0.12829947471618652 0.3960532248020172
0.4613897502422333 0.10980353504419327 0.4674330949783325
0.42772606015205383 0.20003663003444672 0.6012705564498901
0.4840531647205353 0.16026854515075684 0.54269939661026
0.38804328441619873 0.17915639281272888 0.5591107606887817
0.4884342849254608 0.15754635632038116 0.4383050501346588
0.3559018671512604 0.1283123791217804 0.5488893985748291
0.36410653591156006 0.17272797226905823 0.5019400119781494
0.5675557851791382 0.13676311075687408 0.41375744342803955
0.4009830057621002 0.1527884602546692 0.5167957544326782
0.4823164939880371 0.11176668852567673 0.4961599111557007
0.3746766448020935 0.1635476052761078 0.5364895462989807
0.3651421070098877 0.1408216655254364 0.5536551475524902
0.43897682428359985 0.2220533937215805 0.516059935092926
0.432723730802536 0.10668472200632095 0.600360095500946
0.469318151473999 0.18368558585643768 0.4831927418708801
0.4235493540763855 0.18359507620334625 0.4419780671596527
0.48731276392936707 0.15415003895759583 0.5158572196960449
0.4285633862018585 0.16424597799777985 0.4060128927230835
0.48456960916519165 0.10633520781993866 0.45063021779060364
0.3446979224681854 0.1514870971441269 0.40137627720832825
0.40918511152267456 0.1784513294696808 0.48992690443992615
0.5264543294906616 0.14260895550251007 0.49083200097084045
0.5554295182228088 0.16784293949604034 0.49790990352630615
0.4846230447292328 0.15791338682174683 0.5022717118263245
0.5026039481163025 0.14673861861228943 0.526600182056427
0.4943334460258484 0.12472233921289444 0.45954447984695435
0.41196155548095703 0.10824082791805267 0.5778236389160156
0.38273870944976807 0.12357884645462036 0.5103851556777954
0.3623257875442505 0.14531578123569489 0.40863198041915894
0.5192919373512268 0.13761653006076813 0.5919927954673767
0.5579264163970947 0.1620556265115738 0.4665711522102356
0.35051441192626953 0.18863974511623383 0.5293338894844055
0.4470512270927429 0.15282537043094635 0.5846923589706421
0.48369911313056946 0.18916279077529907 0.4491613805294037
0.41919949650764465 0.20582713186740875 0.59842449426651
0.36988991498947144 0.1839258372783661 0.4049702286720276
0.3930712044239044 0.1915753334760666 0.4405818581581116
0.461624413728714 0.24286994338035583 0.4554691016674042
0.4961599111557007 0.18374109268188477 0.4863288700580597
0.39155128598213196 0.12005525827407837 0.5045367479324341
0.48143282532691956 0.12448561936616898 0.507265031337738
0.47721847891807556 0.24923965334892273 0.430644690990448
0.5108699202537537 0.15475299954414368 0.5195613503456116
0.47162580490112305 0.21646223962306976 0.5973123908042908
0.37638059258461 0.16495303809642792 0.4436653256416321
0.4266383945941925 0.12210102379322052 0.43421730399131775
0.5716402530670166 0.15585777163505554 0.4733830988407135
0.443068265914917 0.18241433799266815 0.5071403384208679
0.4741266667842865 0.1565607339143753 0.5712352991104126
0.3623257875442505 0.14531578123569489 0.40863198041915894
0.36061856150627136 0.16137172281742096 0.5865169763565063
0.5707682371139526 0.1359848976135254 0.4360724687576294
0.3545888066291809 0.1765299290418625 0.405676007270813
0.3288273811340332 0.14557909965515137 0.5688581466674805
0.515310525894165 0.1766679883003235 0.48709896206855774
0.4223872125148773 0.12287698686122894 0.6013268232345581
0.4088039696216583 0.17889456450939178 0.5185208916664124
0.3960292637348175 0.12327682971954346 0.4784665107727051
0.46744757890701294 0.20539195835590363 0.4188823401927948
0.47117340564727783 0.11698790639638901 0.43399277329444885
0.5625587701797485 0.12797744572162628 0.4836902618408203
0.4594944715499878 0.20095530152320862 0.42456313967704773
0.39906907081604004 0.12916746735572815 0.467719167470932
0.5008784532546997 0.12167910486459732 0.5412425398826599
0.3516412079334259 0.15387021005153656 0.40295353531837463
0.5207182168960571 0.15532498061656952 0.4767983853816986
0.44461318850517273 0.17605626583099365 0.46220678091049194
0.5379788279533386 0.151554137468338 0.4585416615009308
0.5082360506057739 0.1660676747560501 0.4449445605278015
0.5091724991798401 0.14374858140945435 0.44617635011672974
0.3335309624671936 0.17261406779289246 0.43682724237442017
0.3924145996570587 0.11879274994134903 0.47196874022483826
0.3393382430076599 0.1483447402715683 0.4745515286922455
0.4246792197227478 0.09831859916448593 0.5036338567733765
0.4000040590763092 0.15683400630950928 0.5334812998771667
0.348717600107193 0.14611390233039856 0.418610155582428
0.4371953308582306 0.2169080376625061 0.5593592524528503
0.519730806350708 0.22771769762039185 0.4492071866989136
0.5476244688034058 0.15734347701072693 0.5739187002182007
0.4567658603191376 0.18300294876098633 0.5025348663330078
0.4817451238632202 0.10429023951292038 0.425358384847641
0.3952862322330475 0.1280483454465866 0.4584338665008545
0.5008784532546997 0.12167910486459732 0.5412425398826599
0.496407151222229 0.20914120972156525 0.5886011123657227
0.3637845516204834 0.12849615514278412 0.4339548349380493
0.48932892084121704 0.15349584817886353 0.49252671003341675
0.479751855134964 0.1832016110420227 0.553415834903717
0.4509584605693817 0.1636904925107956 0.48838624358177185
0.5358551144599915 0.17976272106170654 0.46461671590805054
0.4190206527709961 0.12171123176813126 0.4220590889453888
0.3492201566696167 0.12133652716875076 0.5470902323722839
0.38926446437835693 0.22280539572238922 0.6008891463279724
0.4179754853248596 0.15938594937324524 0.543212890625
0.48804235458374023 0.23705558478832245 0.5717426538467407
0.39911606907844543 0.2190532386302948 0.5885903835296631
0.4487953782081604 0.13003496825695038 0.4913421869277954
0.43637439608573914 0.19616888463497162 0.48772919178009033
0.5086025595664978 0.15568718314170837 0.46881622076034546
0.5689305067062378 0.14944088459014893 0.6230173110961914
0.48728764057159424 0.26779741048812866 0.461959570646286
0.5564343929290771 0.16678665578365326 0.46478867530822754
0.5705932378768921 0.1512073427438736 0.46415257453918457
0.4676569402217865 0.1526750922203064 0.5331437587738037
0.44767898321151733 0.23362360894680023 0.47152039408683777
0.45745211839675903 0.2535393238067627 0.4441746473312378
0.41856488585472107 0.12710580229759216 0.5966154932975769
0.4973503351211548 0.22474192082881927 0.45965227484703064
0.40472593903541565 0.10383442044258118 0.5857630968093872
0.3974737524986267 0.15398171544075012 0.4350089430809021
0.3447682857513428 0.1255839318037033 0.5568918585777283
0.563721776008606 0.15526042878627777 0.49945661425590515
0.32534947991371155 0.16615056991577148 0.44494491815567017
0.4166184365749359 0.16042664647102356 0.5260007977485657
0.4568132162094116 0.17977109551429749 0.5174379944801331
0.5254883766174316 0.11198894679546356 0.44035544991493225
0.470632404088974 0.23589269816875458 0.45362600684165955
0.49480172991752625 0.2256922572851181 0.547957718372345
0.516396164894104 0.15305495262145996 0.47059163451194763
0.4983479976654053 0.14226683974266052 0.5033345818519592
0.4347454905509949 0.18127910792827606 0.41422832012176514
0.36169472336769104 0.16350635886192322 0.5065058469772339
0.4325297772884369 0.15353676676750183 0.5786234140396118
0.4554460644721985 0.14707429707050323 0.5234853625297546
0.3459736108779907 0.19383597373962402 0.5412249565124512
0.4418904781341553 0.2553090751171112 0.4575750231742859
0.4337266683578491 0.1666567474603653 0.5992776155471802
0.38188448548316956 0.19655738770961761 0.47836050391197205
0.44330790638923645 0.24325616657733917 0.5569241046905518
0.5564343929290771 0.16678665578365326 0.46478867530822754
0.3972003757953644 0.1698828637599945 0.515544056892395
0.370821475982666 0.16486476361751556 0.44769349694252014
0.5204983949661255 0.15220113098621368 0.4581657350063324
0.3619533181190491 0.1173369511961937 0.4668325185775757
0.40564167499542236 0.12982332706451416 0.5118326544761658
0.48934412002563477 0.11822779476642609 0.5811612010002136
0.5091821551322937 0.188264399766922 0.58206707239151
0.46812453866004944 0.1584147810935974 0.4813782870769501
0.4578527808189392 0.20417074859142303 0.431281179189682
0.5460882186889648 0.16209080815315247 0.6032647490501404
0.47906625270843506 0.1025034561753273 0.48148757219314575
0.41190654039382935 0.12015384435653687 0.4143996238708496
0.3330066502094269 0.15808060765266418 0.4148346483707428
0.523321807384491 0.129709854722023 0.4866672158241272
0.5342618227005005 0.1197214275598526 0.5332444310188293
0.5164522528648376 0.21301935613155365 0.46119192242622375
0.44896000623703003 0.10718820989131927 0.41488268971443176
0.3637845516204834 0.12849615514278412 0.4339548349380493
0.44330790638923645 0.24325616657733917 0.5569241046905518
0.4509584605693817 0.1636904925107956 0.48838624358177185
0.5358551144599915 0.17976272106170654 0.46461671590805054
0.4190206527709961 0.12171123176813126 0.4220590889453888
0.3492201566696167 0.12133652716875076 0.5470902323722839
0.3910965323448181 0.1364137977361679 0.5510419011116028
0.48404911160469055 0.20197519659996033 0.42141348123550415
0.42711523175239563 0.12862728536128998 0.5423669219017029
0.40080544352531433 0.10869547724723816 0.5164199471473694
0.4129721224308014 0.21650151908397675 0.5241250395774841
0.5735027194023132 0.15918411314487457 0.42816659808158875
0.5048882961273193 0.15005457401275635 0.41291457414627075
0.36553412675857544 0.15496960282325745 0.4174889326095581
0.42305079102516174 0.10374463349580765 0.5526989102363586
0.3447682857513428 0.1255839318037033 0.5568918585777283
0.563721776008606 0.15526042878627777 0.49945661425590515
0.32534947991371155 0.16615056991577148 0.44494491815567017
0.4166184365749359 0.16042664647102356 0.5260007977485657
0.4568132162094116 0.17977109551429749 0.5174379944801331
0.5254883766174316 0.11198894679546356 0.44035544991493225
0.470632404088974 0.23589269816875458 0.45362600684165955
0.49480172991752625 0.2256922572851181 0.547957718372345
0.516396164894104 0.15305495262145996 0.47059163451194763
0.5541099905967712 0.14541248977184296 0.4414762556552887
0.4538425803184509 0.10046357661485672 0.5151515603065491
0.4275178015232086 0.14579322934150696 0.5057101845741272
0.4409588873386383 0.09977467358112335 0.5700939893722534
0.3779353201389313 0.18647468090057373 0.5006126165390015
0.4086000621318817 0.15915971994400024 0.5099561810493469
0.3978477716445923 0.22565995156764984 0.5071412920951843
0.50123530626297 0.1285143345594406 0.44174888730049133
0.40998104214668274 0.2105078250169754 0.5905927419662476
0.47041890025138855 0.14307542145252228 0.41802719235420227
0.4699188768863678 0.18329979479312897 0.4531794488430023
0.37025386095046997 0.11978570371866226 0.5116691589355469
0.5483742356300354 0.13172177970409393 0.4794829785823822
0.5018420815467834 0.1749177873134613 0.4644479751586914
0.5187539458274841 0.1850750744342804 0.5210884809494019
0.4772792160511017 0.2510969936847687 0.5220528244972229
0.5089244842529297 0.14029617607593536 0.5145121216773987
0.3895493447780609 0.22114108502864838 0.5047198534011841
0.43317997455596924 0.1213659942150116 0.39082780480384827
0.43713003396987915 0.11146741360425949 0.5704329013824463
0.3473539352416992 0.19249221682548523 0.4732801616191864
0.4994429349899292 0.223759263753891 0.6065452694892883
0.5564343929290771 0.16678665578365326 0.46478867530822754
0.3447682857513428 0.1255839318037033 0.5568918585777283
0.563721776008606 0.15526042878627777 0.49945661425590515
0.32534947991371155 0.16615056991577148 0.44494491815567017
0.4166184365749359 0.16042664647102356 0.5260007977485657
0.4568132162094116 0.17977109551429749 0.5174379944801331
0.5254883766174316 0.11198894679546356 0.44035544991493225
0.470632404088974 0.23589269816875458 0.45362600684165955
0.49480172991752625 0.2256922572851181 0.547957718372345
0.516396164894104 0.15305495262145996 0.47059163451194763
0.4983479976654053 0.14226683974266052 0.5033345818519592
0.4347454905509949 0.18127910792827606 0.41422832012176514
0.36169472336769104 0.16350635886192322 0.5065058469772339
0.4325297772884369 0.15353676676750183 0.5786234140396118
0.4554460644721985 0.14707429707050323 0.5234853625297546
0.3459736108779907 0.19383597373962402 0.5412249565124512
0.4418904781341553 0.2553090751171112 0.4575750231742859
0.4337266683578491 0.1666567474603653 0.5992776155471802
0.38188448548316956 0.19655738770961761 0.47836050391197205
0.44330790638923645 0.24325616657733917 0.5569241046905518
0.4509584605693817 0.1636904925107956 0.48838624358177185
0.5358551144599915 0.17976272106170654 0.46461671590805054
0.4190206527709961 0.12171123176813126 0.4220590889453888
0.3492201566696167 0.12133652716875076 0.5470902323722839
0.3910965323448181 0.1364137977361679 0.5510419011116028
0.48404911160469055 0.20197519659996033 0.42141348123550415
0.42711523175239563 0.12862728536128998 0.5423669219017029
0.47796493768692017 0.10706024616956711 0.5914865136146545
0.4790459871292114 0.2239644080400467 0.5799437761306763
0.5008437037467957 0.17646650969982147 0.5458074808120728
0.39657166600227356 0.11561071127653122 0.4296019375324249
0.4473694860935211 0.25512364506721497 0.5117918252944946
0.4478170573711395 0.11750414967536926 0.59920734167099
0.3447682857513428 0.1255839318037033 0.5568918585777283
0.4049716591835022 0.16029313206672668 0.5020548701286316
0.3302607238292694 0.14412233233451843 0.4122987985610962
0.32975122332572937 0.17812499403953552 0.40951547026634216
0.36631444096565247 0.148607537150383 0.5372860431671143
0.43817874789237976 0.24616408348083496 0.5664244890213013
0.45127594470977783 0.09848030656576157 0.5567910075187683
0.45250967144966125 0.0983816459774971 0.5535457730293274
0.5541435480117798 0.1366262286901474 0.4451664686203003
0.46478205919265747 0.17497166991233826 0.6120432615280151
0.47039905190467834 0.2773517966270447 0.4515603184700012
0.3448531925678253 0.15982893109321594 0.43709877133369446
0.5007085204124451 0.13830341398715973 0.42563799023628235
0.4786698818206787 0.11407148838043213 0.4834505617618561
0.44337940216064453 0.19963175058364868 0.4894953668117523
0.40653783082962036 0.10794328898191452 0.510411262512207
0.5147988200187683 0.11508571356534958 0.4936905801296234
0.4344460368156433 0.11331509053707123 0.5005451440811157
0.38926446437835693 0.22280539572238922 0.6008891463279724
0.3523983359336853 0.11547310650348663 0.49400582909584045
0.5343747138977051 0.20364175736904144 0.4374426603317261
0.4713301658630371 0.21418292820453644 0.4263909161090851
0.40256205201148987 0.11127405613660812 0.4091164767742157
0.386335164308548 0.21122753620147705 0.4620709717273712
0.38653287291526794 0.16242016851902008 0.4110587239265442
0.4464523494243622 0.18347303569316864 0.5039464831352234
0.4414004385471344 0.12531732022762299 0.4071143865585327
0.47966066002845764 0.19109250605106354 0.4852885603904724
0.47062209248542786 0.12125758826732635 0.5400053858757019
0.44335123896598816 0.21740873157978058 0.5210242867469788
0.48198455572128296 0.11461734026670456 0.505164623260498
0.44767898321151733 0.23362360894680023 0.47152039408683777
0.43507665395736694 0.25222834944725037 0.4543842673301697
0.4566318094730377 0.17122958600521088 0.41323143243789673
0.4173012375831604 0.16402128338813782 0.5006096959114075
0.389423668384552 0.13463033735752106 0.43725258111953735
0.46396780014038086 0.14533209800720215 0.47621333599090576
0.33694010972976685 0.17889954149723053 0.4229433834552765
0.4515160322189331 0.10069718211889267 0.4444578289985657
0.4520176649093628 0.15464656054973602 0.5765220522880554
0.4236469566822052 0.147158682346344 0.5340657234191895
0.4282965660095215 0.15388062596321106 0.550147533416748
0.48882806301116943 0.18297956883907318 0.46800482273101807
0.4720754623413086 0.11357413232326508 0.45692962408065796
0.489251047372818 0.12229365855455399 0.5644916892051697
0.47129061818122864 0.1716012805700302 0.6059548854827881
0.33510622382164 0.16004793345928192 0.5158801078796387
0.4662083387374878 0.12033303081989288 0.5250799655914307
0.5507834553718567 0.1295592486858368 0.505295991897583
0.48701080679893494 0.10265440493822098 0.5261119604110718
0.41444316506385803 0.18954959511756897 0.5936388373374939
0.4648340940475464 0.24345122277736664 0.5552065968513489
0.4587143659591675 0.11969663202762604 0.43778279423713684
0.38112327456474304 0.157814159989357 0.40753963589668274
0.3892097473144531 0.1867271065711975 0.41178134083747864
0.43747660517692566 0.19695156812667847 0.5135835409164429
0.5452646017074585 0.1661362498998642 0.4471176862716675
0.5189781188964844 0.12093190848827362 0.6013268232345581
0.39738187193870544 0.11161259561777115 0.5844302773475647
0.47455281019210815 0.11182276159524918 0.4959384500980377
0.4961912930011749 0.15287594497203827 0.49062007665634155
0.4558667242527008 0.2421414703130722 0.5522255897521973
0.32389724254608154 0.16239534318447113 0.45914238691329956
0.38273870944976807 0.12357884645462036 0.5103851556777954
0.49650898575782776 0.22328869998455048 0.5319021940231323
0.34529826045036316 0.11393970996141434 0.5945184230804443
0.4741295278072357 0.20565351843833923 0.4616413712501526
0.45600977540016174 0.14676758646965027 0.5068259835243225
0.3783782422542572 0.19267812371253967 0.5706047415733337
0.5001166462898254 0.11034680902957916 0.5392582416534424
0.5552089214324951 0.15709246695041656 0.45033499598503113
0.4285292327404022 0.11971577256917953 0.5207256078720093
0.43272173404693604 0.19649770855903625 0.5701398253440857
0.40362200140953064 0.2202090322971344 0.5725880265235901
0.49917712807655334 0.2199990302324295 0.5748063325881958
0.5103453993797302 0.17300662398338318 0.4627210199832916
0.4893096685409546 0.23953983187675476 0.47143304347991943
0.3229603171348572 0.15526865422725677 0.44492462277412415
0.5044752955436707 0.11440686136484146 0.4510475695133209
0.5047347545623779 0.21885773539543152 0.46824637055397034
0.49744534492492676 0.21557529270648956 0.5805212259292603
0.4715244174003601 0.10648494213819504 0.38292619585990906
0.47450047731399536 0.1215294748544693 0.5534995198249817
0.42058324813842773 0.22774125635623932 0.5776225328445435
0.3993225395679474 0.10955633223056793 0.5642500519752502
0.420509934425354 0.24498926103115082 0.4564220607280731
0.4058654308319092 0.15983641147613525 0.4930807054042816
0.5603001117706299 0.16387930512428284 0.5669854879379272
0.4735731780529022 0.2093484252691269 0.5444403886795044
0.5150973796844482 0.11021445691585541 0.5845748782157898
0.38339293003082275 0.10788925737142563 0.5421319603919983
0.3440394103527069 0.1541685312986374 0.4037860929965973
0.37856942415237427 0.1463719606399536 0.5326566696166992
0.37734273076057434 0.1427447497844696 0.48199397325515747
0.40205591917037964 0.12084680795669556 0.5036088824272156
0.3623257875442505 0.14531578123569489 0.40863198041915894
0.4879995882511139 0.21443262696266174 0.604382336139679
0.4024258553981781 0.1281072050333023 0.3883397877216339
0.5245724320411682 0.22685971856117249 0.4687529504299164
0.4744211733341217 0.17501375079154968 0.5665168762207031
0.42886725068092346 0.23532290756702423 0.4891662895679474
0.543601930141449 0.11812441051006317 0.409331738948822
0.4517773389816284 0.18401415646076202 0.5175924897193909
0.5194469690322876 0.14140179753303528 0.6016713976860046
0.571082592010498 0.15605489909648895 0.46951809525489807
0.401100754737854 0.10972441732883453 0.5395911931991577
0.5483802556991577 0.12801234424114227 0.5388047099113464
0.4317484498023987 0.16357849538326263 0.5511868000030518
0.4562149941921234 0.25034278631210327 0.5994827151298523
0.4592456519603729 0.10452938824892044 0.5386900305747986
0.4507763981819153 0.10217171907424927 0.5642900466918945
0.4528118073940277 0.20398558676242828 0.5755366086959839
0.4002530574798584 0.1916728913784027 0.5890275239944458
0.5314009785652161 0.1415984183549881 0.5593396425247192
0.4662068784236908 0.1463080495595932 0.5353667140007019
0.4803835451602936 0.13814777135849 0.5538676381111145
0.5125435590744019 0.15039563179016113 0.6025806069374084
0.3472365736961365 0.19158869981765747 0.5959815979003906
0.5022861957550049 0.1139654815196991 0.5054246783256531
0.39321327209472656 0.15014581382274628 0.5054284334182739
0.5057393312454224 0.19347631931304932 0.4432462751865387
0.4388006329536438 0.18413802981376648 0.5503764152526855
0.36799371242523193 0.214882493019104 0.4107285737991333
0.48764896392822266 0.21571286022663116 0.4258781969547272
0.4187718629837036 0.19425934553146362 0.5099340677261353
0.36222410202026367 0.18364833295345306 0.4159378707408905
0.5267388820648193 0.18675510585308075 0.4968801736831665
0.4568132162094116 0.17977109551429749 0.5174379944801331
0.4509584605693817 0.1636904925107956 0.48838624358177185
0.5358551144599915 0.17976272106170654 0.46461671590805054
0.4190206527709961 0.12171123176813126 0.4220590889453888
0.3492201566696167 0.12133652716875076 0.5470902323722839
0.3910965323448181 0.1364137977361679 0.5510419011116028
0.48404911160469055 0.20197519659996033 0.42141348123550415
0.5415744781494141 0.13424286246299744 0.5924907922744751
0.565683126449585 0.1492646336555481 0.41628140211105347
0.42564764618873596 0.1621870994567871 0.5222043395042419
0.4190192222595215 0.12286955863237381 0.5532374382019043
0.48709115386009216 0.1602506786584854 0.49558672308921814
0.44681137800216675 0.19419023394584656 0.5547141432762146
0.39274466037750244 0.16598983108997345 0.5659343004226685
0.4299335777759552 0.12840580940246582 0.45572105050086975
0.5622990727424622 0.13125887513160706 0.541408360004425
0.4459993243217468 0.20857051014900208 0.445840448141098
0.3144441843032837 0.1326356828212738 0.5794720649719238
0.40687423944473267 0.19874727725982666 0.4121687114238739
0.463878333568573 0.19358819723129272 0.5059541463851929
0.4807717502117157 0.1087033823132515 0.4321349561214447
0.43122196197509766 0.11319971084594727 0.5393961668014526
0.4634210467338562 0.14830052852630615 0.4772321581840515
0.5178415775299072 0.16153109073638916 0.4778773784637451
0.3663347661495209 0.1320551335811615 0.5155697464942932
0.4859102666378021 0.20164287090301514 0.6146329045295715
0.503480076789856 0.10659459978342056 0.48507463932037354
0.4667671024799347 0.24971744418144226 0.5263757109642029
0.45726731419563293 0.11962953954935074 0.4712338447570801
0.42310142517089844 0.1508372575044632 0.4060652554035187
0.4111275374889374 0.23431693017482758 0.43537965416908264
0.4730062186717987 0.281365305185318 0.4731957018375397
0.5559558868408203 0.15292075276374817 0.4515065848827362
0.47584471106529236 0.13782253861427307 0.5093587636947632
0.5415744781494141 0.13424286246299744 0.5924907922744751
0.565683126449585 0.1492646336555481 0.41628140211105347
0.42564764618873596 0.1621870994567871 0.5222043395042419
0.41504377126693726 0.13921517133712769 0.5053226947784424
0.4471260607242584 0.2423209846019745 0.4539757966995239
0.48178818821907043 0.12797985970973969 0.4432012438774109
0.49492159485816956 0.20954389870166779 0.6211378574371338
0.40555331110954285 0.13093814253807068 0.46679380536079407
0.38036516308784485 0.18594299256801605 0.5218758583068848
0.4363364279270172 0.1606561839580536 0.5776849985122681
0.46344083547592163 0.20422446727752686 0.45697781443595886
0.3799002766609192 0.17419026792049408 0.4592117369174957
0.42405131459236145 0.14207087457180023 0.5886958241462708
0.4651467204093933 0.11281761527061462 0.4262666404247284
0.4900650680065155 0.12475057691335678 0.6095826625823975
0.4476708471775055 0.1835331916809082 0.502109706401825
0.4673530161380768 0.1036086156964302 0.5555272102355957
0.5170208215713501 0.15255627036094666 0.5617056488990784
0.44925475120544434 0.14581084251403809 0.46315112709999084
0.46452096104621887 0.14165623486042023 0.5051310062408447
0.5267899632453918 0.16400320827960968 0.6147965788841248
0.4740549325942993 0.22539401054382324 0.4567727744579315
0.4150577485561371 0.2132338136434555 0.5734493136405945
0.5292529463768005 0.1822332739830017 0.4510820508003235
0.39270809292793274 0.20673896372318268 0.5613504648208618
0.3734382092952728 0.11481587588787079 0.5032585263252258
0.4574579894542694 0.25866299867630005 0.47244882583618164
0.438496470451355 0.18875180184841156 0.5588520765304565
0.3143056333065033 0.1441834270954132 0.5003582835197449
0.424357533454895 0.13248573243618011 0.39965030550956726
0.3637845516204834 0.12849615514278412 0.4339548349380493
0.48804235458374023 0.23705558478832245 0.5717426538467407
0.39911606907844543 0.2190532386302948 0.5885903835296631
0.5349646210670471 0.14982150495052338 0.5229048728942871
0.45556187629699707 0.11565176397562027 0.3836735188961029
0.45253726840019226 0.10257711261510849 0.44002091884613037
0.31150704622268677 0.14272095263004303 0.5870680212974548
0.4465142488479614 0.20808345079421997 0.5244892835617065
0.5058063268661499 0.17958222329616547 0.533616840839386
0.47892168164253235 0.22295795381069183 0.5014446377754211
0.3514675796031952 0.14825834333896637 0.4035013020038605
0.3898237943649292 0.13572609424591064 0.4835279583930969
0.5236490368843079 0.10809697955846786 0.5499514937400818
0.426997572183609 0.13731731474399567 0.4998547434806824
0.45838865637779236 0.16128124296665192 0.4061012268066406
0.5137027502059937 0.20081354677677155 0.5220358371734619
0.4978039860725403 0.10693712532520294 0.4712221026420593
0.42404261231422424 0.11295638233423233 0.40885040163993835
0.4208714962005615 0.21348847448825836 0.5251792073249817
0.32971733808517456 0.15781718492507935 0.47214704751968384
0.47703152894973755 0.109853096306324 0.5237683653831482
0.47029244899749756 0.21561110019683838 0.592522382736206
0.45455053448677063 0.15879593789577484 0.5759437680244446
0.557964563369751 0.13332968950271606 0.5671619176864624
0.4915197789669037 0.2259472757577896 0.606597900390625
0.5170450806617737 0.13386380672454834 0.4778694212436676
0.468887060880661 0.19292280077934265 0.5454588532447815
0.47937989234924316 0.20873524248600006 0.5899742245674133
0.4938966631889343 0.2183562070131302 0.5416658520698547
0.4787135422229767 0.15796001255512238 0.4590466022491455
0.3889782726764679 0.19429415464401245 0.43623149394989014
0.4849328100681305 0.16710294783115387 0.4815424382686615
0.5358551144599915 0.17976272106170654 0.46461671590805054
0.5151345133781433 0.21889519691467285 0.5287773609161377
0.4746630787849426 0.26174598932266235 0.491657018661499
0.5029855966567993 0.11701580137014389 0.5031017065048218
0.33780229091644287 0.1561519205570221 0.5486153364181519
0.40656742453575134 0.2136482447385788 0.5421909689903259
0.4358280897140503 0.1341920793056488 0.589153528213501
0.4590895175933838 0.12553425133228302 0.542722225189209
0.4030473530292511 0.17011146247386932 0.5267463326454163
0.42949697375297546 0.1036207377910614 0.4786825478076935
0.49723246693611145 0.14582708477973938 0.40700283646583557
0.5065048933029175 0.11909998953342438 0.5791940093040466
0.4727311432361603 0.19123977422714233 0.5667873024940491
0.41713353991508484 0.11601060628890991 0.5349562764167786
0.5173398852348328 0.15857097506523132 0.4399636387825012
0.41800254583358765 0.21861113607883453 0.5560007095336914
0.3856181204319 0.2169831246137619 0.5367549061775208
0.43238988518714905 0.14763812720775604 0.5128281712532043
0.5283656120300293 0.13079792261123657 0.5982951521873474
0.4599454998970032 0.10799244791269302 0.5774097442626953
0.44464561343193054 0.23845168948173523 0.5941072702407837
0.5424305200576782 0.18415838479995728 0.5587826371192932
0.46010199189186096 0.17742417752742767 0.46091923117637634
0.39715147018432617 0.1162949874997139 0.4278009831905365
0.39780524373054504 0.1619754433631897 0.4830566346645355
0.4660910665988922 0.11961080133914948 0.5145306587219238
0.4824156165122986 0.15342500805854797 0.4243471920490265
0.34888091683387756 0.1715593934059143 0.4232863783836365
0.42229294776916504 0.10087642818689346 0.5599621534347534
0.4019297659397125 0.21632526814937592 0.4341718256473541
0.4523281455039978 0.16330042481422424 0.5722211003303528
0.46868985891342163 0.14143970608711243 0.5944096446037292
0.45253726840019226 0.10257711261510849 0.44002091884613037
0.5236490368843079 0.10809697955846786 0.5499514937400818
0.426997572183609 0.13731731474399567 0.4998547434806824
0.467290997505188 0.26093634963035583 0.5105025172233582
0.4246980547904968 0.19293680787086487 0.5631247162818909
0.4459211230278015 0.23650917410850525 0.4496254026889801
0.4678344428539276 0.1056930348277092 0.4004044532775879
0.505622148513794 0.10761774331331253 0.5206072330474854
0.3199580907821655 0.15458698570728302 0.5902420878410339
0.4771903157234192 0.11180849373340607 0.5325576663017273
0.4370001554489136 0.21625876426696777 0.5599199533462524
0.49778151512145996 0.19105708599090576 0.4514523446559906
0.4353918135166168 0.1814497709274292 0.43237096071243286
0.44503530859947205 0.09934023022651672 0.43829455971717834
0.3271568715572357 0.12433341145515442 0.5631099939346313
0.4820818305015564 0.24665021896362305 0.42788776755332947
0.39406755566596985 0.19563037157058716 0.4633828401565552
0.40301862359046936 0.2245844304561615 0.5845881104469299
0.4412969648838043 0.10084737837314606 0.4610241949558258
0.3888181447982788 0.1286459118127823 0.5023118257522583
0.3216194808483124 0.13264359533786774 0.5920146703720093
0.3644983768463135 0.15734322369098663 0.5157872438430786
0.48743030428886414 0.16451653838157654 0.41810014843940735
0.3559299409389496 0.19854328036308289 0.46481919288635254
0.4450176954269409 0.1380113810300827 0.6085245609283447
0.3553578555583954 0.11821087449789047 0.577151894569397
0.46454334259033203 0.27209705114364624 0.43556538224220276
0.5252924561500549 0.21947769820690155 0.5013848543167114
0.5227152109146118 0.1757727563381195 0.597760021686554
0.39460596442222595 0.10468736290931702 0.5568307638168335
0.4870418608188629 0.14412741363048553 0.509773850440979
0.4498559832572937 0.09981879591941833 0.600825309753418
0.4030473530292511 0.17011146247386932 0.5267463326454163
0.42367154359817505 0.1137290820479393 0.5829765796661377
0.4214303493499756 0.1656813621520996 0.599755585193634
0.3734111189842224 0.11921507865190506 0.5503571629524231
0.4875262677669525 0.23601661622524261 0.4953378140926361
0.4530431032180786 0.1994049996137619 0.5435541272163391
0.46873852610588074 0.2283630669116974 0.4422507882118225
0.48931849002838135 0.20321154594421387 0.5566401481628418
0.406714528799057 0.14257881045341492 0.5237150192260742
0.48549145460128784 0.2577229142189026 0.5358136892318726
0.49377524852752686 0.11856871843338013 0.44330158829689026
0.39789217710494995 0.16939210891723633 0.41651323437690735
0.40921592712402344 0.18337808549404144 0.47256630659103394
0.35713478922843933 0.14668655395507812 0.4363115131855011
0.5459640026092529 0.12117177248001099 0.47911337018013
0.5531561970710754 0.1690780073404312 0.45646223425865173
0.34164607524871826 0.13194257020950317 0.5829117894172668
0.4660910665988922 0.11961080133914948 0.5145306587219238
0.4824156165122986 0.15342500805854797 0.4243471920490265
0.34888091683387756 0.1715593934059143 0.4232863783836365
0.42229294776916504 0.10087642818689346 0.5599621534347534
0.4019297659397125 0.21632526814937592 0.4341718256473541
0.4523281455039978 0.16330042481422424 0.5722211003303528
0.46868985891342163 0.14143970608711243 0.5944096446037292
0.5630480647087097 0.12540796399116516 0.46367207169532776
0.48888835310935974 0.1103946641087532 0.407349556684494
0.424038290977478 0.15772511065006256 0.4494352638721466
0.4712221324443817 0.14213798940181732 0.5614302158355713
0.5111452341079712 0.21806670725345612 0.43082085251808167
0.511231541633606 0.19864968955516815 0.4903886020183563
0.3762630820274353 0.1765381395816803 0.4184107482433319
0.5174617171287537 0.19568964838981628 0.5294401049613953
0.4230870008468628 0.22347049415111542 0.5004169940948486
0.40446528792381287 0.11182497441768646 0.5316176414489746
0.566709578037262 0.15914368629455566 0.5656422972679138
0.45949113368988037 0.12689177691936493 0.4048897922039032
0.4267800450325012 0.09899191558361053 0.551198422908783
0.38263699412345886 0.2018519639968872 0.47633862495422363
0.4705369174480438 0.11323492974042892 0.5413177609443665
0.41582971811294556 0.14167197048664093 0.5437091588973999
0.5278158187866211 0.11166378110647202 0.5833678841590881
0.5403633117675781 0.11577975749969482 0.4321221113204956
0.4055682122707367 0.1328582763671875 0.40935948491096497
0.4852902889251709 0.10631164163351059 0.5631771683692932
0.5602425932884216 0.18325062096118927 0.4305249750614166
0.5179498791694641 0.17375251650810242 0.46988266706466675
0.4969663619995117 0.20632722973823547 0.5634216070175171
0.3653862774372101 0.19115614891052246 0.5274979472160339
0.5240127444267273 0.1185055822134018 0.592627763748169
0.42399200797080994 0.20053984224796295 0.4135775864124298
0.4588984549045563 0.2102794051170349 0.42380672693252563
0.4730999171733856 0.13609053194522858 0.5953381061553955
0.4616349935531616 0.14436618983745575 0.571832537651062
0.46120452880859375 0.1155373677611351 0.39680004119873047
0.4129806160926819 0.21122099459171295 0.518311083316803
0.49723440408706665 0.14666712284088135 0.5526593923568726
0.4958213269710541 0.21453364193439484 0.5647181868553162
0.3145950436592102 0.15490290522575378 0.4208757281303406
0.41647180914878845 0.1977655291557312 0.5458201766014099
0.4279745817184448 0.19939178228378296 0.5964121222496033
0.33199775218963623 0.17142651975154877 0.5146230459213257
0.5363996028900146 0.16938377916812897 0.4403126537799835
0.4385378956794739 0.17924357950687408 0.5430415868759155
0.3934671878814697 0.17091122269630432 0.5315592288970947
0.49923089146614075 0.20574559271335602 0.4679219126701355
0.4182250499725342 0.11577919870615005 0.5805618762969971
0.44440457224845886 0.12512221932411194 0.41106152534484863
0.42878735065460205 0.14058548212051392 0.47397109866142273
0.3996431827545166 0.15997211635112762 0.4973474442958832
0.4611399173736572 0.11445888876914978 0.5042000412940979
0.47175145149230957 0.10128118097782135 0.4720610976219177
0.3559299409389496 0.19854328036308289 0.46481919288635254
0.4450176954269409 0.1380113810300827 0.6085245609283447
0.4648340940475464 0.24345122277736664 0.5552065968513489
0.5132809281349182 0.1631919890642166 0.47620198130607605
0.3892097473144531 0.1867271065711975 0.41178134083747864
0.4138038456439972 0.23576655983924866 0.49100807309150696
0.44160717725753784 0.12664060294628143 0.4281321167945862
0.36859872937202454 0.13014428317546844 0.46448758244514465
0.5529506206512451 0.17557455599308014 0.5979766845703125
0.4639981687068939 0.15553776919841766 0.40458521246910095
0.5393409132957458 0.13342803716659546 0.5692511796951294
0.4780811667442322 0.10592810064554214 0.4874098300933838
0.42584794759750366 0.19563166797161102 0.5613049864768982
0.3968028426170349 0.11487278342247009 0.4358498156070709
0.4767031669616699 0.20780499279499054 0.5833662152290344
0.4748108685016632 0.12055646628141403 0.4836495518684387
0.41035670042037964 0.1502125859260559 0.404967337846756
0.3355807662010193 0.16537277400493622 0.4165823757648468
0.48496899008750916 0.18132710456848145 0.46248963475227356
0.4611945152282715 0.2112734466791153 0.5600619912147522
0.5437905192375183 0.11921341717243195 0.4352640211582184
0.5163472294807434 0.15385298430919647 0.5619614720344543
0.46406683325767517 0.10394368320703506 0.5889725089073181
0.3773577809333801 0.16103610396385193 0.5271747708320618
0.46237918734550476 0.14113089442253113 0.46310508251190186
0.47450047731399536 0.1215294748544693 0.5534995198249817
0.4616349935531616 0.14436618983745575 0.571832537651062
0.46120452880859375 0.1155373677611351 0.39680004119873047
0.4129806160926819 0.21122099459171295 0.518311083316803
0.49723440408706665 0.14666712284088135 0.5526593923568726
0.4958213269710541 0.21453364193439484 0.5647181868553162
0.3145950436592102 0.15490290522575378 0.4208757281303406
0.41647180914878845 0.1977655291557312 0.5458201766014099
0.4279745817184448 0.19939178228378296 0.5964121222496033
0.33199775218963623 0.17142651975154877 0.5146230459213257
0.5363996028900146 0.16938377916812897 0.4403126537799835
0.4385378956794739 0.17924357950687408 0.5430415868759155
0.3847590386867523 0.15706825256347656 0.5856096744537354
0.47419315576553345 0.11789809167385101 0.4924677312374115
0.474442720413208 0.21350528299808502 0.4957190155982971
0.4842163324356079 0.11814723163843155 0.49258869886398315
0.5306232571601868 0.1825365424156189 0.47378700971603394
0.43753424286842346 0.11692995578050613 0.3853136897087097
0.4810022711753845 0.2591168284416199 0.4489416778087616
0.4293818771839142 0.19352763891220093 0.5633400678634644
0.32423803210258484 0.15098491311073303 0.4428107738494873
0.44131433963775635 0.09849316626787186 0.584898054599762
0.4748697280883789 0.14569294452667236 0.5622723698616028
0.4795781373977661 0.26489970088005066 0.5099302530288696
0.49653729796409607 0.18934445083141327 0.5196815729141235
0.4939475953578949 0.21918685734272003 0.46516796946525574
0.3656107485294342 0.20477242767810822 0.4845353662967682
0.32509034872055054 0.15065525472164154 0.45564255118370056
0.3504208028316498 0.1460982710123062 0.4102095365524292
0.44948810338974 0.24059024453163147 0.47089579701423645
0.5020077228546143 0.10444576293230057 0.5812835097312927
0.48645830154418945 0.18029190599918365 0.539598286151886
0.33510622382164 0.16004793345928192 0.5158801078796387
0.42399200797080994 0.20053984224796295 0.4135775864124298
0.4588984549045563 0.2102794051170349 0.42380672693252563
0.4730999171733856 0.13609053194522858 0.5953381061553955
0.4616349935531616 0.14436618983745575 0.571832537651062
0.46120452880859375 0.1155373677611351 0.39680004119873047
0.4129806160926819 0.21122099459171295 0.518311083316803
0.49723440408706665 0.14666712284088135 0.5526593923568726
0.4958213269710541 0.21453364193439484 0.5647181868553162
0.3145950436592102 0.15490290522575378 0.4208757281303406
0.41647180914878845 0.1977655291557312 0.5458201766014099
0.4279745817184448 0.19939178228378296 0.5964121222496033
0.33199775218963623 0.17142651975154877 0.5146230459213257
0.5363996028900146 0.16938377916812897 0.4403126537799835
0.4385378956794739 0.17924357950687408 0.5430415868759155
0.3934671878814697 0.17091122269630432 0.5315592288970947
0.3321249783039093 0.1421930491924286 0.49878373742103577
0.4991012513637543 0.1388520449399948 0.47441282868385315
0.3950745165348053 0.22777530550956726 0.4453513026237488
0.4460037648677826 0.1393430382013321 0.44592392444610596
0.48276954889297485 0.15553581714630127 0.5050971508026123
0.44098222255706787 0.1130407452583313 0.450478732585907
0.41771161556243896 0.0987694039940834 0.5928718447685242
0.5718418955802917 0.15505392849445343 0.5224018692970276
0.35743990540504456 0.19643475115299225 0.4968290328979492
0.4931928813457489 0.1891442835330963 0.47996577620506287
0.42785194516181946 0.15678395330905914 0.4901845455169678
0.559802770614624 0.1485365480184555 0.5457565784454346
0.5447982549667358 0.14980587363243103 0.44403547048568726
0.43667885661125183 0.1632646769285202 0.5600122809410095
0.3994511663913727 0.1281202733516693 0.41387471556663513
0.3588907718658447 0.20254163444042206 0.49189531803131104
0.5723560452461243 0.1578802615404129 0.4904318153858185
0.39460596442222595 0.10468736290931702 0.5568307638168335
0.5529417395591736 0.14061111211776733 0.5838632583618164
0.46868985891342163 0.14143970608711243 0.5944096446037292
0.5630480647087097 0.12540796399116516 0.46367207169532776
0.48888835310935974 0.1103946641087532 0.407349556684494
0.424038290977478 0.15772511065006256 0.4494352638721466
0.4406026601791382 0.1820354163646698 0.49805518984794617
0.40563341975212097 0.19845929741859436 0.5781073570251465
0.3879879117012024 0.17443731427192688 0.4511204957962036
0.47397541999816895 0.10485184192657471 0.5148708820343018
0.48421144485473633 0.19251279532909393 0.5225672125816345
0.5713490843772888 0.13615970313549042 0.4743066430091858
0.49020612239837646 0.20472699403762817 0.42199671268463135
0.4681548774242401 0.11095690727233887 0.399385929107666
0.42338353395462036 0.2156592309474945 0.4820866882801056
0.49868664145469666 0.2257736772298813 0.49372798204421997
0.46411648392677307 0.09955786913633347 0.5927137136459351
0.522522509098053 0.13333937525749207 0.6159741878509521
0.44305047392845154 0.1421278417110443 0.49118489027023315
0.44008946418762207 0.19689048826694489 0.5859417915344238
0.3726181983947754 0.1334122270345688 0.5397840142250061
0.4882299304008484 0.22583284974098206 0.4720923900604248
0.4128435254096985 0.11060787737369537 0.43560317158699036
0.537787914276123 0.21118292212486267 0.4496309161186218
0.37648528814315796 0.11678232997655869 0.4743233025074005
0.35081952810287476 0.1657191812992096 0.4816225469112396
0.49065014719963074 0.18275830149650574 0.5971727967262268
0.45887452363967896 0.15696902573108673 0.5812290906906128
0.3345034420490265 0.1800750195980072 0.4620506763458252
0.4879299998283386 0.2708912491798401 0.4612230062484741
0.5048229098320007 0.16275840997695923 0.5673618912696838
0.33811163902282715 0.18495263159275055 0.40991535782814026
0.3892097473144531 0.1867271065711975 0.41178134083747864
0.43747660517692566 0.19695156812667847 0.5135835409164429
0.5452646017074585 0.1661362498998642 0.4471176862716675
0.3580610454082489 0.14578895270824432 0.4040493965148926
0.5094485878944397 0.20733898878097534 0.5184201002120972
0.4757869243621826 0.19235612452030182 0.4772246479988098
0.3892441987991333 0.11070331931114197 0.48809951543807983
0.46595436334609985 0.14000627398490906 0.43166646361351013
0.44084957242012024 0.1110377162694931 0.519668459892273
0.515106737613678 0.1628148853778839 0.5640114545822144
0.4424561560153961 0.09896691143512726 0.46099627017974854
0.407796710729599 0.10272781550884247 0.5801256895065308
0.41465145349502563 0.14541186392307281 0.5890504717826843
0.48916247487068176 0.11215514689683914 0.5038207769393921
0.3604523241519928 0.1690177023410797 0.5960832238197327
0.44569966197013855 0.09779536724090576 0.43349796533584595
0.47772425413131714 0.22094160318374634 0.5109055638313293
0.46645426750183105 0.13333839178085327 0.6098261475563049
0.36901620030403137 0.11425847560167313 0.5881139636039734
0.47753453254699707 0.18396492302417755 0.46748560667037964
0.5536139607429504 0.14371520280838013 0.4780289828777313
0.39711618423461914 0.1262841373682022 0.5015385150909424
0.42468875646591187 0.10461296141147614 0.5993963479995728
0.3636728525161743 0.14454048871994019 0.5891484618186951
0.5131399631500244 0.21051855385303497 0.512909471988678
0.4118689000606537 0.13107378780841827 0.5348860621452332
0.5725927948951721 0.15250250697135925 0.5466734170913696
0.48282113671302795 0.2753961384296417 0.43669313192367554
0.3886078894138336 0.2192191183567047 0.573937177658081
0.43649154901504517 0.16457755863666534 0.42396706342697144
0.5713313221931458 0.13803605735301971 0.552082896232605
0.3653862774372101 0.19115614891052246 0.5274979472160339
0.5549423694610596 0.17421256005764008 0.5428556203842163
0.48655906319618225 0.17666101455688477 0.5982425808906555
0.3332451581954956 0.1370755434036255 0.5085194110870361
0.4757869243621826 0.19235612452030182 0.4772246479988098
0.3892441987991333 0.11070331931114197 0.48809951543807983
0.46595436334609985 0.14000627398490906 0.43166646361351013
0.4403819739818573 0.10206321626901627 0.5345145463943481
0.5145785212516785 0.19610843062400818 0.5337000489234924
0.5209846496582031 0.12656880915164948 0.5501096844673157
0.4590698778629303 0.10672665387392044 0.4119780957698822
0.47521495819091797 0.24322614073753357 0.48558613657951355
0.4184925854206085 0.16475960612297058 0.5617835521697998
0.3935336470603943 0.10835564881563187 0.4813886880874634
0.4719575047492981 0.19738832116127014 0.45821288228034973
0.447938472032547 0.10201846063137054 0.45407259464263916
0.4842136800289154 0.12912091612815857 0.41551321744918823
0.507529079914093 0.2224259078502655 0.5610469579696655
0.4483170509338379 0.2098514437675476 0.5517075657844543
0.415365993976593 0.15172287821769714 0.3956967294216156
0.4477163255214691 0.25653308629989624 0.5040664672851562
0.479453980922699 0.1287938952445984 0.5919463038444519
0.5056363344192505 0.1085292175412178 0.6093032360076904
0.43332090973854065 0.16885444521903992 0.5354886054992676
0.5323279500007629 0.2023787498474121 0.5158759951591492
0.5648655891418457 0.13802994787693024 0.5858597755432129
0.571029543876648 0.14006799459457397 0.5795350670814514
0.3877968490123749 0.1313064992427826 0.4028320908546448
0.48934611678123474 0.12665076553821564 0.5763112306594849
0.48101377487182617 0.16605910658836365 0.521618127822876
0.5135905146598816 0.20090393722057343 0.5761744379997253
0.3799125850200653 0.12549404799938202 0.5213491916656494
0.46868985891342163 0.14143970608711243 0.5944096446037292
0.5630480647087097 0.12540796399116516 0.46367207169532776
0.48888835310935974 0.1103946641087532 0.407349556684494
0.424038290977478 0.15772511065006256 0.4494352638721466
0.4712221324443817 0.14213798940181732 0.5614302158355713
0.5111452341079712 0.21806670725345612 0.43082085251808167
0.511231541633606 0.19864968955516815 0.4903886020183563
0.3762630820274353 0.1765381395816803 0.4184107482433319
0.5174617171287537 0.19568964838981628 0.5294401049613953
0.47397541999816895 0.10485184192657471 0.5148708820343018
0.48421144485473633 0.19251279532909393 0.5225672125816345
0.5683841705322266 0.13431313633918762 0.47624120116233826
0.48159417510032654 0.25584760308265686 0.4804944097995758
0.40071582794189453 0.11046350002288818 0.5688241720199585
0.45423245429992676 0.13852812349796295 0.5185614824295044
0.43586021661758423 0.15034833550453186 0.5064839124679565
0.5290076732635498 0.12771646678447723 0.5210628509521484
0.456281453371048 0.26067453622817993 0.5334019064903259
0.49095919728279114 0.11962757259607315 0.43368929624557495
0.31454646587371826 0.16162431240081787 0.44174233078956604
0.511371374130249 0.20241910219192505 0.4688200056552887
0.48914834856987 0.13248614966869354 0.5011695623397827
0.3912506103515625 0.21449586749076843 0.42686927318573
0.35081952810287476 0.1657191812992096 0.4816225469112396
0.49065014719963074 0.18275830149650574 0.5971727967262268
0.3629816472530365 0.15217117965221405 0.4918365180492401
0.4217602610588074 0.22634580731391907 0.592799723148346
0.3345034420490265 0.1800750195980072 0.4620506763458252
0.31732383370399475 0.14077526330947876 0.5664556622505188
0.5048229098320007 0.16275840997695923 0.5673618912696838
0.45140665769577026 0.2108626812696457 0.5284503698348999
0.47811904549598694 0.10196774452924728 0.49958881735801697
0.4982464611530304 0.20699413120746613 0.5392036437988281
0.4974782168865204 0.21828462183475494 0.5202896595001221
0.393516480922699 0.12465475499629974 0.5109916925430298
0.3579694330692291 0.11707527935504913 0.4654746949672699
0.3917291462421417 0.12420246750116348 0.5917072892189026
0.46403390169143677 0.2022721767425537 0.4749377369880676
