ply
format ascii 1.0
element vertex 824
property float x
property float y
property float z
end_header
0.5076470375061035 0.24801163375377655 0.4842017889022827
0.4088061451911926 0.23214906454086304 0.44798046350479126
0.3764882981777191 0.196901336312294 0.48701924085617065
0.37312549352645874 0.13468189537525177 0.5500613451004028
0.4537885785102844 0.11521649360656738 0.3965386748313904
0.47246435284614563 0.11922623217105865 0.5727698802947998
0.4121784269809723 0.11666388064622879 0.5354903936386108
0.47909337282180786 0.2945762276649475 0.42661115527153015
0.448738694190979 0.23849669098854065 0.5422503352165222
0.4084983170032501 0.1754467487335205 0.4717187285423279
0.535596489906311 0.1256566047668457 0.4077966809272766
0.48627910017967224 0.1373533010482788 0.49193134903907776
0.5149458050727844 0.1320817619562149 0.614517867565155
0.49507057666778564 0.2145330011844635 0.42796528339385986
0.4300844967365265 0.2600035071372986 0.44859209656715393
0.3594837188720703 0.1644648015499115 0.42784300446510315
0.3996981382369995 0.1256868839263916 0.4906514585018158
0.47569021582603455 0.1472657322883606 0.5835118889808655
0.5380520224571228 0.14795641601085663 0.43486830592155457
0.4768558442592621 0.18659469485282898 0.5122776031494141
0.46901649236679077 0.2718327045440674 0.49436524510383606
0.44768816232681274 0.10203098505735397 0.4339280128479004
0.4985376298427582 0.10799691081047058 0.5318794846534729
0.5690715312957764 0.1325351744890213 0.498416543006897
0.4493468999862671 0.26068973541259766 0.43803492188453674
0.4565296769142151 0.22921346127986908 0.4435952603816986
0.5165365934371948 0.1241961270570755 0.46562620997428894
0.5063050389289856 0.12700390815734863 0.5471367239952087
0.45293328166007996 0.26567262411117554 0.436008095741272
0.511496365070343 0.189033642411232 0.5207356810569763
0.4783119261264801 0.238027423620224 0.5388888120651245
0.4243079721927643 0.21012480556964874 0.502112090587616
0.45568907260894775 0.09772264212369919 0.5244404673576355
0.5399430990219116 0.20639103651046753 0.4797542989253998
0.4904288351535797 0.1431722193956375 0.46678629517555237
0.43534067273139954 0.21091192960739136 0.6024444103240967
0.4913260340690613 0.16830192506313324 0.5431099534034729
0.40090078115463257 0.18925894796848297 0.5600191354751587
0.49584001302719116 0.1653755009174347 0.4379313290119171
0.37312549352645874 0.13468189537525177 0.5500613451004028
0.4537885785102844 0.11521649360656738 0.3965386748313904
0.4332551658153534 0.2085760086774826 0.5236727595329285
0.4558574855327606 0.25369781255722046 0.4207083582878113
0.3854127526283264 0.12192047387361526 0.48311156034469604
0.48204395174980164 0.10346906632184982 0.4213665723800659
0.37937864661216736 0.11763881891965866 0.4984755516052246
0.5253313183784485 0.20378507673740387 0.49572592973709106
0.5492077469825745 0.1703813523054123 0.521943211555481
0.3684101402759552 0.1717950999736786 0.5197353959083557
0.4218752086162567 0.1970125287771225 0.5184630155563354
0.42921024560928345 0.2370302975177765 0.4791133999824524
0.47776901721954346 0.16882765293121338 0.5353370904922485
0.4993495047092438 0.16901126503944397 0.6137375831604004
0.39333000779151917 0.13569651544094086 0.5364840626716614
0.4268210828304291 0.2218448370695114 0.4384942650794983
0.5024065971374512 0.12154239416122437 0.43747183680534363
0.47950828075408936 0.2025056928396225 0.6174580454826355
0.43694302439689636 0.22212083637714386 0.4664722681045532
0.4879578948020935 0.14845699071884155 0.4142047166824341
0.46099141240119934 0.1250566989183426 0.4032077491283417
0.5368611216545105 0.18848295509815216 0.5304306745529175
0.3911709189414978 0.16213743388652802 0.5987125039100647
0.36862868070602417 0.20532925426959991 0.48085054755210876
0.39530491828918457 0.1988958865404129 0.41351959109306335
0.4522641897201538 0.25680726766586304 0.4603319764137268
0.4967042803764343 0.10803020000457764 0.405020534992218
0.45343321561813354 0.18758781254291534 0.49613603949546814
0.40140920877456665 0.12453875690698624 0.5087445378303528
0.38128945231437683 0.19011376798152924 0.586155116558075
0.46077510714530945 0.10426550358533859 0.5077326893806458
0.5013810396194458 0.2407253086566925 0.5578218698501587
0.4149441421031952 0.1534152626991272 0.4595733880996704
0.4827423095703125 0.10189010202884674 0.6032580733299255
0.39872559905052185 0.10466364026069641 0.5923378467559814
0.5022889375686646 0.27332431077957153 0.4302482306957245
0.45749667286872864 0.1157793253660202 0.49212583899497986
0.4342847168445587 0.1844000518321991 0.5341798067092896
0.5442367196083069 0.16855992376804352 0.4227229058742523
0.4644447863101959 0.12546773254871368 0.4674651324748993
0.48788633942604065 0.1996215581893921 0.44853729009628296
0.42708924412727356 0.2170334756374359 0.5995381474494934
0.38323116302490234 0.19394846260547638 0.40598002076148987
0.4042818248271942 0.20272628962993622 0.44116151332855225
0.4661943316459656 0.2571347653865814 0.45476099848747253
0.5005437135696411 0.19381864368915558 0.4859519600868225
0.40792953968048096 0.12448826432228088 0.505066990852356
0.4943206310272217 0.12888875603675842 0.506765604019165
0.41134846210479736 0.11233668029308319 0.5353091359138489
0.46015629172325134 0.19890540838241577 0.4322194755077362
0.3943973779678345 0.15837854146957397 0.5266189575195312
0.38783693313598633 0.15039366483688354 0.5591333508491516
0.46108025312423706 0.12615609169006348 0.5868802666664124
0.5393315553665161 0.1574580818414688 0.5127618908882141
0.4292752146720886 0.1739499419927597 0.4893457591533661
0.5394848585128784 0.1198623776435852 0.47751569747924805
0.45627039670944214 0.12091659754514694 0.40633735060691833
0.4925232529640198 0.28095167875289917 0.46064499020576477
0.5575321316719055 0.17903614044189453 0.46292823553085327
0.45263412594795227 0.2118956297636032 0.5480660200119019
0.4721376299858093 0.21099643409252167 0.41584643721580505
0.4704132378101349 0.1793290227651596 0.4404282867908478
0.41348928213119507 0.1056632325053215 0.5272998809814453
0.5315741896629333 0.20399412512779236 0.5432661175727844
0.4669948220252991 0.1032639816403389 0.40083834528923035
0.5089094042778015 0.21470411121845245 0.4309810698032379
0.3575572073459625 0.1772790253162384 0.47688862681388855
0.36120665073394775 0.1554621011018753 0.4382404685020447
0.5307106375694275 0.14753222465515137 0.44713935256004333
0.5324575901031494 0.18765367567539215 0.4233483672142029
0.4542118310928345 0.22113052010536194 0.5073026418685913
0.46375054121017456 0.21495777368545532 0.6061322689056396
0.40112271904945374 0.1637129932641983 0.42851507663726807
0.4994978606700897 0.205946683883667 0.4980165660381317
0.39910292625427246 0.15154105424880981 0.5405424237251282
0.5591911673545837 0.13101166486740112 0.6131762862205505
0.42884454131126404 0.10721980780363083 0.455916166305542
0.4712195098400116 0.21084634959697723 0.4916357100009918
0.47093281149864197 0.10086530447006226 0.4912550747394562
0.4990517795085907 0.11599376052618027 0.514490008354187
0.5004547834396362 0.13562171161174774 0.5895524621009827
0.4756186008453369 0.20399266481399536 0.6133660674095154
0.45924144983291626 0.2442864328622818 0.5611627101898193
0.509769082069397 0.1915021687746048 0.5397444367408752
0.3772713840007782 0.17106877267360687 0.5144098401069641
0.47132256627082825 0.22910258173942566 0.6123497486114502
0.4708194434642792 0.13972057402133942 0.5498587489128113
0.46764305233955383 0.2627425491809845 0.6029456853866577
0.45946425199508667 0.23145203292369843 0.44944873452186584
0.3788582980632782 0.12940917909145355 0.5765272974967957
0.3488551378250122 0.16644981503486633 0.5686067938804626
0.45307499170303345 0.19815193116664886 0.5821810364723206
0.5675711631774902 0.13471192121505737 0.47272250056266785
0.40973320603370667 0.13936759531497955 0.4575311541557312
0.44385653734207153 0.14817708730697632 0.5467467904090881
0.4796084463596344 0.2157636433839798 0.5982592701911926
0.45841777324676514 0.27528196573257446 0.5035789012908936
0.5036466121673584 0.18428264558315277 0.4471682012081146
0.37688711285591125 0.15153898298740387 0.39662879705429077
0.42225632071495056 0.18731950223445892 0.4859437644481659
0.4306431710720062 0.18340128660202026 0.4736234247684479
0.551542341709137 0.18688827753067017 0.5272483229637146
0.44842594861984253 0.11739099770784378 0.5964368581771851
0.44861310720443726 0.13923202455043793 0.5794578194618225
0.42943015694618225 0.22940130531787872 0.4296133816242218
0.4721376299858093 0.21099643409252167 0.41584643721580505
0.4704132378101349 0.1793290227651596 0.4404282867908478
0.41348928213119507 0.1056632325053215 0.5272998809814453
0.5315741896629333 0.20399412512779236 0.5432661175727844
0.4669948220252991 0.1032639816403389 0.40083834528923035
0.4958086907863617 0.24504761397838593 0.44742336869239807
0.3575572073459625 0.1772790253162384 0.47688862681388855
0.36120665073394775 0.1554621011018753 0.4382404685020447
0.5307106375694275 0.14753222465515137 0.44713935256004333
0.5324575901031494 0.18765367567539215 0.4233483672142029
0.4542118310928345 0.22113052010536194 0.5073026418685913
0.46375054121017456 0.21495777368545532 0.6061322689056396
0.40112271904945374 0.1637129932641983 0.42851507663726807
0.4994978606700897 0.205946683883667 0.4980165660381317
0.39910292625427246 0.15154105424880981 0.5405424237251282
0.5591911673545837 0.13101166486740112 0.6131762862205505
0.42884454131126404 0.10721980780363083 0.455916166305542
0.4712195098400116 0.21084634959697723 0.4916357100009918
0.43662598729133606 0.18269522488117218 0.5991981029510498
0.448738694190979 0.23849669098854065 0.5422503352165222
0.4084983170032501 0.1754467487335205 0.4717187285423279
0.3708902895450592 0.17658264935016632 0.5929555296897888
0.5322023630142212 0.12891514599323273 0.4221303164958954
0.5033106803894043 0.1479092389345169 0.41461214423179626
0.49799850583076477 0.12470246106386185 0.5909690856933594
0.47832098603248596 0.16842322051525116 0.5162457823753357
0.36440128087997437 0.14370553195476532 0.455763578414917
0.4678381383419037 0.15733474493026733 0.5902801156044006
0.3908524513244629 0.1632440984249115 0.5280821919441223
0.4749682545661926 0.1445159912109375 0.4740666449069977
0.3812970817089081 0.1674947887659073 0.4747706651687622
0.3656346797943115 0.16436241567134857 0.548819363117218
0.38025927543640137 0.13264936208724976 0.5604034662246704
0.4331064522266388 0.23288846015930176 0.601428747177124
0.4705744981765747 0.11113786697387695 0.5163407325744629
0.44893112778663635 0.26270443201065063 0.5360320806503296
0.37001973390579224 0.16705775260925293 0.5499130487442017
0.4335213899612427 0.11357427388429642 0.4020932614803314
0.5061832070350647 0.19740262627601624 0.47434118390083313
0.5029271245002747 0.1817895472049713 0.5602425932884216
0.4397655129432678 0.21542511880397797 0.5887521505355835
0.48009002208709717 0.27669602632522583 0.5205140709877014
0.5029126405715942 0.10370267182588577 0.560454785823822
0.3943973779678345 0.15837854146957397 0.5266189575195312
0.38783693313598633 0.15039366483688354 0.5591333508491516
0.46108025312423706 0.12615609169006348 0.5868802666664124
0.5393315553665161 0.1574580818414688 0.5127618908882141
0.4292752146720886 0.1739499419927597 0.4893457591533661
0.5394848585128784 0.1198623776435852 0.47751569747924805
0.45627039670944214 0.12091659754514694 0.40633735060691833
0.5259255766868591 0.1114090234041214 0.5751884579658508
0.43534067273139954 0.21091192960739136 0.6024444103240967
0.4913260340690613 0.16830192506313324 0.5431099534034729
0.40090078115463257 0.18925894796848297 0.5600191354751587
0.49584001302719116 0.1653755009174347 0.4379313290119171
0.37312549352645874 0.13468189537525177 0.5500613451004028
0.4537885785102844 0.11521649360656738 0.3965386748313904
0.4108296036720276 0.23579201102256775 0.5236069560050964
0.44934576749801636 0.1423959583044052 0.5402828454971313
0.42395704984664917 0.11096186935901642 0.41308102011680603
0.3989700675010681 0.18241862952709198 0.5269896984100342
0.5576987266540527 0.15771432220935822 0.4353106617927551
0.4179289937019348 0.1679755449295044 0.4429261386394501
0.4807140529155731 0.13283278048038483 0.48038122057914734
0.3954266905784607 0.12809689342975616 0.5266361832618713
0.49173682928085327 0.21909981966018677 0.5330074429512024
0.49720218777656555 0.16788674890995026 0.40613415837287903
0.40322548151016235 0.16827653348445892 0.5881629586219788
0.3872627913951874 0.12558437883853912 0.4685797095298767
0.5119803547859192 0.1290561705827713 0.44495654106140137
0.38973867893218994 0.1581226885318756 0.5070973634719849
0.46519237756729126 0.10206213593482971 0.5276467204093933
0.5586906671524048 0.15331993997097015 0.5648088455200195
0.39333000779151917 0.13569651544094086 0.5364840626716614
0.4268210828304291 0.2218448370695114 0.4384942650794983
0.5024065971374512 0.12154239416122437 0.43747183680534363
0.47950828075408936 0.2025056928396225 0.6174580454826355
0.43694302439689636 0.22212083637714386 0.4664722681045532
0.4879578948020935 0.14845699071884155 0.4142047166824341
0.46099141240119934 0.1250566989183426 0.4032077491283417
0.5368611216545105 0.18848295509815216 0.5304306745529175
0.3911709189414978 0.16213743388652802 0.5987125039100647
0.4514702260494232 0.1680075079202652 0.5464181303977966
0.3789483308792114 0.18285270035266876 0.5032222867012024
0.4302705228328705 0.15299886465072632 0.4147697985172272
0.41550740599632263 0.15177221596240997 0.5108652710914612
0.46141400933265686 0.2331089973449707 0.5162093043327332
0.4451826512813568 0.12129530310630798 0.5531986951828003
0.33670708537101746 0.14943651854991913 0.4756455719470978
0.4099721312522888 0.24257557094097137 0.4881080389022827
0.4640037715435028 0.12467138469219208 0.5269601941108704
0.39928433299064636 0.11108475923538208 0.5257932543754578
0.4738086760044098 0.2869403660297394 0.43476057052612305
0.4438319504261017 0.20262964069843292 0.4481870234012604
0.44495683908462524 0.19146917760372162 0.44338029623031616
0.38673001527786255 0.12966468930244446 0.47242745757102966
0.5716169476509094 0.16934719681739807 0.46655774116516113
0.5142250657081604 0.10652127861976624 0.47223636507987976
0.40409356355667114 0.1824687272310257 0.48066502809524536
0.3830263912677765 0.2252555638551712 0.4586215019226074
0.3649213910102844 0.15796053409576416 0.521420419216156
0.4350343942642212 0.2264072597026825 0.49515941739082336
0.4662958085536957 0.13474105298519135 0.3936348259449005
0.4135341942310333 0.10328677296638489 0.5589439868927002
0.48207345604896545 0.2816278338432312 0.5361710786819458
0.41030409932136536 0.19184979796409607 0.504335880279541
0.49298590421676636 0.22314393520355225 0.42382362484931946
0.5158776044845581 0.219984769821167 0.4716282784938812
0.47801080346107483 0.2404962182044983 0.5767050385475159
0.3779350817203522 0.1535017490386963 0.4105004072189331
0.37632834911346436 0.17049895226955414 0.5876928567886353
0.5745596885681152 0.15092357993125916 0.4353434443473816
0.5616710186004639 0.18829768896102905 0.45430001616477966
0.3761465847492218 0.1953708827495575 0.583825945854187
0.39966824650764465 0.10527411848306656 0.5937435626983643
0.41348928213119507 0.1056632325053215 0.5272998809814453
0.5315741896629333 0.20399412512779236 0.5432661175727844
0.4669948220252991 0.1032639816403389 0.40083834528923035
0.5089094042778015 0.21470411121845245 0.4309810698032379
0.3575572073459625 0.1772790253162384 0.47688862681388855
0.36120665073394775 0.1554621011018753 0.4382404685020447
0.5307106375694275 0.14753222465515137 0.44713935256004333
0.5324575901031494 0.18765367567539215 0.4233483672142029
0.4542118310928345 0.22113052010536194 0.5073026418685913
0.46375054121017456 0.21495777368545532 0.6061322689056396
0.40112271904945374 0.1637129932641983 0.42851507663726807
0.40112271904945374 0.1637129932641983 0.42851507663726807
0.4994978606700897 0.205946683883667 0.4980165660381317
0.39910292625427246 0.15154105424880981 0.5405424237251282
0.5591911673545837 0.13101166486740112 0.6131762862205505
0.42884454131126404 0.10721980780363083 0.455916166305542
0.4712195098400116 0.21084634959697723 0.4916357100009918
0.47093281149864197 0.10086530447006226 0.4912550747394562
0.4990517795085907 0.11599376052618027 0.514490008354187
0.5004547834396362 0.13562171161174774 0.5895524621009827
0.41366997361183167 0.2370622158050537 0.5838854908943176
0.45048362016677856 0.20871137082576752 0.5929965376853943
0.4756186008453369 0.20399266481399536 0.6133660674095154
0.45924144983291626 0.2442864328622818 0.5611627101898193
0.509769082069397 0.1915021687746048 0.5397444367408752
0.3772713840007782 0.17106877267360687 0.5144098401069641
0.47132256627082825 0.22910258173942566 0.6123497486114502
0.4708194434642792 0.13972057402133942 0.5498587489128113
0.46764305233955383 0.2627425491809845 0.6029456853866577
0.4670451879501343 0.1143588274717331 0.37905046343803406
0.4510481357574463 0.11607357859611511 0.5329254269599915
0.4164433777332306 0.13221831619739532 0.4666440486907959
0.4708194434642792 0.13972057402133942 0.5498587489128113
0.46764305233955383 0.2627425491809845 0.6029456853866577
0.4670451879501343 0.1143588274717331 0.37905046343803406
0.4510481357574463 0.11607357859611511 0.5329254269599915
0.4773816168308258 0.11214200407266617 0.46658605337142944
0.43534067273139954 0.21091192960739136 0.6024444103240967
0.4913260340690613 0.16830192506313324 0.5431099534034729
0.40090078115463257 0.18925894796848297 0.5600191354751587
0.49584001302719116 0.1653755009174347 0.4379313290119171
0.37312549352645874 0.13468189537525177 0.5500613451004028
0.4537885785102844 0.11521649360656738 0.3965386748313904
0.47246435284614563 0.11922623217105865 0.5727698802947998
0.4121784269809723 0.11666388064622879 0.5354903936386108
0.47909337282180786 0.2945762276649475 0.42661115527153015
0.448738694190979 0.23849669098854065 0.5422503352165222
0.4084983170032501 0.1754467487335205 0.4717187285423279
0.535596489906311 0.1256566047668457 0.4077966809272766
0.48627910017967224 0.1373533010482788 0.49193134903907776
0.5149458050727844 0.1320817619562149 0.614517867565155
0.49507057666778564 0.2145330011844635 0.42796528339385986
0.4300844967365265 0.2600035071372986 0.44859209656715393
0.41323983669281006 0.18189513683319092 0.4855930507183075
0.46889322996139526 0.11541645973920822 0.40279892086982727
0.40067237615585327 0.20091001689434052 0.4160132110118866
0.46702316403388977 0.26102888584136963 0.5191218256950378
0.41234737634658813 0.11552347987890244 0.5215438008308411
0.4014310836791992 0.1931031495332718 0.41978275775909424
0.46096140146255493 0.21847029030323029 0.4882926344871521
0.4664136469364166 0.1854856312274933 0.5429338216781616
0.5266072154045105 0.14851124584674835 0.4276318848133087
0.43924185633659363 0.22063712775707245 0.5114616751670837
0.4510481357574463 0.11607357859611511 0.5329254269599915
0.4913260340690613 0.16830192506313324 0.5431099534034729
0.40090078115463257 0.18925894796848297 0.5600191354751587
0.49584001302719116 0.1653755009174347 0.4379313290119171
0.37312549352645874 0.13468189537525177 0.5500613451004028
0.4537885785102844 0.11521649360656738 0.3965386748313904
0.47246435284614563 0.11922623217105865 0.5727698802947998
0.4712354242801666 0.2080933004617691 0.48932766914367676
0.44590529799461365 0.11869199573993683 0.4252668023109436
0.5675544142723083 0.15477876365184784 0.5592929124832153
0.47448867559432983 0.11015042662620544 0.41018539667129517
0.4071315824985504 0.11086954921483994 0.5242331027984619
0.5585609674453735 0.15432500839233398 0.5223518013954163
0.41943106055259705 0.12392015755176544 0.5711976885795593
0.5583959817886353 0.1701183021068573 0.5352848768234253
0.5153501033782959 0.16007520258426666 0.4927636682987213
0.4715558886528015 0.11327563971281052 0.4034218490123749
0.42537572979927063 0.11182654649019241 0.47423696517944336
0.3583100736141205 0.17228558659553528 0.5209125280380249
0.4703814685344696 0.22718141973018646 0.4229964017868042
0.4817478060722351 0.22595249116420746 0.5267158150672913
0.41656574606895447 0.2072051614522934 0.5297449231147766
0.5340752005577087 0.16801606118679047 0.4728771150112152
0.4245177209377289 0.17099708318710327 0.5490166544914246
0.5178648233413696 0.1807270497083664 0.5245423316955566
0.4566590487957001 0.13234707713127136 0.4324542284011841
0.3685019612312317 0.14069053530693054 0.5869289636611938
0.4031159281730652 0.1658824235200882 0.44774937629699707
0.4705806374549866 0.10593489557504654 0.42800962924957275
0.5225111246109009 0.18476314842700958 0.5530081391334534
0.5420086979866028 0.16539223492145538 0.5770547986030579
0.49660101532936096 0.1333824098110199 0.39600372314453125
0.4773816168308258 0.11214200407266617 0.46658605337142944
0.43534067273139954 0.21091192960739136 0.6024444103240967
0.4913260340690613 0.16830192506313324 0.5431099534034729
0.40090078115463257 0.18925894796848297 0.5600191354751587
0.49584001302719116 0.1653755009174347 0.4379313290119171
0.37312549352645874 0.13468189537525177 0.5500613451004028
0.3789483308792114 0.18285270035266876 0.5032222867012024
0.5719544887542725 0.1501169055700302 0.4132821559906006
0.41495421528816223 0.16132241487503052 0.5175821781158447
0.4973522424697876 0.11447861790657043 0.4952826201915741
0.38958507776260376 0.17309537529945374 0.5375983715057373
0.38163620233535767 0.1484294980764389 0.5547400116920471
0.4456770718097687 0.235453262925148 0.5165985226631165
0.44857722520828247 0.10792428255081177 0.5989710688591003
0.475455105304718 0.19444431364536285 0.4831710755825043
0.43302491307258606 0.1945156753063202 0.44239217042922974
0.4953542649745941 0.1620289534330368 0.5159214735031128
0.4397193193435669 0.17249462008476257 0.40663138031959534
0.5007997155189514 0.10834150016307831 0.44975465536117554
0.3606922924518585 0.16023321449756622 0.4035107493400574
0.4205890893936157 0.1893562376499176 0.4905984401702881
0.5337489247322083 0.15078270435333252 0.49027684330940247
0.5567825436592102 0.17921462655067444 0.4968945384025574
0.4924103617668152 0.16625359654426575 0.5022788643836975
0.5105745196342468 0.15386076271533966 0.5265958309173584
0.506985068321228 0.1295735090970993 0.4590819180011749
0.428569495677948 0.11011263728141785 0.576959490776062
0.3991572856903076 0.12878486514091492 0.5111342668533325
0.3779350817203522 0.1535017490386963 0.4105004072189331
0.5266051292419434 0.142592653632164 0.5924577116966248
0.5595324635505676 0.17468740046024323 0.4648623466491699
0.365020215511322 0.19883207976818085 0.5306531190872192
0.4570924639701843 0.1597377359867096 0.5851643085479736
0.48788633942604065 0.1996215581893921 0.44853729009628296
0.42708924412727356 0.2170334756374359 0.5995381474494934
0.38323116302490234 0.19394846260547638 0.40598002076148987
0.4042818248271942 0.20272628962993622 0.44116151332855225
0.4661943316459656 0.2571347653865814 0.45476099848747253
0.5005437135696411 0.19381864368915558 0.4859519600868225
0.40792953968048096 0.12448826432228088 0.505066990852356
0.4943206310272217 0.12888875603675842 0.506765604019165
0.4810154139995575 0.26261571049690247 0.4293513894081116
0.517291784286499 0.16273875534534454 0.5195552110671997
0.47664371132850647 0.22719208896160126 0.5992555022239685
0.3906875252723694 0.17475983500480652 0.4448731541633606
0.44170013070106506 0.1260250061750412 0.4341077208518982
0.5721333026885986 0.171294167637825 0.47185927629470825
0.45162543654441833 0.1933489739894867 0.5075260996818542
0.4820407032966614 0.16379891335964203 0.5718162059783936
0.3779350817203522 0.1535017490386963 0.4105004072189331
0.37632834911346436 0.17049895226955414 0.5876928567886353
0.5745596885681152 0.15092357993125916 0.4353434443473816
0.3691495656967163 0.1861107051372528 0.40710097551345825
0.34681329131126404 0.15433746576309204 0.5705344676971436
0.5189412236213684 0.18589533865451813 0.48642706871032715
0.43687349557876587 0.12592589855194092 0.6008768677711487
0.420350044965744 0.18958339095115662 0.5192490220069885
0.411933034658432 0.12807321548461914 0.47913357615470886
0.4717515707015991 0.2168562412261963 0.41821181774139404
0.48620501160621643 0.12038373202085495 0.43343326449394226
0.568878173828125 0.13995657861232758 0.4829077422618866
0.4646778702735901 0.21250073611736298 0.42416608333587646
0.4143933653831482 0.1347389966249466 0.46845459938049316
0.5128059983253479 0.1257653534412384 0.5408000349998474
0.3673422932624817 0.16270262002944946 0.40491923689842224
0.5263329744338989 0.1639871746301651 0.4760701060295105
0.4530598521232605 0.18640896677970886 0.46243688464164734
0.5429744124412537 0.16138522326946259 0.45734310150146484
0.513053834438324 0.1746458113193512 0.44400283694267273
0.5174965858459473 0.1510201245546341 0.445580393075943
0.3492800295352936 0.1820061355829239 0.43862274289131165
0.4086589515209198 0.12296266108751297 0.47270217537879944
0.35648098587989807 0.15740935504436493 0.4765389859676361
0.4423028230667114 0.09923913329839706 0.5027762651443481
0.4137415885925293 0.16558566689491272 0.5342671871185303
0.3649274408817291 0.15469728410243988 0.4206809997558594
0.4442419707775116 0.2292802333831787 0.5604280829429626
0.5210869312286377 0.23745138943195343 0.4467182755470276
0.5509940981864929 0.1653357744216919 0.5752722024917603
0.4641372561454773 0.19391374289989471 0.5028135776519775
0.49865126609802246 0.10596467554569244 0.42438894510269165
0.4107222259044647 0.13351735472679138 0.4592815041542053
0.5128059983253479 0.1257653534412384 0.5408000349998474
0.5009521245956421 0.21846403181552887 0.590671956539154
0.3800274431705475 0.1350172609090805 0.43576985597610474
0.49738970398902893 0.1614701896905899 0.4923977255821228
0.48548564314842224 0.1929054707288742 0.5543001294136047
0.46030503511428833 0.17281487584114075 0.48861995339393616
0.5372220277786255 0.18947362899780273 0.46285000443458557
0.4342077374458313 0.12559156119823456 0.4220861792564392
0.36684367060661316 0.126924529671669 0.5483452081680298
0.39767125248908997 0.234209343791008 0.6019550561904907
0.43023601174354553 0.1680457442998886 0.5438374280929565
0.493319034576416 0.24817031621932983 0.5738268494606018
0.40753161907196045 0.23060469329357147 0.5895868539810181
0.46226972341537476 0.1350400149822235 0.49115079641342163
0.4443357288837433 0.20837685465812683 0.4879903495311737
0.5149843692779541 0.16399551928043365 0.46822378039360046
0.5723755955696106 0.15898913145065308 0.6249397993087769
0.4925232529640198 0.28095167875289917 0.46064499020576477
0.5575321316719055 0.17903614044189453 0.46292823553085327
0.5719767212867737 0.16663867235183716 0.4626730680465698
0.47702741622924805 0.16024483740329742 0.5334048271179199
0.45303115248680115 0.24788112938404083 0.4712772071361542
0.46192145347595215 0.26808199286460876 0.44341132044792175
0.43290066719055176 0.13088080286979675 0.596394956111908
0.5004458427429199 0.2363925278186798 0.4583457112312317
0.4218798577785492 0.10520371049642563 0.5847477316856384
0.41107991337776184 0.16244210302829742 0.43598616123199463
0.3624926805496216 0.13196130096912384 0.5582388043403625
0.565618634223938 0.168290376663208 0.4986017942428589
0.34179002046585083 0.17544303834438324 0.4470002055168152
0.42897993326187134 0.1694059669971466 0.5266368985176086
0.4645015299320221 0.1903028041124344 0.5178601741790771
0.5392416715621948 0.11625585705041885 0.4398794174194336
0.4748366177082062 0.24960149824619293 0.4527758061885834
0.499737948179245 0.23679690062999725 0.5493146181106567
0.5226375460624695 0.16140764951705933 0.46989551186561584
0.507500410079956 0.14918206632137299 0.5031113624572754
0.44376492500305176 0.19118162989616394 0.4145625829696655
0.37727680802345276 0.1732921600341797 0.5079028606414795
0.4437296688556671 0.16084855794906616 0.5791046619415283
0.4663684666156769 0.15416891872882843 0.5236564874649048
0.3603002727031708 0.20396962761878967 0.5425636768341064
0.44680511951446533 0.2701209783554077 0.45719289779663086
0.4432052671909332 0.17487601935863495 0.6000354290008545
0.39361560344696045 0.20800289511680603 0.4791625440120697
0.4492308497428894 0.25634509325027466 0.5583114624023438
0.5575321316719055 0.17903614044189453 0.46292823553085327
0.4102359116077423 0.17996746301651 0.5164103507995605
0.3854959309101105 0.17472317814826965 0.4489811956882477
0.5265660881996155 0.16061392426490784 0.4572853744029999
0.379086434841156 0.12210649251937866 0.46853137016296387
0.4209635257720947 0.1353544443845749 0.512230396270752
0.5014821290969849 0.12112479656934738 0.5805907249450684
0.5130138397216797 0.19617073237895966 0.5837157368659973
0.476786345243454 0.1668202430009842 0.4814075827598572
0.4629703462123871 0.2162085771560669 0.4308801591396332
0.5488202571868896 0.16897577047348022 0.6050822138786316
0.49580466747283936 0.10393717885017395 0.4803473949432373
0.42727574706077576 0.12390457838773727 0.41454964876174927
0.34928569197654724 0.1670939028263092 0.4169817566871643
0.5332805514335632 0.13642556965351105 0.48609593510627747
0.5449050068855286 0.1253359615802765 0.5329328179359436
0.5183358192443848 0.22290664911270142 0.4593581259250641
0.4659143388271332 0.10902750492095947 0.4139308035373688
0.3800274431705475 0.1350172609090805 0.43576985597610474
0.4492308497428894 0.25634509325027466 0.5583114624023438
0.46030503511428833 0.17281487584114075 0.48861995339393616
0.5372220277786255 0.18947362899780273 0.46285000443458557
0.4342077374458313 0.12559156119823456 0.4220861792564392
0.36684367060661316 0.126924529671669 0.5483452081680298
0.4065421521663666 0.14286020398139954 0.5516429543495178
0.48723652958869934 0.21255171298980713 0.4203912913799286
0.4415644407272339 0.13344228267669678 0.5423192977905273
0.41781094670295715 0.11110106110572815 0.5163763761520386
0.4213763177394867 0.2291819006204605 0.5249038338661194
0.57377690076828 0.17455582320690155 0.42638370394706726
0.5130397081375122 0.15720637142658234 0.4124051034450531
0.38075923919677734 0.16392208635807037 0.4191158413887024
0.44000786542892456 0.10515955835580826 0.5516353249549866
0.3624926805496216 0.13196130096912384 0.5582388043403625
0.565618634223938 0.168290376663208 0.4986017942428589
0.34179002046585083 0.17544303834438324 0.4470002055168152
0.42897993326187134 0.1694059669971466 0.5266368985176086
0.4645015299320221 0.1903028041124344 0.5178601741790771
0.5392416715621948 0.11625585705041885 0.4398794174194336
0.4748366177082062 0.24960149824619293 0.4527758061885834
0.499737948179245 0.23679690062999725 0.5493146181106567
0.5226375460624695 0.16140764951705933 0.46989551186561584
0.5591452121734619 0.15730039775371552 0.4401811957359314
0.4710536599159241 0.101563461124897 0.5138656497001648
0.44038158655166626 0.15314596891403198 0.5060585141181946
0.45788872241973877 0.10064269602298737 0.5684739351272583
0.3908866345882416 0.19731970131397247 0.5016024708747864
0.4216086268424988 0.16831375658512115 0.5106797218322754
0.40625250339508057 0.23842978477478027 0.5078908801078796
0.5130115151405334 0.13400748372077942 0.4413395822048187
0.4183333218097687 0.22190940380096436 0.5916159749031067
0.48161378502845764 0.1492002010345459 0.4179909825325012
0.47562330961227417 0.19373348355293274 0.45294278860092163
0.38718727231025696 0.12471909075975418 0.5126408338546753
0.556147038936615 0.14156682789325714 0.4786595404148102
0.5062494874000549 0.1842193603515625 0.46369946002960205
0.5221119523048401 0.1940721869468689 0.521263599395752
0.48285186290740967 0.2642931342124939 0.5228493213653564
0.5176470279693604 0.14712129533290863 0.5142902731895447
0.3987562358379364 0.23350860178470612 0.5054999589920044
0.44868582487106323 0.12509764730930328 0.3905705213546753
0.45273178815841675 0.11356546729803085 0.5694634318351746
0.3614165782928467 0.20287765562534332 0.4744677245616913
0.5039480924606323 0.23287518322467804 0.6091868281364441
0.5575321316719055 0.17903614044189453 0.46292823553085327
0.3624926805496216 0.13196130096912384 0.5582388043403625
0.565618634223938 0.168290376663208 0.4986017942428589
0.34179002046585083 0.17544303834438324 0.4470002055168152
0.42897993326187134 0.1694059669971466 0.5266368985176086
0.4645015299320221 0.1903028041124344 0.5178601741790771
0.5392416715621948 0.11625585705041885 0.4398794174194336
0.4748366177082062 0.24960149824619293 0.4527758061885834
0.499737948179245 0.23679690062999725 0.5493146181106567
0.5226375460624695 0.16140764951705933 0.46989551186561584
0.507500410079956 0.14918206632137299 0.5031113624572754
0.44376492500305176 0.19118162989616394 0.4145625829696655
0.37727680802345276 0.1732921600341797 0.5079028606414795
0.4437296688556671 0.16084855794906616 0.5791046619415283
0.4663684666156769 0.15416891872882843 0.5236564874649048
0.3603002727031708 0.20396962761878967 0.5425636768341064
0.44680511951446533 0.2701209783554077 0.45719289779663086
0.4432052671909332 0.17487601935863495 0.6000354290008545
0.39361560344696045 0.20800289511680603 0.4791625440120697
0.4492308497428894 0.25634509325027466 0.5583114624023438
0.46030503511428833 0.17281487584114075 0.48861995339393616
0.5372220277786255 0.18947362899780273 0.46285000443458557
0.4342077374458313 0.12559156119823456 0.4220861792564392
0.36684367060661316 0.126924529671669 0.5483452081680298
0.4065421521663666 0.14286020398139954 0.5516429543495178
0.48723652958869934 0.21255171298980713 0.4203912913799286
0.4415644407272339 0.13344228267669678 0.5423192977905273
0.4921191930770874 0.10845968872308731 0.5902859568595886
0.4842073619365692 0.23503132164478302 0.5818850994110107
0.5056818127632141 0.18517561256885529 0.5465091466903687
0.4125469923019409 0.11906307190656662 0.43019208312034607
0.452997088432312 0.269417405128479 0.5123862028121948
0.46165159344673157 0.11976062506437302 0.5983796119689941
0.3624926805496216 0.13196130096912384 0.5582388043403625
0.41811421513557434 0.16968077421188354 0.5028373599052429
0.34702274203300476 0.15275214612483978 0.4147774577140808
0.34507015347480774 0.18713217973709106 0.4112815856933594
0.38242730498313904 0.15713605284690857 0.5384947061538696
0.4440339207649231 0.2590833902359009 0.5679125189781189
0.4683775305747986 0.09929172694683075 0.5551528334617615
0.4696561098098755 0.09919745475053787 0.5519202947616577
0.5606659054756165 0.1481555700302124 0.44417673349380493
0.4708731174468994 0.1830228567123413 0.6132088899612427
0.47564640641212463 0.29161781072616577 0.45051994919776917
0.36091139912605286 0.16923679411411285 0.4389444887638092
0.5109125375747681 0.14462457597255707 0.4252745807170868
0.49351683259010315 0.11713218688964844 0.48268646001815796
0.45062455534935 0.21208076179027557 0.4896937906742096
0.4235113859176636 0.11016520857810974 0.5102548599243164
0.5279855728149414 0.11910954117774963 0.4929453134536743
0.45042240619659424 0.11606833338737488 0.5000403523445129
0.39767125248908997 0.234209343791008 0.6019550561904907
0.36999043822288513 0.12019165605306625 0.4956485331058502
0.5335121750831604 0.21287719905376434 0.43459656834602356
0.47500455379486084 0.22633612155914307 0.4255254566669464
0.4187726080417633 0.11391770094633102 0.4091786742210388
0.3963240087032318 0.22329488396644592 0.4626336693763733
0.40027597546577454 0.17140132188796997 0.4122208058834076
0.4546332061290741 0.19450169801712036 0.5042896866798401
0.45616641640663147 0.1294078677892685 0.4069031774997711
0.4846686124801636 0.20220302045345306 0.4851289689540863
0.4840811491012573 0.1249244436621666 0.5394431948661804
0.45005977153778076 0.23057641088962555 0.5216206908226013
0.4964792728424072 0.11769247055053711 0.5043675303459167
0.45303115248680115 0.24788112938404083 0.4712772071361542
0.44006526470184326 0.266908198595047 0.45408597588539124
0.46497881412506104 0.17985451221466064 0.4134007394313812
0.42927566170692444 0.1736070215702057 0.501222550868988
0.4044857323169708 0.141081303358078 0.4383651912212372
0.474556028842926 0.15229636430740356 0.47617411613464355
0.35207122564315796 0.18825621902942657 0.42457932233810425
0.46911296248435974 0.10184387862682343 0.44334694743156433
0.4616672694683075 0.16186605393886566 0.5770447254180908
0.43659117817878723 0.15451858937740326 0.534494936466217
0.4402088224887848 0.1617550253868103 0.5506517887115479
0.4934670329093933 0.1930861920118332 0.46750161051750183
0.4873718321323395 0.11654692888259888 0.456228107213974
0.5011138916015625 0.125977024435997 0.5640671253204346
0.4773871898651123 0.17937061190605164 0.6070755124092102
0.3520866930484772 0.16954705119132996 0.5176982283592224
0.48019909858703613 0.12399326264858246 0.524485170841217
0.5585500597953796 0.13906759023666382 0.5047284960746765
0.5031006336212158 0.10404069721698761 0.5248977541923523
0.4238947629928589 0.19990664720535278 0.5946284532546997
0.470449298620224 0.2562605142593384 0.5567828416824341
0.47355857491493225 0.12335444241762161 0.4373025596141815
0.3953928053379059 0.16655877232551575 0.4088875949382782
0.4011786878108978 0.197011798620224 0.4123995900154114
0.44556924700737 0.2089998424053192 0.5140566229820251
0.5476213693618774 0.17679502069950104 0.445248544216156
0.5289000868797302 0.12428252398967743 0.6012405753135681
0.4141086935997009 0.11410359293222427 0.5839768052101135
0.48977556824684143 0.11447706073522568 0.49506330490112305
0.5039038062095642 0.16086313128471375 0.49040716886520386
0.4616183042526245 0.2552238404750824 0.5536425113677979
0.3407633304595947 0.17179742455482483 0.46124428510665894
0.3991572856903076 0.12878486514091492 0.5111342668533325
0.5011706352233887 0.23462572693824768 0.5327697396278381
0.363626629114151 0.11811446398496628 0.5955333709716797
0.47846102714538574 0.2178739309310913 0.46115759015083313
0.46695494651794434 0.15388938784599304 0.5069272518157959
0.39074641466140747 0.20318163931369781 0.5716261863708496
0.514137327671051 0.11287925392389297 0.5384675860404968
0.5580463409423828 0.16936984658241272 0.4486406147480011
0.44394388794898987 0.12343985587358475 0.520443856716156
0.4409652054309845 0.20757338404655457 0.5711187720298767
0.41201749444007874 0.23202115297317505 0.5735340118408203
0.5039875507354736 0.22988955676555634 0.5768108367919922
0.5143448114395142 0.182091623544693 0.4617634415626526
0.4936092495918274 0.25225597620010376 0.47045934200286865
0.3399728536605835 0.16441881656646729 0.4472663104534149
0.5186181664466858 0.11810120940208435 0.4504576027393341
0.5076128840446472 0.22986668348312378 0.4669642746448517
0.5021650195121765 0.22528085112571716 0.5825680494308472
0.48929452896118164 0.10857963562011719 0.3816419243812561
0.48745042085647583 0.12509745359420776 0.5529640913009644
0.4275612235069275 0.23998670279979706 0.5787524580955505
0.4161714017391205 0.1119057908654213 0.5638284683227539
0.42611414194107056 0.2591761350631714 0.4563702940940857
0.41892892122268677 0.1692238301038742 0.49385252594947815
0.5614691376686096 0.17349666357040405 0.5683627128601074
0.47902554273605347 0.2211434543132782 0.545457661151886
0.5275149345397949 0.11254236847162247 0.5841181874275208
0.40066438913345337 0.11031090468168259 0.5422282814979553
0.36000296473503113 0.1630379855632782 0.40586602687835693
0.394161581993103 0.1544930636882782 0.5336745977401733
0.393038809299469 0.15083913505077362 0.4832233488559723
0.41811782121658325 0.12514628469944 0.5039269328117371
0.3779350817203522 0.1535017490386963 0.4105004072189331
0.4925001859664917 0.22406654059886932 0.6066305637359619
0.41714274883270264 0.13317430019378662 0.38911861181259155
0.5260505676269531 0.2366177886724472 0.46662822365760803
0.4808572828769684 0.1839633733034134 0.5674319267272949
0.43510758876800537 0.2493472397327423 0.48937341570854187
0.5556851625442505 0.12491370737552643 0.40918171405792236
0.4595750868320465 0.19496148824691772 0.5180445909500122
0.5259811878204346 0.14631007611751556 0.6022729873657227
0.5716643929481506 0.1714291274547577 0.46793532371520996
0.4179903268814087 0.11222167313098907 0.5393676161766052
0.5562930107116699 0.13614696264266968 0.5389105677604675
0.4425794184207916 0.17238250374794006 0.5517988801002502
0.46118491888046265 0.2622755169868469 0.6016345024108887
0.47562676668167114 0.10601916164159775 0.5374258756637573
0.4672594666481018 0.10326824337244034 0.5628011226654053
0.45930537581443787 0.21524718403816223 0.576819896697998
0.4107183814048767 0.20219099521636963 0.5899842381477356
0.5379834771156311 0.14831487834453583 0.5598787069320679
0.476422518491745 0.1531362533569336 0.5355223417282104
0.4904925227165222 0.14372731745243073 0.5538763403892517
0.5181959867477417 0.15575218200683594 0.603385865688324
0.361439049243927 0.20159512758255005 0.5974428653717041
0.5161301493644714 0.11730585247278214 0.5046364665031433
0.40778470039367676 0.15866786241531372 0.5063403844833374
0.5080713033676147 0.2032061368227005 0.4418394863605499
0.4475781321525574 0.19466246664524078 0.5511351227760315
0.37863147258758545 0.22568120062351227 0.4111229479312897
0.4902389347553253 0.22700414061546326 0.42453908920288086
0.42839372158050537 0.20612338185310364 0.5105244517326355
0.3759702444076538 0.19369451701641083 0.41709446907043457
0.528971254825592 0.19603528082370758 0.49616512656211853
0.4645015299320221 0.1903028041124344 0.5178601741790771
0.46030503511428833 0.17281487584114075 0.48861995339393616
0.5372220277786255 0.18947362899780273 0.46285000443458557
0.4342077374458313 0.12559156119823456 0.4220861792564392
0.36684367060661316 0.126924529671669 0.5483452081680298
0.4065421521663666 0.14286020398139954 0.5516429543495178
0.48723652958869934 0.21255171298980713 0.4203912913799286
0.5484848618507385 0.14033983647823334 0.5933199524879456
0.5687940120697021 0.16274181008338928 0.41501590609550476
0.4372137188911438 0.17128583788871765 0.5227586627006531
0.43426284193992615 0.12687763571739197 0.5530592799186707
0.4944254755973816 0.16882729530334473 0.4955265522003174
0.45435279607772827 0.20535586774349213 0.5556176900863647
0.4061053395271301 0.17522698640823364 0.5667625069618225
0.4442616403102875 0.1331929713487625 0.45575273036956787
0.5676498413085938 0.14181573688983917 0.5419033765792847
0.451903760433197 0.22142381966114044 0.4456232786178589
0.3332921266555786 0.1409788578748703 0.5813140273094177
0.41663894057273865 0.20979554951190948 0.4122791588306427
0.47011348605155945 0.20529679954051971 0.5062369704246521
0.496917724609375 0.1110103577375412 0.43133744597435
0.4471331238746643 0.11590492725372314 0.538743257522583
0.47363898158073425 0.15560977160930634 0.4772311747074127
0.522809624671936 0.1703481674194336 0.4771464467048645
0.38296136260032654 0.13891464471817017 0.5167644619941711
0.49010226130485535 0.21057666838169098 0.616658091545105
0.5188156366348267 0.10885944217443466 0.4841109812259674
0.4723902940750122 0.2632671296596527 0.5273023247718811
0.4718798100948334 0.12329702079296112 0.47071346640586853
0.4357044994831085 0.1579086035490036 0.4067298471927643
0.4174809753894806 0.2476271092891693 0.4352445602416992
0.47883176803588867 0.29539573192596436 0.4724341034889221
0.5593547821044922 0.16534674167633057 0.4499545097351074
0.4868832528591156 0.14385581016540527 0.5091901421546936
0.5484848618507385 0.14033983647823334 0.5933199524879456
0.5687940120697021 0.16274181008338928 0.41501590609550476
0.4372137188911438 0.17128583788871765 0.5227586627006531
0.42920440435409546 0.1459084153175354 0.5057490468025208
0.4520224630832672 0.25678929686546326 0.4534963071346283
0.49452051520347595 0.13292676210403442 0.4428509771823883
0.4988451600074768 0.2181163877248764 0.6234915256500244
0.42051565647125244 0.13659356534481049 0.4674038887023926
0.3933308720588684 0.19671113789081573 0.5228424668312073
0.44664275646209717 0.16868698596954346 0.5783082246780396
0.4684320390224457 0.2166464477777481 0.4566502869129181
0.3935031294822693 0.18458783626556396 0.46022164821624756
0.43671491742134094 0.14790742099285126 0.5889096260070801
0.4810575246810913 0.11556532979011536 0.42557090520858765
0.5003218054771423 0.127608060836792 0.6092011332511902
0.45573168992996216 0.19457007944583893 0.5024324059486389
0.48332634568214417 0.10491705685853958 0.5541855096817017
0.5228545069694519 0.15924395620822906 0.5623264908790588
0.46061620116233826 0.15277163684368134 0.46326202154159546
0.47561952471733093 0.14813318848609924 0.505082368850708
0.5302173495292664 0.16954870522022247 0.6163244843482971
0.478069543838501 0.2386167198419571 0.4560050964355469
0.42330455780029297 0.22500550746917725 0.574420154094696
0.53086256980896 0.1914910078048706 0.44920146465301514
0.4029747545719147 0.21804861724376678 0.5622433423995972
0.39051520824432373 0.11885824799537659 0.5041608214378357
0.4625917375087738 0.2733269929885864 0.4720023572444916
0.44692757725715637 0.19947271049022675 0.5597124695777893
0.33244413137435913 0.15324731171131134 0.5027198791503906
0.43858596682548523 0.13755324482917786 0.3999568521976471
0.3800274431705475 0.1350172609090805 0.43576985597610474
0.493319034576416 0.24817031621932983 0.5738268494606018
0.40753161907196045 0.23060469329357147 0.5895868539810181
0.5404296517372131 0.15842880308628082 0.5228420495986938
0.4721093773841858 0.11894027143716812 0.3830137848854065
0.4699077904224396 0.1039278507232666 0.43897339701652527
0.33029210567474365 0.15154367685317993 0.5889625549316406
0.45345085859298706 0.22073760628700256 0.5251021981239319
0.5102244019508362 0.18857301771640778 0.5341219902038574
0.48365557193756104 0.23590794205665588 0.5015400052070618
0.36734503507614136 0.1568007916212082 0.4055677056312561
0.405252605676651 0.1425829976797104 0.4844602942466736
0.5369101166725159 0.1107930913567543 0.5494980812072754
0.44071289896965027 0.14353473484516144 0.5000748038291931
0.4680734872817993 0.16892383992671967 0.406362384557724
0.5171434879302979 0.2105269879102707 0.522339403629303
0.5133816599845886 0.10919342935085297 0.4703308939933777
0.4401925504207611 0.1155712679028511 0.4083636403083801
0.42905834317207336 0.2261858433485031 0.525903582572937
0.3467864692211151 0.16729189455509186 0.4741875231266022
0.4922773838043213 0.11213477700948715 0.5227823853492737
0.47546374797821045 0.2264779657125473 0.5943852066993713
0.4636201560497284 0.16643832623958588 0.5765661001205444
0.5637961626052856 0.14234061539173126 0.5682596564292908
0.4960719645023346 0.23567333817481995 0.6091260313987732
0.5266466736793518 0.14068244397640228 0.47733473777770996
0.47496497631073 0.20386353135108948 0.5463206768035889
0.4843602478504181 0.21897117793560028 0.5918351411819458
0.4986322522163391 0.22948849201202393 0.5427647829055786
0.48665449023246765 0.16611355543136597 0.45886877179145813
0.400240421295166 0.2054484784603119 0.4368077218532562
0.49150142073631287 0.17622260749340057 0.4813694357872009
0.5372220277786255 0.18947362899780273 0.46285000443458557
0.5190577507019043 0.22886550426483154 0.5293846726417542
0.4801733195781708 0.2756596505641937 0.4914548397064209
0.5162771940231323 0.12085194885730743 0.5023971199989319
0.3549589514732361 0.1653784066438675 0.5502312779426575
0.41554489731788635 0.22578062117099762 0.5430620908737183
0.4485502541065216 0.1387529969215393 0.5890902280807495
0.4724166691303253 0.12970201671123505 0.5423365235328674
0.4156639277935028 0.18004681169986725 0.527535617351532
0.44658440351486206 0.10505558550357819 0.47790929675102234
0.5068736672401428 0.15256738662719727 0.4067680537700653
0.5177846550941467 0.12242584675550461 0.5788655877113342
0.4785120189189911 0.20141823589801788 0.5679607391357422
0.4331701993942261 0.11927004158496857 0.534663736820221
0.5226554274559021 0.1668897420167923 0.438906192779541
0.42595788836479187 0.23090849816799164 0.5569405555725098
0.3955736756324768 0.22877192497253418 0.5376722812652588
0.44477930665016174 0.15511780977249146 0.5131533741950989
0.5362939834594727 0.13552245497703552 0.5987169742584229
0.4750458896160126 0.10958189517259598 0.5761891007423401
0.450054407119751 0.250602126121521 0.5958032608032227
0.5433375239372253 0.19220498204231262 0.5599647760391235
