ply
format ascii 1.0
element vertex 825
property float x
property float y
property float z
end_header
0.5629969239234924 0.13828039169311523 0.6184499859809875
0.5024269819259644 0.1492885947227478 0.4386976361274719
0.482363760471344 0.10959849506616592 0.511566162109375
0.5080544352531433 0.10800516605377197 0.5066351294517517
0.5049603581428528 0.27231258153915405 0.4977192282676697
0.4309435784816742 0.25559914112091064 0.42105692625045776
0.5612456202507019 0.18281833827495575 0.45439794659614563
0.42045074701309204 0.2354290932416916 0.504074215888977
0.3930451273918152 0.1599406599998474 0.42412421107292175
0.47645944356918335 0.10103359818458557 0.5702921152114868
0.45984429121017456 0.273099422454834 0.46435546875
0.4163149297237396 0.25575149059295654 0.41962993144989014
0.47110721468925476 0.2684391438961029 0.4181138575077057
0.4297850430011749 0.21526436507701874 0.5608748197555542
0.36883336305618286 0.20361825823783875 0.5439218282699585
0.40102091431617737 0.21270810067653656 0.6018701195716858
0.5110863447189331 0.13949090242385864 0.5736393332481384
0.4043113589286804 0.21770597994327545 0.49606895446777344
0.5190296769142151 0.14098380506038666 0.5907526612281799
0.4212149381637573 0.273743212223053 0.4660365879535675
0.44078826904296875 0.14345718920230865 0.49594658613204956
0.44531628489494324 0.15380938351154327 0.5781232118606567
0.5039735436439514 0.133093923330307 0.45663729310035706
0.5002684593200684 0.15130113065242767 0.41246944665908813
0.5469707250595093 0.12578679621219635 0.44451025128364563
0.5084035396575928 0.13189654052257538 0.5816918015480042
0.5569947361946106 0.1307779997587204 0.5758950114250183
0.5294360518455505 0.24216267466545105 0.5301419496536255
0.508556604385376 0.23562292754650116 0.44253191351890564
0.45262959599494934 0.11556339263916016 0.5772647857666016
0.4562937021255493 0.11984826624393463 0.3831634223461151
0.36435917019844055 0.18258672952651978 0.5601939558982849
0.4676988422870636 0.19744111597537994 0.4131685495376587
0.5546329021453857 0.12522049248218536 0.4617707431316376
0.42474475502967834 0.18161094188690186 0.5946710109710693
0.44377416372299194 0.14561094343662262 0.49931445717811584
0.5267164707183838 0.23935794830322266 0.575930118560791
0.35606473684310913 0.2019679695367813 0.5344802737236023
0.5166098475456238 0.1431901454925537 0.5091362595558167
0.4867560565471649 0.263181209564209 0.6196386218070984
0.4708445370197296 0.1540638655424118 0.6046715378761292
0.4393264055252075 0.10811220854520798 0.4619483947753906
0.43140682578086853 0.14802877604961395 0.5558946132659912
0.5012915730476379 0.26940229535102844 0.5702233910560608
0.45962801575660706 0.1145087406039238 0.3844146430492401
0.5187082290649414 0.11868011206388474 0.4190977215766907
0.4004756510257721 0.1838403344154358 0.5519486665725708
0.36044445633888245 0.19790153205394745 0.5069184303283691
0.3674603998661041 0.2185722291469574 0.4351753890514374
0.4733521342277527 0.3138172924518585 0.4784853458404541
0.4314713478088379 0.20305036008358002 0.47776979207992554
0.4824184775352478 0.1264607012271881 0.6020617485046387
0.3734099268913269 0.14071084558963776 0.47752881050109863
0.42877396941185 0.17259271442890167 0.503463089466095
0.4845930337905884 0.19096601009368896 0.5172029733657837
0.42574864625930786 0.18654035031795502 0.5205376744270325
0.4770810604095459 0.2576179504394531 0.4220564067363739
0.5163345336914062 0.22893746197223663 0.47147855162620544
0.458967000246048 0.1820746213197708 0.4579060673713684
0.46835172176361084 0.10065992921590805 0.5238523483276367
0.38230592012405396 0.175594761967659 0.5962041616439819
0.5313824415206909 0.1219073012471199 0.5697286128997803
0.38114801049232483 0.19079700112342834 0.5304192304611206
0.47458046674728394 0.17429494857788086 0.48302528262138367
0.4157503545284271 0.2632623016834259 0.6057025194168091
0.445773720741272 0.10690896213054657 0.5361082553863525
0.42462804913520813 0.13789315521717072 0.5734935402870178
0.4976887106895447 0.23577922582626343 0.5175343751907349
0.49913573265075684 0.22436395287513733 0.47704848647117615
0.5043398141860962 0.17761947214603424 0.49933359026908875
0.4224426746368408 0.16882051527500153 0.4099389910697937
0.49779102206230164 0.12074777483940125 0.5644621849060059
0.5057141184806824 0.2513681650161743 0.5112307667732239
0.5194019675254822 0.2597024142742157 0.4485296607017517
0.49955663084983826 0.11925778537988663 0.49692246317863464
0.5195274949073792 0.15281280875205994 0.501969039440155
0.45496904850006104 0.11339428275823593 0.5751385688781738
0.5010184645652771 0.20948690176010132 0.47121110558509827
0.36918628215789795 0.12888576090335846 0.586725115776062
0.40102091431617737 0.21270810067653656 0.6018701195716858
0.5110863447189331 0.13949090242385864 0.5736393332481384
0.4043113589286804 0.21770597994327545 0.49606895446777344
0.5190296769142151 0.14098380506038666 0.5907526612281799
0.4212149381637573 0.273743212223053 0.4660365879535675
0.44078826904296875 0.14345718920230865 0.49594658613204956
0.486642062664032 0.22311562299728394 0.5038706660270691
0.5527109503746033 0.1986621916294098 0.4853821098804474
0.44554656744003296 0.2726401686668396 0.4978581964969635
0.5135967135429382 0.11979593336582184 0.4267790615558624
0.5104416608810425 0.16125544905662537 0.4930729269981384
0.5594232082366943 0.18674692511558533 0.610942542552948
0.49201953411102295 0.24362598359584808 0.482307106256485
0.388547420501709 0.14436523616313934 0.39501339197158813
0.43476974964141846 0.10907584428787231 0.5484215617179871
0.4983789920806885 0.17722982168197632 0.5059794187545776
0.4797014594078064 0.10922541469335556 0.5655086636543274
0.48782551288604736 0.10397596657276154 0.5983807444572449
0.44553646445274353 0.2844255268573761 0.5695656538009644
0.5115997791290283 0.23480495810508728 0.4297681450843811
0.4718818664550781 0.15239372849464417 0.573090672492981
0.41477686166763306 0.2034582793712616 0.5843733549118042
0.4238636791706085 0.20260219275951385 0.5180490016937256
0.42524269223213196 0.2486514151096344 0.5419922471046448
0.4461849331855774 0.1477026343345642 0.40240365266799927
0.4339796304702759 0.1984824538230896 0.5408468246459961
0.4074156582355499 0.13651534914970398 0.48927509784698486
0.5043294429779053 0.15222755074501038 0.4341391921043396
0.4867493212223053 0.12539814412593842 0.554619550704956
0.36248013377189636 0.1841864436864853 0.4356800615787506
0.39572668075561523 0.19915513694286346 0.5182808637619019
0.49667298793792725 0.11779762804508209 0.515228807926178
0.4062071144580841 0.19052432477474213 0.5971977114677429
0.4452226161956787 0.12615838646888733 0.42160892486572266
0.4668322801589966 0.10472234338521957 0.497759610414505
0.5097503662109375 0.17258286476135254 0.44466742873191833
0.5458714962005615 0.18309740722179413 0.4889681339263916
0.40478137135505676 0.13044801354408264 0.541851282119751
0.5577157139778137 0.19030171632766724 0.41341260075569153
0.44055595993995667 0.23951703310012817 0.5809744596481323
0.45487090945243835 0.10192694514989853 0.5618520379066467
0.36406761407852173 0.19841864705085754 0.5344374775886536
0.5656071305274963 0.16669240593910217 0.45547357201576233
0.43093016743659973 0.2262839376926422 0.5895245671272278
0.47496235370635986 0.22839058935642242 0.5857903361320496
0.47696369886398315 0.15894095599651337 0.5390275120735168
0.533760130405426 0.18767674267292023 0.5836328864097595
0.4839206039905548 0.2341841459274292 0.6190014481544495
0.4684913158416748 0.30986231565475464 0.4312611520290375
0.5542612075805664 0.1647869497537613 0.4172714054584503
0.49229660630226135 0.14310616254806519 0.49860772490501404
0.5643413066864014 0.16279098391532898 0.45793667435646057
0.5210030674934387 0.19592007994651794 0.4251851439476013
0.5117712616920471 0.18061880767345428 0.47503483295440674
0.5196419358253479 0.13497968018054962 0.4496747851371765
0.5559514760971069 0.16347867250442505 0.5988650321960449
0.49602389335632324 0.10543916374444962 0.4178403913974762
0.4365088939666748 0.13913409411907196 0.5220001935958862
0.5487826466560364 0.2216307818889618 0.43294721841812134
0.5324344635009766 0.15881916880607605 0.5979151725769043
0.5535775423049927 0.19257396459579468 0.43198809027671814
0.5362680554389954 0.17463602125644684 0.517910897731781
0.45459070801734924 0.17642463743686676 0.42287278175354004
0.45630520582199097 0.1663288027048111 0.5573388338088989
0.5696378946304321 0.15190370380878448 0.5248174071311951
0.4645555317401886 0.16111725568771362 0.47176191210746765
0.4709584414958954 0.15464578568935394 0.5447565913200378
0.4612591862678528 0.12192694842815399 0.40441906452178955
0.5083054304122925 0.11909781396389008 0.5556052923202515
0.4329620599746704 0.24326768517494202 0.6025202870368958
0.5348328948020935 0.15674911439418793 0.4545843005180359
0.4172581136226654 0.146450474858284 0.5175269246101379
0.3871379494667053 0.19694438576698303 0.4527905583381653
0.5096770524978638 0.14757795631885529 0.43271714448928833
0.4995853900909424 0.17542244493961334 0.608049750328064
0.49249282479286194 0.1753084808588028 0.6117048859596252
0.4475803077220917 0.11040561646223068 0.5835907459259033
0.41402220726013184 0.12963733077049255 0.48971104621887207
0.5715488195419312 0.17228837311267853 0.5793142318725586
0.4809574484825134 0.18407323956489563 0.5465515851974487
0.40609192848205566 0.14104004204273224 0.42466288805007935
0.4390721619129181 0.21722310781478882 0.6132175922393799
0.4640519618988037 0.2564116418361664 0.6012017726898193
0.4238319396972656 0.18907083570957184 0.5002745389938354
0.47515660524368286 0.27844348549842834 0.4573821723461151
0.39172109961509705 0.2329619973897934 0.5659462213516235
0.4286656677722931 0.1242985799908638 0.5570915341377258
0.5531186461448669 0.16028225421905518 0.5857738256454468
0.47630706429481506 0.10177614539861679 0.5226144790649414
0.47005540132522583 0.1982763409614563 0.5070504546165466
0.4205150008201599 0.1295810043811798 0.5185867547988892
0.4012133479118347 0.1282070279121399 0.584915280342102
0.4484880864620209 0.2897324562072754 0.6149775385856628
0.43969136476516724 0.19142256677150726 0.45867908000946045
0.47484466433525085 0.16272370517253876 0.5649314522743225
0.41171136498451233 0.20190629363059998 0.44586995244026184
0.4831749200820923 0.10534318536520004 0.42091304063796997
0.5343326926231384 0.23115947842597961 0.4322017431259155
0.4596829414367676 0.15402071177959442 0.5150477886199951
0.5253469347953796 0.12362194806337357 0.5711643695831299
0.4949643611907959 0.2877466380596161 0.5086050033569336
0.4621667265892029 0.17447730898857117 0.46450090408325195
0.4989216923713684 0.14552152156829834 0.595730721950531
0.47631973028182983 0.17277398705482483 0.431680291891098
0.49208104610443115 0.10257384926080704 0.4453094005584717
0.4266600012779236 0.17630530893802643 0.45252862572669983
0.521771252155304 0.1504921019077301 0.5735206604003906
0.45017388463020325 0.21260908246040344 0.4358982741832733
0.5192727446556091 0.19388322532176971 0.4413280189037323
0.5146723389625549 0.1748732328414917 0.4133013188838959
0.40358033776283264 0.12024685740470886 0.4953121542930603
0.4645388424396515 0.24770626425743103 0.482460618019104
0.4761511981487274 0.17663578689098358 0.4711211323738098
0.38425490260124207 0.18552614748477936 0.5969845056533813
0.4937689006328583 0.2793802320957184 0.46168678998947144
0.4342987835407257 0.14022058248519897 0.5280161499977112
0.45606446266174316 0.16573978960514069 0.44373655319213867
0.47091954946517944 0.10004569590091705 0.5247358679771423
0.49184155464172363 0.2148044854402542 0.4967156648635864
0.430887371301651 0.12233792990446091 0.5223110914230347
0.5042921900749207 0.21663504838943481 0.5866014361381531
0.4601458013057709 0.19695785641670227 0.606866717338562
0.5721400380134583 0.17578597366809845 0.5083882808685303
0.5486512184143066 0.1580258309841156 0.6072806715965271
0.5182688236236572 0.1489425003528595 0.4809078276157379
0.3493201732635498 0.15489809215068817 0.552668571472168
0.5146560668945312 0.19868452847003937 0.6030467748641968
0.5596121549606323 0.18330425024032593 0.4124470055103302
0.47298234701156616 0.20078258216381073 0.527397871017456
0.3657045364379883 0.15442396700382233 0.5341355800628662
0.4659305810928345 0.10416518151760101 0.5633623003959656
0.49037593603134155 0.11515356600284576 0.4202328026294708
0.46913427114486694 0.12503771483898163 0.4478452503681183
0.4888674318790436 0.18481826782226562 0.519697904586792
0.36744803190231323 0.21790152788162231 0.42824697494506836
0.4502081573009491 0.17393162846565247 0.4733605682849884
0.44780948758125305 0.21485069394111633 0.48281893134117126
0.49518856406211853 0.14234772324562073 0.5274186730384827
0.5100638270378113 0.20593850314617157 0.4800235629081726
0.53620445728302 0.14255830645561218 0.4347279667854309
0.3588237166404724 0.1820259541273117 0.5136321783065796
0.5094956755638123 0.253043532371521 0.4517914056777954
0.5172622203826904 0.16077755391597748 0.5608108043670654
0.4876094460487366 0.11103320121765137 0.37725478410720825
0.4880349636077881 0.2898004651069641 0.5422168374061584
0.4051099121570587 0.17205291986465454 0.4182184040546417
0.4220617115497589 0.184170201420784 0.5905277132987976
0.4420337677001953 0.15220123529434204 0.46124327182769775
0.41861429810523987 0.12172727286815643 0.4274737536907196
0.5762273073196411 0.17067334055900574 0.5703654885292053
0.3553023934364319 0.18854309618473053 0.4581899642944336
0.45710381865501404 0.24388852715492249 0.4438120126724243
0.5285264849662781 0.17756704986095428 0.5555636286735535
0.5172286629676819 0.15651841461658478 0.5967117547988892
0.499847412109375 0.2516940236091614 0.5427263379096985
0.43849673867225647 0.10442902147769928 0.5384632349014282
0.36297371983528137 0.17346282303333282 0.4764085114002228
0.4708610773086548 0.27503153681755066 0.450493723154068
0.5397855043411255 0.21085615456104279 0.41611820459365845
0.50238037109375 0.1287841498851776 0.4900970757007599
0.4238487482070923 0.26812684535980225 0.4205610454082489
0.47166043519973755 0.17021380364894867 0.5438306331634521
0.4598035216331482 0.22224178910255432 0.5668462514877319
0.43553343415260315 0.2739293575286865 0.5751901268959045
0.5692397952079773 0.1368054449558258 0.5642167925834656
0.4779512584209442 0.13107958436012268 0.595451295375824
0.49849754571914673 0.21400746703147888 0.45553576946258545
0.5175187587738037 0.13810275495052338 0.42912405729293823
0.3971267342567444 0.19038206338882446 0.40446195006370544
0.49363136291503906 0.13514870405197144 0.6007078886032104
0.3871396481990814 0.23560242354869843 0.4620247483253479
0.4692387878894806 0.2662007510662079 0.4762478172779083
0.3765738308429718 0.14060324430465698 0.47751790285110474
0.5212208032608032 0.16739273071289062 0.5295073986053467
0.5699594020843506 0.1696816384792328 0.49866512417793274
0.4049721956253052 0.226158007979393 0.427543580532074
0.49667298793792725 0.11779762804508209 0.515228807926178
0.5479883551597595 0.13796542584896088 0.4058549404144287
0.42679354548454285 0.16576674580574036 0.540924072265625
0.5710621476173401 0.1791452169418335 0.4798927903175354
0.45487090945243835 0.10192694514989853 0.5618520379066467
0.36406761407852173 0.19841864705085754 0.5344374775886536
0.5656071305274963 0.16669240593910217 0.45547357201576233
0.43093016743659973 0.2262839376926422 0.5895245671272278
0.47496235370635986 0.22839058935642242 0.5857903361320496
0.47696369886398315 0.15894095599651337 0.5390275120735168
0.533760130405426 0.18767674267292023 0.5836328864097595
0.4839206039905548 0.2341841459274292 0.6190014481544495
0.4727756083011627 0.18248231709003448 0.5262680053710938
0.5497843623161316 0.20728029310703278 0.4773878753185272
0.5170485973358154 0.18062537908554077 0.5753281116485596
0.4785381555557251 0.3067295253276825 0.5398945212364197
0.4655225872993469 0.12467630207538605 0.4256868064403534
0.38848236203193665 0.1535862684249878 0.45978015661239624
0.4977615475654602 0.29811033606529236 0.4301910400390625
0.5556555390357971 0.17585845291614532 0.5637449622154236
0.40937530994415283 0.22068308293819427 0.5793935060501099
0.46517109870910645 0.2396727353334427 0.47010836005210876
0.48974165320396423 0.24843843281269073 0.561495840549469
0.4734567701816559 0.12650935351848602 0.5926600694656372
0.4262215197086334 0.1684577912092209 0.4831101894378662
0.37221404910087585 0.1638382524251938 0.5055011510848999
0.4834989905357361 0.16800889372825623 0.48572680354118347
0.42073026299476624 0.19775986671447754 0.6005849838256836
0.5686442852020264 0.14697635173797607 0.4808019995689392
0.46607810258865356 0.1788887083530426 0.4385426640510559
0.4343339204788208 0.18951690196990967 0.5340151786804199
0.4792105555534363 0.22252686321735382 0.5271946787834167
0.5469222068786621 0.1992427110671997 0.4468783736228943
0.388547420501709 0.14436523616313934 0.39501339197158813
0.43476974964141846 0.10907584428787231 0.5484215617179871
0.5296826958656311 0.1754319667816162 0.4812491536140442
0.4142272174358368 0.11800742894411087 0.5732274651527405
0.482930988073349 0.11366549879312515 0.5341582894325256
0.456528902053833 0.26176199316978455 0.5025403499603271
0.4227747619152069 0.2063828855752945 0.6051872372627258
0.539110541343689 0.21779125928878784 0.5669845938682556
0.5501079559326172 0.20998498797416687 0.4336775839328766
0.5574005842208862 0.1776363104581833 0.4894564747810364
0.5221471786499023 0.15279433131217957 0.4701768755912781
0.40992915630340576 0.1560903787612915 0.5909033417701721
0.40167036652565 0.1756923794746399 0.5274103283882141
0.3603372275829315 0.18213003873825073 0.514811098575592
0.36410075426101685 0.15551142394542694 0.46221014857292175
0.5689640641212463 0.1884126365184784 0.4952761232852936
0.5028910636901855 0.1848214715719223 0.45524662733078003
0.4002017676830292 0.11363064497709274 0.5897268056869507
0.43553343415260315 0.2739293575286865 0.5751901268959045
0.5692397952079773 0.1368054449558258 0.5642167925834656
0.4779512584209442 0.13107958436012268 0.595451295375824
0.49849754571914673 0.21400746703147888 0.45553576946258545
0.5175187587738037 0.13810275495052338 0.42912405729293823
0.3971267342567444 0.19038206338882446 0.40446195006370544
0.49363136291503906 0.13514870405197144 0.6007078886032104
0.3871396481990814 0.23560242354869843 0.4620247483253479
0.4692387878894806 0.2662007510662079 0.4762478172779083
0.3765738308429718 0.14060324430465698 0.47751790285110474
0.5212208032608032 0.16739273071289062 0.5295073986053467
0.5699594020843506 0.1696816384792328 0.49866512417793274
0.4049721956253052 0.226158007979393 0.427543580532074
0.5520764589309692 0.1707645058631897 0.4632393419742584
0.4840308129787445 0.1108662560582161 0.5621370077133179
0.44440802931785583 0.2846166789531708 0.6190839409828186
0.35769134759902954 0.18133024871349335 0.5729110836982727
0.5019658207893372 0.23301896452903748 0.5098822116851807
0.561755359172821 0.15598823130130768 0.46800950169563293
0.4030296802520752 0.13910339772701263 0.4620518982410431
0.4888513684272766 0.29171979427337646 0.4536415934562683
0.44352731108665466 0.1739327311515808 0.5453599095344543
0.49511393904685974 0.2192704975605011 0.6042513251304626
0.42794790863990784 0.18059104681015015 0.4670795798301697
0.49686187505722046 0.20421165227890015 0.6056723594665527
0.40796372294425964 0.18721047043800354 0.5110505223274231
0.5314352512359619 0.1318981647491455 0.519893229007721
0.4869941174983978 0.28166553378105164 0.46842437982559204
0.43553343415260315 0.2739293575286865 0.5751901268959045
0.5692397952079773 0.1368054449558258 0.5642167925834656
0.4779512584209442 0.13107958436012268 0.595451295375824
0.49849754571914673 0.21400746703147888 0.45553576946258545
0.5175187587738037 0.13810275495052338 0.42912405729293823
0.3971267342567444 0.19038206338882446 0.40446195006370544
0.49363136291503906 0.13514870405197144 0.6007078886032104
0.3871396481990814 0.23560242354869843 0.4620247483253479
0.4692387878894806 0.2662007510662079 0.4762478172779083
0.3765738308429718 0.14060324430465698 0.47751790285110474
0.5212208032608032 0.16739273071289062 0.5295073986053467
0.5699594020843506 0.1696816384792328 0.49866512417793274
0.4049721956253052 0.226158007979393 0.427543580532074
0.468270868062973 0.1809399276971817 0.439191609621048
0.5345632433891296 0.12291765958070755 0.49825727939605713
0.3679184019565582 0.17020316421985626 0.5659122467041016
0.5707105994224548 0.17390961945056915 0.4724492132663727
0.4718480110168457 0.3110160529613495 0.47279658913612366
0.5253469347953796 0.12362194806337357 0.5711643695831299
0.4949643611907959 0.2877466380596161 0.5086050033569336
0.4621667265892029 0.17447730898857117 0.46450090408325195
0.4989216923713684 0.14552152156829834 0.595730721950531
0.47631973028182983 0.17277398705482483 0.431680291891098
0.49208104610443115 0.10257384926080704 0.4453094005584717
0.4266600012779236 0.17630530893802643 0.45252862572669983
0.5146383047103882 0.22919593751430511 0.5615764856338501
0.3489285111427307 0.17004911601543427 0.46141743659973145
0.42398086190223694 0.1382402628660202 0.5193580985069275
0.48538801074028015 0.11991192400455475 0.5185614228248596
0.45791709423065186 0.10205372422933578 0.5068495869636536
0.49058252573013306 0.1722625494003296 0.4477478563785553
0.5579603314399719 0.1818094253540039 0.45411309599876404
0.5723676085472107 0.1657552272081375 0.4398605525493622
0.4935346245765686 0.24366037547588348 0.4552360773086548
0.4718937873840332 0.17864681780338287 0.5547493100166321
0.4800531566143036 0.2239241749048233 0.4322229027748108
0.38375407457351685 0.21850042045116425 0.5590854287147522
0.4691418409347534 0.3060380220413208 0.552733838558197
0.4856039583683014 0.10611619055271149 0.40459927916526794
0.5256752371788025 0.17877718806266785 0.6122465133666992
0.43337368965148926 0.27473869919776917 0.46035218238830566
0.5007625222206116 0.1328948438167572 0.4563665986061096
0.3991907835006714 0.20939934253692627 0.5591857433319092
0.47338899970054626 0.16275765001773834 0.49123212695121765
0.41124293208122253 0.1623915284872055 0.4538147747516632
0.4989713132381439 0.21173954010009766 0.4190252125263214
0.5362853407859802 0.2184743732213974 0.5911914110183716
0.44772303104400635 0.2277645319700241 0.5064272880554199
0.47254738211631775 0.19504965841770172 0.46586161851882935
0.36406761407852173 0.19841864705085754 0.5344374775886536
0.5083054304122925 0.11909781396389008 0.5556052923202515
0.4329620599746704 0.24326768517494202 0.6025202870368958
0.5348328948020935 0.15674911439418793 0.4545843005180359
0.4172581136226654 0.146450474858284 0.5175269246101379
0.3871379494667053 0.19694438576698303 0.4527905583381653
0.5096770524978638 0.14757795631885529 0.43271714448928833
0.4995853900909424 0.17542244493961334 0.608049750328064
0.49249282479286194 0.1753084808588028 0.6117048859596252
0.5715488195419312 0.17228837311267853 0.5793142318725586
0.4058263301849365 0.21414540708065033 0.46937063336372375
0.37173935770988464 0.16825240850448608 0.5837343335151672
0.4975382685661316 0.10521432757377625 0.5871707797050476
0.47336581349372864 0.19593025743961334 0.5384782552719116
0.5499601364135742 0.20018471777439117 0.4733598232269287
0.5710923075675964 0.1835983246564865 0.5413700342178345
0.5015801787376404 0.11642491817474365 0.4689219892024994
0.3479645252227783 0.18989823758602142 0.4625368118286133
0.4856039583683014 0.10611619055271149 0.40459927916526794
0.5256752371788025 0.17877718806266785 0.6122465133666992
0.43337368965148926 0.27473869919776917 0.46035218238830566
0.45394808053970337 0.1356312483549118 0.4339439868927002
0.40121427178382874 0.13896630704402924 0.499837726354599
0.5676048994064331 0.17183427512645721 0.4894203245639801
0.3933378756046295 0.2122747153043747 0.5338447093963623
0.5086216926574707 0.2134619504213333 0.4794948399066925
0.48495766520500183 0.1276932954788208 0.4794265627861023
0.5404008626937866 0.1146717295050621 0.6119310855865479
0.47254738211631775 0.19504965841770172 0.46586161851882935
0.4191882312297821 0.12122313678264618 0.5381472110748291
0.5103024244308472 0.20325297117233276 0.5131743550300598
0.449884295463562 0.21498681604862213 0.510916531085968
0.5656071305274963 0.16669240593910217 0.45547357201576233
0.4329620599746704 0.24326768517494202 0.6025202870368958
0.5348328948020935 0.15674911439418793 0.4545843005180359
0.4172581136226654 0.146450474858284 0.5175269246101379
0.3871379494667053 0.19694438576698303 0.4527905583381653
0.5096770524978638 0.14757795631885529 0.43271714448928833
0.4995853900909424 0.17542244493961334 0.608049750328064
0.3732271194458008 0.1691521853208542 0.42638564109802246
0.4058263301849365 0.21414540708065033 0.46937063336372375
0.37173935770988464 0.16825240850448608 0.5837343335151672
0.4975382685661316 0.10521432757377625 0.5871707797050476
0.37275752425193787 0.1547870934009552 0.5416523218154907
0.42486709356307983 0.1844993233680725 0.43872013688087463
0.3533519506454468 0.1683253049850464 0.5742825269699097
0.4856039583683014 0.10611619055271149 0.40459927916526794
0.5256752371788025 0.17877718806266785 0.6122465133666992
0.43337368965148926 0.27473869919776917 0.46035218238830566
0.5007625222206116 0.1328948438167572 0.4563665986061096
0.5007625818252563 0.13289478421211243 0.45636671781539917
0.5676048994064331 0.17183427512645721 0.4894203245639801
0.3933378756046295 0.2122747153043747 0.5338447093963623
0.5086216926574707 0.2134619504213333 0.4794948399066925
0.42280200123786926 0.24960072338581085 0.5529509782791138
0.5362853407859802 0.2184743732213974 0.5911914110183716
0.5404008626937866 0.1146717295050621 0.6119310855865479
0.37861013412475586 0.13168767094612122 0.5314306616783142
0.4191882312297821 0.12122313678264618 0.5381472110748291
0.449884295463562 0.21498681604862213 0.510916531085968
0.5184707045555115 0.1220017597079277 0.4457283914089203
0.44564762711524963 0.18875543773174286 0.4443095028400421
0.5321311950683594 0.13685591518878937 0.42791059613227844
0.5104700326919556 0.27170079946517944 0.48509249091148376
0.5497843623161316 0.20728029310703278 0.4773878753185272
0.53803950548172 0.20393331348896027 0.5232415199279785
0.5047609806060791 0.22015416622161865 0.5365882515907288
0.49292996525764465 0.18433627486228943 0.5549137592315674
0.4137808680534363 0.2520819902420044 0.5116779804229736
0.4289492666721344 0.27194857597351074 0.447664737701416
0.47327694296836853 0.19759295880794525 0.5888043642044067
0.5171359777450562 0.2434389442205429 0.5661343932151794
0.53486168384552 0.1297050565481186 0.4261328876018524
0.4819298982620239 0.2955276072025299 0.44372764229774475
0.3706226348876953 0.17004017531871796 0.45252519845962524
0.4186019003391266 0.23706473410129547 0.4899844229221344
0.5223142504692078 0.11715453118085861 0.4757048189640045
0.4989820420742035 0.15524739027023315 0.4841911196708679
0.483859658241272 0.10380154848098755 0.5248503088951111
0.5088804364204407 0.16758178174495697 0.6063969731330872
0.4201798737049103 0.21536466479301453 0.5158089399337769
0.40803757309913635 0.24409423768520355 0.46679049730300903
0.41487351059913635 0.11758224666118622 0.5314756631851196
0.46332404017448425 0.12010402232408524 0.4975918233394623
0.38286978006362915 0.1679900884628296 0.5742244720458984
0.47091564536094666 0.13074816763401031 0.41337907314300537
0.4531964361667633 0.15879876911640167 0.5558174252510071
0.5389406681060791 0.21044757962226868 0.5368598103523254
0.4732266962528229 0.1014505922794342 0.43359988927841187
0.40587347745895386 0.14862093329429626 0.5134568810462952
0.39650458097457886 0.17726008594036102 0.47497859597206116
0.417438805103302 0.12797383964061737 0.5905670523643494
0.531826376914978 0.15971697866916656 0.6005319356918335
0.39962032437324524 0.19485336542129517 0.5255861878395081
0.4950483739376068 0.28462642431259155 0.5464024543762207
0.38079020380973816 0.1613369584083557 0.5792274475097656
0.4329620599746704 0.24326768517494202 0.6025202870368958
0.35825103521347046 0.18626943230628967 0.49105849862098694
0.4502190351486206 0.21463525295257568 0.43496134877204895
0.3880905508995056 0.1400534212589264 0.480608195066452
0.482642263174057 0.31406480073928833 0.42863795161247253
0.4596557915210724 0.21283738315105438 0.44186919927597046
0.4866119921207428 0.17592361569404602 0.48140835762023926
0.5011981725692749 0.11818934231996536 0.46462178230285645
0.485848605632782 0.10545992106199265 0.45826560258865356
0.4898718297481537 0.23383736610412598 0.558505117893219
0.5239975452423096 0.17794372141361237 0.5087939500808716
0.4420781135559082 0.23926421999931335 0.5231053233146667
0.5221052169799805 0.11753921210765839 0.38738295435905457
0.42314374446868896 0.11733899265527725 0.512711763381958
0.42701485753059387 0.1326601654291153 0.5923535227775574
0.5137445330619812 0.199808731675148 0.5137059688568115
0.5581815838813782 0.14928625524044037 0.5772265791893005
0.4245222210884094 0.15650898218154907 0.4909764528274536
0.47644713521003723 0.12014271318912506 0.47804710268974304
0.37475836277008057 0.21664300560951233 0.5094960331916809
0.5005965232849121 0.26321348547935486 0.6016509532928467
0.5066680312156677 0.180557981133461 0.4564153254032135
0.5308502912521362 0.12776534259319305 0.5773730278015137
0.4911211133003235 0.22012212872505188 0.6054127216339111
0.4359559118747711 0.276341050863266 0.4953360855579376
0.47433823347091675 0.11214061826467514 0.5891624689102173
0.4926922917366028 0.28277793526649475 0.5556924343109131
0.508901059627533 0.15034101903438568 0.5987437963485718
0.5265434384346008 0.15808071196079254 0.508263885974884
0.4577503204345703 0.2569305896759033 0.452774316072464
0.4364358186721802 0.25064530968666077 0.5704343914985657
0.5310575366020203 0.16443438827991486 0.570162296295166
0.5345632433891296 0.12291765958070755 0.49825727939605713
0.5303882360458374 0.1256437748670578 0.508863091468811
0.42695352435112 0.15994490683078766 0.5613664388656616
0.53803950548172 0.20393331348896027 0.5232415199279785
0.5047609806060791 0.22015416622161865 0.5365882515907288
0.49292996525764465 0.18433627486228943 0.5549137592315674
0.4137808680534363 0.2520819902420044 0.5116779804229736
0.4289492666721344 0.27194857597351074 0.447664737701416
0.47327694296836853 0.19759295880794525 0.5888043642044067
0.5171359777450562 0.2434389442205429 0.5661343932151794
0.53486168384552 0.1297050565481186 0.4261328876018524
0.4819298982620239 0.2955276072025299 0.44372764229774475
0.3706226348876953 0.17004017531871796 0.45252519845962524
0.4186019003391266 0.23706473410129547 0.4899844229221344
0.5223142504692078 0.11715453118085861 0.4757048189640045
0.4781649112701416 0.1329420506954193 0.5878388285636902
0.5515125393867493 0.1344040185213089 0.5542155504226685
0.3792872726917267 0.17080950736999512 0.5961466431617737
0.46102669835090637 0.12446406483650208 0.5047681331634521
0.37356051802635193 0.16895988583564758 0.40463757514953613
0.4850645959377289 0.2950798571109772 0.5380801558494568
0.48006561398506165 0.106828972697258 0.39863330125808716
0.4771215319633484 0.2207009196281433 0.46755272150039673
0.5029762387275696 0.14171168208122253 0.5670726299285889
0.5107442736625671 0.1789412647485733 0.4086475372314453
0.4461977481842041 0.25153404474258423 0.5833122134208679
0.49687591195106506 0.30423256754875183 0.429862916469574
0.46575066447257996 0.26110923290252686 0.576047956943512
0.4876879155635834 0.10365218669176102 0.4285934567451477
0.38343265652656555 0.19137564301490784 0.41042986512184143
0.4652634263038635 0.240062415599823 0.5926629900932312
0.45238327980041504 0.13596326112747192 0.5103667974472046
0.3679184019565582 0.17020316421985626 0.5659122467041016
0.5011981725692749 0.11818934231996536 0.46462178230285645
0.485848605632782 0.10545992106199265 0.45826560258865356
0.4898718297481537 0.23383736610412598 0.558505117893219
0.5239975452423096 0.17794372141361237 0.5087939500808716
0.4420781135559082 0.23926421999931335 0.5231053233146667
0.5221052169799805 0.11753921210765839 0.38738295435905457
0.42314374446868896 0.11733899265527725 0.512711763381958
0.42701485753059387 0.1326601654291153 0.5923535227775574
0.5137445330619812 0.199808731675148 0.5137059688568115
0.519016444683075 0.19810926914215088 0.46013420820236206
0.5582444071769714 0.14960172772407532 0.5769837498664856
0.4029204249382019 0.12595655024051666 0.4854590594768524
0.48691514134407043 0.10065807402133942 0.5941818952560425
0.49007272720336914 0.16052676737308502 0.5121430158615112
0.4847010672092438 0.26399028301239014 0.48421913385391235
0.48446276783943176 0.28944268822669983 0.4611727297306061
0.3762911260128021 0.16953463852405548 0.517561137676239
0.5308502912521362 0.12776534259319305 0.5773730278015137
0.4911211133003235 0.22012212872505188 0.6054127216339111
0.4359559118747711 0.276341050863266 0.4953360855579376
0.47433823347091675 0.11214061826467514 0.5891624689102173
0.4926922917366028 0.28277793526649475 0.5556924343109131
0.508901059627533 0.15034101903438568 0.5987437963485718
0.5265434384346008 0.15808071196079254 0.508263885974884
0.450676292181015 0.12422095984220505 0.5341660380363464
0.4260929822921753 0.22222115099430084 0.5849807262420654
0.4364358186721802 0.25064530968666077 0.5704343914985657
0.5310575366020203 0.16443438827991486 0.570162296295166
0.3896678388118744 0.1797855943441391 0.5820252895355225
0.4548165202140808 0.2875269651412964 0.6188684701919556
0.39060211181640625 0.2396422028541565 0.49775612354278564
0.5699594020843506 0.1696816384792328 0.49866512417793274
0.5011981725692749 0.11818934231996536 0.46462178230285645
0.5239975452423096 0.17794372141361237 0.5087939500808716
0.4420781135559082 0.23926421999931335 0.5231053233146667
0.5221052169799805 0.11753921210765839 0.38738295435905457
0.42314374446868896 0.11733899265527725 0.512711763381958
0.42701485753059387 0.1326601654291153 0.5923535227775574
0.519016444683075 0.19810926914215088 0.46013420820236206
0.5582444071769714 0.14960172772407532 0.5769837498664856
0.4029204249382019 0.12595655024051666 0.4854590594768524
0.48691514134407043 0.10065807402133942 0.5941818952560425
0.49007272720336914 0.16052676737308502 0.5121430158615112
0.4847010672092438 0.26399028301239014 0.48421913385391235
0.48446276783943176 0.28944268822669983 0.4611727297306061
0.3762911260128021 0.16953463852405548 0.517561137676239
0.541472315788269 0.1403922140598297 0.490497887134552
0.42372190952301025 0.2633628249168396 0.5116341710090637
0.3951428532600403 0.13284294307231903 0.5919321775436401
0.46091586351394653 0.1456131935119629 0.5274531841278076
0.3614780306816101 0.1561506688594818 0.48097485303878784
0.43994373083114624 0.21568478643894196 0.5492731928825378
0.5318975448608398 0.12379572540521622 0.5887009501457214
0.4628036320209503 0.19504095613956451 0.5098443031311035
0.5595871210098267 0.13034290075302124 0.47012847661972046
0.4364358186721802 0.25064530968666077 0.5704343914985657
0.5310575366020203 0.16443438827991486 0.570162296295166
0.3896678388118744 0.1797855943441391 0.5820252895355225
0.4548165202140808 0.2875269651412964 0.6188684701919556
0.39060211181640625 0.2396422028541565 0.49775612354278564
0.5252672433853149 0.1837126910686493 0.46141308546066284
0.4951643943786621 0.10374573618173599 0.4676836431026459
0.46523380279541016 0.16635756194591522 0.5950477123260498
0.3784055709838867 0.21214355528354645 0.40742629766464233
0.5171359777450562 0.2434389442205429 0.5661343932151794
0.53486168384552 0.1297050565481186 0.4261328876018524
0.4819298982620239 0.2955276072025299 0.44372764229774475
0.3706226348876953 0.17004017531871796 0.45252519845962524
0.4186019003391266 0.23706473410129547 0.4899844229221344
0.5223142504692078 0.11715453118085861 0.4757048189640045
0.4989820420742035 0.15524739027023315 0.4841911196708679
0.483859658241272 0.10380154848098755 0.5248503088951111
0.5088804364204407 0.16758178174495697 0.6063969731330872
0.47539618611335754 0.1193908154964447 0.4381725788116455
0.453201025724411 0.23720623552799225 0.5771058797836304
0.5153688788414001 0.12367549538612366 0.5675434470176697
0.4718765616416931 0.14071069657802582 0.4093974232673645
0.43361204862594604 0.11183959245681763 0.46076011657714844
0.39567407965660095 0.22887855768203735 0.42917683720588684
0.40318623185157776 0.19115576148033142 0.42350584268569946
0.41861802339553833 0.1806727945804596 0.5578733682632446
0.5304896235466003 0.12983572483062744 0.49594926834106445
0.5198078155517578 0.1723322868347168 0.4649990200996399
0.5045890808105469 0.26755908131599426 0.5251867771148682
0.48738062381744385 0.205579474568367 0.47496718168258667
0.46730557084083557 0.2021554708480835 0.4635999798774719
0.5414441823959351 0.1740693598985672 0.4406817555427551
0.3984084725379944 0.12868331372737885 0.5185750126838684
0.5349672436714172 0.17882123589515686 0.4907779097557068
0.478606641292572 0.2958577573299408 0.4509679973125458
0.32452183961868286 0.16807110607624054 0.586055338382721
0.46740996837615967 0.11805419623851776 0.5892782807350159
0.552623450756073 0.15730020403862 0.5483502745628357
0.4482751190662384 0.11616627126932144 0.5739907026290894
0.3936920166015625 0.21269157528877258 0.5344797372817993
0.468270868062973 0.1809399276971817 0.439191609621048
0.4989820420742035 0.15524739027023315 0.4841911196708679
0.483859658241272 0.10380154848098755 0.5248503088951111
0.5088804364204407 0.16758178174495697 0.6063969731330872
0.4201798737049103 0.21536466479301453 0.5158089399337769
0.40803757309913635 0.24409423768520355 0.46679049730300903
0.41487351059913635 0.11758224666118622 0.5314756631851196
0.46332404017448425 0.12010402232408524 0.4975918233394623
0.38286978006362915 0.1679900884628296 0.5742244720458984
0.47091564536094666 0.13074816763401031 0.41337907314300537
0.4531964361667633 0.15879876911640167 0.5558174252510071
0.5389406681060791 0.21044757962226868 0.5368598103523254
0.4732266962528229 0.1014505922794342 0.43359988927841187
0.40587347745895386 0.14862093329429626 0.5134568810462952
0.39650458097457886 0.17726008594036102 0.47497859597206116
0.4279886484146118 0.13271476328372955 0.5129202008247375
0.48918434977531433 0.2716886103153229 0.43256184458732605
0.463589072227478 0.2744158208370209 0.5841018557548523
0.488556832075119 0.12758967280387878 0.459102988243103
0.4926871359348297 0.2763062119483948 0.48541751503944397
0.4867726266384125 0.14750578999519348 0.5252493023872375
0.43210288882255554 0.2146274298429489 0.5902529358863831
0.45528751611709595 0.29121753573417664 0.45244547724723816
0.48381683230400085 0.3133634030818939 0.4591563642024994
0.39821577072143555 0.23381026089191437 0.5292380452156067
0.5042857527732849 0.12547090649604797 0.4309292137622833
0.4403650760650635 0.18221692740917206 0.6057088971138
0.4826393127441406 0.18918253481388092 0.5718191862106323
0.4888346791267395 0.16485172510147095 0.49174919724464417
0.46277916431427 0.1527242511510849 0.41862615942955017
0.5321869254112244 0.12040471285581589 0.5771846771240234
0.4685041606426239 0.1619279980659485 0.4861481189727783
0.468270868062973 0.1809399276971817 0.439191609621048
0.44417357444763184 0.1363348662853241 0.5373894572257996
0.3891547918319702 0.23676951229572296 0.5411167740821838
0.38063159584999084 0.15420514345169067 0.5038520693778992
0.4894542396068573 0.2818799912929535 0.5460627675056458
0.47371792793273926 0.10091904550790787 0.4953596591949463
0.48495012521743774 0.16136091947555542 0.46181434392929077
0.552820086479187 0.2129877507686615 0.4523354172706604
0.3788943290710449 0.21385324001312256 0.5279996991157532
0.4815140664577484 0.10481942445039749 0.5591760873794556
0.45238327980041504 0.13596326112747192 0.5103667974472046
0.46283942461013794 0.1935514360666275 0.6124215722084045
0.488002747297287 0.24306625127792358 0.42645537853240967
0.5469977259635925 0.13668788969516754 0.600689709186554
0.46454906463623047 0.10614408552646637 0.5163087248802185
0.5231276750564575 0.1078292578458786 0.5683445334434509
0.5156098008155823 0.23937712609767914 0.6157845854759216
0.4267951250076294 0.12500077486038208 0.4877282381057739
0.46524935960769653 0.13916422426700592 0.5531008243560791
0.5456921458244324 0.1308922916650772 0.39880919456481934
0.4506816565990448 0.17545482516288757 0.5998603701591492
0.4689023494720459 0.13217173516750336 0.4888310134410858
0.5270172357559204 0.11530826985836029 0.5277326107025146
0.5667648911476135 0.19657468795776367 0.45950013399124146
0.44033607840538025 0.12106579542160034 0.4835672676563263
0.3634950518608093 0.15173669159412384 0.4796561002731323
0.4957558512687683 0.10411522537469864 0.5292478203773499
0.47512611746788025 0.11545968055725098 0.58548504114151
0.4370681941509247 0.15596097707748413 0.40801841020584106
0.4329063296318054 0.1315564513206482 0.5073102116584778
0.4496419429779053 0.1904059499502182 0.5525757074356079
0.4602641761302948 0.10608929395675659 0.46997135877609253
0.5345632433891296 0.12291765958070755 0.49825727939605713
0.4724666178226471 0.273820161819458 0.5783188343048096
0.443422794342041 0.26276272535324097 0.506602942943573
0.43771618604660034 0.23141352832317352 0.5466148257255554
0.4705745279788971 0.1215435266494751 0.440993070602417
0.44378477334976196 0.22097772359848022 0.44784337282180786
0.533969521522522 0.23414435982704163 0.42792072892189026
0.4528195858001709 0.1932816058397293 0.5431669354438782
0.537765622138977 0.21208934485912323 0.4843520224094391
0.3829684257507324 0.1660580337047577 0.448517382144928
0.4048703610897064 0.2390015870332718 0.4454861879348755
0.5709673166275024 0.1856357902288437 0.46431973576545715
0.40041038393974304 0.12776128947734833 0.4548477530479431
0.4136342704296112 0.20234401524066925 0.5678390860557556
0.5212452411651611 0.19318069517612457 0.5187833905220032
0.45336925983428955 0.16384415328502655 0.5908834338188171
0.5548015832901001 0.1967044174671173 0.5174614191055298
0.4838491380214691 0.20347511768341064 0.5258846879005432
0.47767022252082825 0.22009171545505524 0.6092401146888733
0.45895078778266907 0.2179793119430542 0.5474478602409363
0.3777032792568207 0.21562570333480835 0.44014739990234375
0.42682355642318726 0.2146850824356079 0.49637916684150696
0.48972660303115845 0.26920369267463684 0.5889682769775391
0.47575390338897705 0.18276116251945496 0.4250330924987793
0.45404696464538574 0.1598086953163147 0.5670916438102722
0.4459195137023926 0.1668502688407898 0.590241014957428
0.5085870623588562 0.2532272934913635 0.5965616106987
0.5205957889556885 0.23208868503570557 0.5421954989433289
0.5315657258033752 0.11518620699644089 0.5880175232887268
0.4994427263736725 0.16240312159061432 0.5895031094551086
0.4386662244796753 0.21260586380958557 0.4732082784175873
0.44128745794296265 0.1114325076341629 0.5753330588340759
0.5103024244308472 0.20325297117233276 0.5131743550300598
0.4099408984184265 0.15531793236732483 0.516935408115387
0.517608642578125 0.12499566376209259 0.609341561794281
0.5515545010566711 0.1851005107164383 0.47331520915031433
0.4741865396499634 0.25233694911003113 0.4486050009727478
0.4102713465690613 0.22144898772239685 0.5251431465148926
0.502638578414917 0.1101260781288147 0.4475319981575012
0.4088538587093353 0.1745767891407013 0.5873588919639587
0.5071816444396973 0.11961189657449722 0.5891087055206299
0.4357306659221649 0.20833030343055725 0.5427256226539612
0.4696764647960663 0.19046467542648315 0.6026831269264221
0.35046952962875366 0.1841346025466919 0.49179965257644653
0.4560306668281555 0.1538037359714508 0.4919951260089874
0.5374424457550049 0.15945687890052795 0.48970314860343933
0.48268330097198486 0.265005886554718 0.447762131690979
0.4786427915096283 0.30208712816238403 0.4257405698299408
0.4359413683414459 0.1680794358253479 0.41732674837112427
0.5645910501480103 0.15615546703338623 0.42532870173454285
0.5073210597038269 0.12783201038837433 0.5114151239395142
0.4243587851524353 0.12180322408676147 0.5893918871879578
0.38413316011428833 0.1969357579946518 0.4340229332447052
0.4820057451725006 0.19153563678264618 0.4987989366054535
0.55906742811203 0.14908593893051147 0.4557131826877594
0.4114976227283478 0.18025118112564087 0.5859779715538025
0.4277294874191284 0.11517763882875443 0.4455910921096802
0.39590445160865784 0.20673693716526031 0.42358505725860596
0.5243024230003357 0.21245893836021423 0.4458027184009552
0.46446555852890015 0.22222693264484406 0.4107767939567566
0.39818570017814636 0.19319495558738708 0.5398434996604919
0.5286815166473389 0.22993677854537964 0.5155144333839417
0.5491004586219788 0.18683935701847076 0.44365009665489197
0.3462214171886444 0.16662652790546417 0.5537887215614319
0.449884295463562 0.21498681604862213 0.510916531085968
0.5223142504692078 0.11715453118085861 0.4757048189640045
0.4989820420742035 0.15524739027023315 0.4841911196708679
0.483859658241272 0.10380154848098755 0.5248503088951111
0.483859658241272 0.10380154848098755 0.5248503088951111
0.5088804364204407 0.16758178174495697 0.6063969731330872
0.4201798737049103 0.21536466479301453 0.5158089399337769
0.38286978006362915 0.1679900884628296 0.5742244720458984
0.47091564536094666 0.13074816763401031 0.41337907314300537
0.4531964361667633 0.15879876911640167 0.5558174252510071
0.5389406681060791 0.21044757962226868 0.5368598103523254
0.5389406681060791 0.21044757962226868 0.5368598103523254
0.4732266962528229 0.1014505922794342 0.43359988927841187
0.40587347745895386 0.14862093329429626 0.5134568810462952
0.49206969141960144 0.2459692656993866 0.5611699223518372
0.42816704511642456 0.12810781598091125 0.5753862261772156
0.3791950047016144 0.17594534158706665 0.5875794887542725
0.4335239827632904 0.24013659358024597 0.47375231981277466
0.5127054452896118 0.23832739889621735 0.5272126197814941
0.49211278557777405 0.11124139279127121 0.4938511550426483
0.48301371932029724 0.2301742434501648 0.4719187915325165
0.46454906463623047 0.10614408552646637 0.5163087248802185
0.5727838277816772 0.19414782524108887 0.4708758294582367
0.5391202569007874 0.1204952523112297 0.40452927350997925
0.4644544720649719 0.27805736660957336 0.6056116223335266
0.4508889317512512 0.19673839211463928 0.4539269506931305
0.3872028589248657 0.12397830933332443 0.5796292424201965
0.39590445160865784 0.20673693716526031 0.42358505725860596
0.5243024230003357 0.21245893836021423 0.4458027184009552
0.46446555852890015 0.22222693264484406 0.4107767939567566
0.39818570017814636 0.19319495558738708 0.5398434996604919
0.5286815166473389 0.22993677854537964 0.5155144333839417
0.5011981725692749 0.11818934231996536 0.46462178230285645
0.42400336265563965 0.1639963686466217 0.5641395449638367
0.44851329922676086 0.10175058990716934 0.5364692211151123
0.42021453380584717 0.21761000156402588 0.41532763838768005
0.48069944977760315 0.2772160470485687 0.5451435446739197
0.363443523645401 0.16605299711227417 0.4159572720527649
0.499948650598526 0.14669713377952576 0.4932049810886383
0.444809228181839 0.12154314666986465 0.5588831305503845
0.5689660906791687 0.1598552018404007 0.4519985318183899
0.4288369119167328 0.1699623465538025 0.5260317921638489
0.4356805086135864 0.14762648940086365 0.5806815028190613
0.5297999978065491 0.11859101057052612 0.5980502367019653
0.4812902510166168 0.15457069873809814 0.5172547698020935
0.4017396867275238 0.1545664668083191 0.44421908259391785
0.45748069882392883 0.17162518203258514 0.4362638294696808
0.4009821116924286 0.12228360027074814 0.5087419152259827
0.43306979537010193 0.17335724830627441 0.5045814514160156
0.39298561215400696 0.19155263900756836 0.4678279757499695
0.48219361901283264 0.1135939210653305 0.5997414588928223
0.5347923040390015 0.11485952138900757 0.5038747191429138
0.560634970664978 0.1518542468547821 0.5737502574920654
0.5445317029953003 0.19753828644752502 0.5224519371986389
0.4308019280433655 0.1329033076763153 0.5723177790641785
0.4223184585571289 0.2408282309770584 0.5335142612457275
0.4832038879394531 0.2137364000082016 0.4678283631801605
0.4832038879394531 0.2137364000082016 0.4678283631801605
