ply
format ascii 1.0
element vertex 830
property float x
property float y
property float z
end_header
0.6861584186553955 0.2339564859867096 0.5553358793258667
0.6450808644294739 0.12330782413482666 0.4272879660129547
0.6108801960945129 0.17818719148635864 0.48799747228622437
0.7885476350784302 0.20746104419231415 0.42993488907814026
0.5990118980407715 0.190634623169899 0.4727153480052948
0.6479294896125793 0.19880561530590057 0.4721457362174988
0.6320179104804993 0.26392897963523865 0.5350956916809082
0.7407567501068115 0.16539622843265533 0.47531214356422424
0.7295857071876526 0.3040429353713989 0.4936842620372772
0.7811335921287537 0.17185498774051666 0.5282182097434998
0.6074753999710083 0.2651785612106323 0.48818278312683105
0.7652416229248047 0.2138025015592575 0.49334517121315
0.6213786005973816 0.305524080991745 0.5581486821174622
0.6248655915260315 0.28604239225387573 0.45945748686790466
0.6794983744621277 0.2991540729999542 0.5604497790336609
0.7433983087539673 0.2837918698787689 0.5254597663879395
0.6858670711517334 0.2734600603580475 0.5446890592575073
0.7122026085853577 0.30499544739723206 0.4019145369529724
0.6255461573600769 0.20954127609729767 0.5014966130256653
0.7025523781776428 0.23441506922245026 0.4435630440711975
0.6132694482803345 0.18591272830963135 0.5570037364959717
0.6573032140731812 0.11526771634817123 0.5514639616012573
0.6506847739219666 0.12062762677669525 0.5674165487289429
0.7202886343002319 0.2557794451713562 0.5833399891853333
0.5843550562858582 0.27288442850112915 0.5472440719604492
0.7720797061920166 0.23470233380794525 0.46626099944114685
0.7376522421836853 0.1640007644891739 0.5261200666427612
0.6331559419631958 0.29461172223091125 0.4716874659061432
0.6880706548690796 0.21837225556373596 0.4353310167789459
0.7201656103134155 0.20139433443546295 0.4766008257865906
0.7210587859153748 0.2688402235507965 0.4259660840034485
0.7101817727088928 0.19642290472984314 0.40357109904289246
0.7475442886352539 0.15095217525959015 0.5631313323974609
0.6057285070419312 0.19722424447536469 0.5183978080749512
0.6673586964607239 0.2701158821582794 0.4673730432987213
0.6228833794593811 0.12469876557588577 0.4015418589115143
0.7127550840377808 0.25238844752311707 0.5172218084335327
0.7115222215652466 0.17936347424983978 0.526792585849762
0.6314116716384888 0.17727039754390717 0.4786607027053833
0.6371947526931763 0.3487156629562378 0.42711788415908813
0.6619408130645752 0.14034031331539154 0.5282736420631409
0.5914846658706665 0.1986236423254013 0.42165255546569824
0.6188015937805176 0.16162826120853424 0.5513600707054138
0.5672529935836792 0.2542722821235657 0.4035745859146118
0.5580706000328064 0.2794932425022125 0.422741174697876
0.752072811126709 0.22396981716156006 0.40129610896110535
0.638643205165863 0.2616618275642395 0.49926823377609253
0.5762672424316406 0.23957239091396332 0.47408396005630493
0.6726009845733643 0.23563726246356964 0.4651797413825989
0.7433983087539673 0.2837918698787689 0.5254597663879395
0.6858670711517334 0.2734600603580475 0.5446890592575073
0.7122026085853577 0.30499544739723206 0.4019145369529724
0.6255461573600769 0.20954127609729767 0.5014966130256653
0.7025523781776428 0.23441506922245026 0.4435630440711975
0.6132694482803345 0.18591272830963135 0.5570037364959717
0.5805327296257019 0.22936397790908813 0.48654189705848694
0.6794965267181396 0.2391825020313263 0.4127281606197357
0.6276675462722778 0.31210145354270935 0.5474830865859985
0.6867984533309937 0.32040688395500183 0.5698904991149902
0.5988894701004028 0.24549852311611176 0.5963332653045654
0.6362191438674927 0.2611856162548065 0.551450252532959
0.6255249977111816 0.11373285204172134 0.5650043487548828
0.6649348139762878 0.34662044048309326 0.4295540153980255
0.6628199815750122 0.17439132928848267 0.4653587341308594
0.5854933261871338 0.255490779876709 0.424821674823761
0.745633602142334 0.1675993949174881 0.5260123014450073
0.6281784176826477 0.11260879039764404 0.5746454000473022
0.7147780060768127 0.24567708373069763 0.5634776949882507
0.7207720875740051 0.1375899612903595 0.5415729880332947
0.5577272772789001 0.2678685784339905 0.47430962324142456
0.6225722432136536 0.15987111628055573 0.5150783061981201
0.663905918598175 0.2726377546787262 0.4280548393726349
0.6003730297088623 0.19624972343444824 0.39674854278564453
0.6283707022666931 0.22436630725860596 0.5483469367027283
0.6081504821777344 0.19693800806999207 0.45685335993766785
0.6706936955451965 0.2897038757801056 0.43474093079566956
0.7090210914611816 0.2559974789619446 0.5728323459625244
0.6835603713989258 0.1258636713027954 0.4997939467430115
0.7011434435844421 0.16465653479099274 0.5313411951065063
0.7048922181129456 0.199614480137825 0.4459115266799927
0.6689013242721558 0.2831081748008728 0.5840574502944946
0.6484009027481079 0.20846816897392273 0.3868803083896637
0.7081997394561768 0.3248201310634613 0.474165678024292
0.7389858365058899 0.2788265645503998 0.5673506855964661
0.6199705600738525 0.17426064610481262 0.5077955722808838
0.6642010807991028 0.2391292154788971 0.4222463369369507
0.6589847803115845 0.30106136202812195 0.5053077936172485
0.7283599972724915 0.27221137285232544 0.42825016379356384
0.6733631491661072 0.20391075313091278 0.559195339679718
0.6109567880630493 0.3213459253311157 0.4439363181591034
0.6553826332092285 0.2468225508928299 0.44496724009513855
0.6271921396255493 0.2617124915122986 0.40963754057884216
0.6968697905540466 0.17541512846946716 0.5696240663528442
0.6237738132476807 0.16436216235160828 0.5289904475212097
0.6172173619270325 0.21336247026920319 0.4367062449455261
0.7089491486549377 0.3013762831687927 0.4573306739330292
0.5902495980262756 0.20209085941314697 0.4162568747997284
0.7768139243125916 0.16959653794765472 0.5265645384788513
0.740945041179657 0.23226195573806763 0.4045347273349762
0.6471145749092102 0.28924596309661865 0.4845048785209656
0.6371834874153137 0.17678886651992798 0.5158417224884033
0.6165708899497986 0.2549816966056824 0.5381965041160583
0.5940600037574768 0.28471747040748596 0.546612024307251
0.7250597476959229 0.16263732314109802 0.5360596776008606
0.5587902665138245 0.26409655809402466 0.44210171699523926
0.6690810918807983 0.14792804419994354 0.43332338333129883
0.6810588836669922 0.30053892731666565 0.4673507809638977
0.6468995213508606 0.3229328393936157 0.48790624737739563
0.6416201591491699 0.30924880504608154 0.47247669100761414
0.6781823635101318 0.23097477853298187 0.5232544541358948
0.6718114018440247 0.3721012473106384 0.4175627827644348
0.7125396132469177 0.2830142676830292 0.4656549394130707
0.6569517850875854 0.21662922203540802 0.4468936622142792
0.6558117270469666 0.34932178258895874 0.4742264449596405
0.6179636716842651 0.21579015254974365 0.5876824855804443
0.6429641246795654 0.20349763333797455 0.4214893877506256
0.6238415837287903 0.17745046317577362 0.4965032935142517
0.7070994973182678 0.23193834722042084 0.5400153994560242
0.6156072020530701 0.13196061551570892 0.4297776222229004
0.6006745100021362 0.17337100207805634 0.41232457756996155
0.7209811806678772 0.1952255666255951 0.5284448266029358
0.6628913283348083 0.2782096564769745 0.510508120059967
0.6953004598617554 0.18690264225006104 0.4399155378341675
0.6463931202888489 0.26187819242477417 0.4441816508769989
0.7010390162467957 0.31788018345832825 0.5887319445610046
0.6907774806022644 0.34921300411224365 0.4911394417285919
0.740945041179657 0.23226195573806763 0.4045347273349762
0.6471145749092102 0.28924596309661865 0.4845048785209656
0.6371834874153137 0.17678886651992798 0.5158417224884033
0.6165708899497986 0.2549816966056824 0.5381965041160583
0.7250597476959229 0.16263732314109802 0.5360596776008606
0.5587902665138245 0.26409655809402466 0.44210171699523926
0.6690810918807983 0.14792804419994354 0.43332338333129883
0.6810588836669922 0.30053892731666565 0.4673507809638977
0.6468995213508606 0.3229328393936157 0.48790624737739563
0.695959210395813 0.27021709084510803 0.4676506519317627
0.738438606262207 0.2552722692489624 0.531726598739624
0.6437849402427673 0.18927529454231262 0.4745500385761261
0.7261776924133301 0.1510450541973114 0.4943409860134125
0.6704099774360657 0.2985348105430603 0.4798491299152374
0.6576229929924011 0.2740762233734131 0.488505095243454
0.7123581767082214 0.30386418104171753 0.5552225708961487
0.7080638408660889 0.34794625639915466 0.44759660959243774
0.6649804711341858 0.2720792591571808 0.39933159947395325
0.6004497408866882 0.3022203743457794 0.4446093440055847
0.6960647702217102 0.2290247231721878 0.45272311568260193
0.6229984164237976 0.2207910120487213 0.45480266213417053
0.6170530319213867 0.13117945194244385 0.4187513291835785
0.5779208540916443 0.2290458232164383 0.411742240190506
0.7697046995162964 0.2314772754907608 0.5817511677742004
0.6493191719055176 0.1880737692117691 0.5517922043800354
0.6707156300544739 0.32076969742774963 0.5943483114242554
0.6077321171760559 0.2680875360965729 0.4007222652435303
0.6979718804359436 0.19627991318702698 0.577639102935791
0.6160304546356201 0.29243335127830505 0.47849607467651367
0.6771539449691772 0.30570298433303833 0.5050569772720337
0.6774750351905823 0.17512522637844086 0.48711398243904114
0.6749721765518188 0.3529279828071594 0.43709486722946167
0.6958878636360168 0.35471078753471375 0.5224858522415161
0.5919509530067444 0.24621301889419556 0.6085601449012756
0.6798603534698486 0.2516440153121948 0.5807285308837891
0.5733499526977539 0.26424434781074524 0.560258686542511
0.6407375335693359 0.23267585039138794 0.5653969049453735
0.6177757978439331 0.23944121599197388 0.47787991166114807
0.7478368282318115 0.21237963438034058 0.551095724105835
0.6981764435768127 0.25511282682418823 0.5358981490135193
0.6574022769927979 0.18898028135299683 0.5812680125236511
0.6614543199539185 0.20894676446914673 0.57837975025177
0.6207883358001709 0.1953982710838318 0.5777359008789062
0.623673677444458 0.14921796321868896 0.4967935383319855
0.6276675462722778 0.31210145354270935 0.5474830865859985
0.6867984533309937 0.32040688395500183 0.5698904991149902
0.5988894701004028 0.24549852311611176 0.5963332653045654
0.6362191438674927 0.2611856162548065 0.551450252532959
0.6573032140731812 0.11526771634817123 0.5514639616012573
0.7136743068695068 0.2758990228176117 0.4294576048851013
0.7628483772277832 0.19410182535648346 0.5654971599578857
0.6789216995239258 0.3021250069141388 0.46877744793891907
0.6356459856033325 0.11468741297721863 0.48602405190467834
0.6259945631027222 0.252770334482193 0.49458783864974976
0.7290098667144775 0.22090531885623932 0.5040377974510193
0.7300845980644226 0.15785837173461914 0.564832866191864
0.6809665560722351 0.35611429810523987 0.5055475234985352
0.7188764810562134 0.2439413219690323 0.5448504090309143
0.7454556226730347 0.22955657541751862 0.39825621247291565
0.6565334796905518 0.26281118392944336 0.5243829488754272
0.6667634844779968 0.16203749179840088 0.3993898630142212
0.7138230800628662 0.2511261999607086 0.5299485325813293
0.6924011707305908 0.1345563530921936 0.4766260087490082
0.6191064715385437 0.12927360832691193 0.4130585789680481
0.6941152811050415 0.21854804456233978 0.46329617500305176
0.6827145218849182 0.16666346788406372 0.49904483556747437
0.7569938898086548 0.24918526411056519 0.5240921378135681
0.7588252425193787 0.24204295873641968 0.46787193417549133
0.5768251419067383 0.24319468438625336 0.4477827847003937
0.6483877897262573 0.1470702588558197 0.5630571842193604
0.6083847880363464 0.2341226190328598 0.46771690249443054
0.6787630915641785 0.19700954854488373 0.4337189495563507
0.578291654586792 0.2529521882534027 0.5651593804359436
0.7471998929977417 0.24515503644943237 0.5324773788452148
0.6954106092453003 0.3569531738758087 0.5115006566047668
0.6102790236473083 0.2409956306219101 0.48409777879714966
0.6250131130218506 0.2521686553955078 0.42206767201423645
0.7383689880371094 0.23925313353538513 0.4661274254322052
0.6142996549606323 0.1768803596496582 0.5757359862327576
0.7465770840644836 0.20542460680007935 0.5112646818161011
0.6573032140731812 0.11526771634817123 0.5514639616012573
0.7386467456817627 0.2500813603401184 0.5642843246459961
0.6531243324279785 0.14854861795902252 0.5213094353675842
0.6816732883453369 0.15323199331760406 0.45152708888053894
0.5589353442192078 0.2540241479873657 0.5128538608551025
0.6988450288772583 0.33688706159591675 0.43709081411361694
0.7001271843910217 0.2411687672138214 0.49546289443969727
0.7760843634605408 0.19443149864673615 0.5600826740264893
0.7756204605102539 0.23165063560009003 0.49116602540016174
0.6793990135192871 0.13524127006530762 0.5423332452774048
0.7265028357505798 0.31416818499565125 0.5915038585662842
0.6805663108825684 0.20900782942771912 0.5255927443504333
0.6785627007484436 0.23522911965847015 0.46826136112213135
0.5876585841178894 0.23842372000217438 0.5779605507850647
0.6109727621078491 0.15465916693210602 0.4816019535064697
0.7049171924591064 0.27298226952552795 0.4020709991455078
0.7195813655853271 0.3243650496006012 0.44676730036735535
0.616083562374115 0.14558981359004974 0.5197802186012268
0.732685387134552 0.21636000275611877 0.5282275080680847
0.656292200088501 0.2523120939731598 0.5206014513969421
0.6006473898887634 0.27321189641952515 0.575982391834259
0.6213609576225281 0.20112809538841248 0.4559861123561859
0.600367546081543 0.1917075514793396 0.4902833104133606
0.6332894563674927 0.1936338245868683 0.42110878229141235
0.6399210691452026 0.18905556201934814 0.3840987980365753
0.6637899279594421 0.1648816019296646 0.5031855702400208
0.6924983263015747 0.17934882640838623 0.44205552339553833
0.5868761539459229 0.22461819648742676 0.42035821080207825
0.690346360206604 0.1975725293159485 0.5246654152870178
0.6825239062309265 0.1976495236158371 0.4715201258659363
0.7331216931343079 0.1781051605939865 0.4410283863544464
0.5807555317878723 0.2942008078098297 0.4370364546775818
0.6194097995758057 0.20642732083797455 0.5114152431488037
0.6825239062309265 0.1976495236158371 0.4715201258659363
0.7331216931343079 0.1781051605939865 0.4410283863544464
0.5807555317878723 0.2942008078098297 0.4370364546775818
0.7152935862541199 0.27178263664245605 0.5490256547927856
0.6329069137573242 0.12544259428977966 0.4583577513694763
0.6308340430259705 0.2852894067764282 0.4893853962421417
0.7464807033538818 0.16894592344760895 0.5670653581619263
0.7370036244392395 0.15522603690624237 0.5073481202125549
0.6930140256881714 0.13246557116508484 0.5442982912063599
0.7436962723731995 0.16998781263828278 0.4964263141155243
0.6316747665405273 0.2599094808101654 0.4395277202129364
0.6223909854888916 0.30241525173187256 0.552318811416626
0.7789601683616638 0.2307605892419815 0.4528539180755615
0.61435866355896 0.26125121116638184 0.5807129740715027
0.744850218296051 0.21667832136154175 0.452632337808609
0.7164713740348816 0.15970632433891296 0.4627917408943176
0.619612455368042 0.1991186887025833 0.4387526214122772
0.7182736992835999 0.20945052802562714 0.41944319009780884
0.686690092086792 0.18073175847530365 0.41146838665008545
0.669896125793457 0.3453090190887451 0.4289148151874542
0.632391095161438 0.2738524079322815 0.5938727855682373
0.6559090614318848 0.15057584643363953 0.5337297916412354
0.6484586000442505 0.2945640981197357 0.41253790259361267
0.6847907304763794 0.18864303827285767 0.47599372267723083
0.5812378525733948 0.29133060574531555 0.4655984342098236
0.7450542449951172 0.2812062203884125 0.5411760807037354
0.6040737628936768 0.17419448494911194 0.46610525250434875
0.6241399645805359 0.22274217009544373 0.43271422386169434
0.6721956133842468 0.2167627215385437 0.5262424945831299
0.6443070769309998 0.3141922950744629 0.5748453140258789
0.6696407198905945 0.12811042368412018 0.568244457244873
0.7074313163757324 0.19837011396884918 0.4468687176704407
0.6432510018348694 0.3147549033164978 0.4832594394683838
0.6800552010536194 0.18053790926933289 0.5156367421150208
0.6918237805366516 0.21417288482189178 0.5645323991775513
0.6856404542922974 0.22876745462417603 0.49181559681892395
0.6042661070823669 0.18123896420001984 0.5357432961463928
0.5790786743164062 0.2678632140159607 0.4612894356250763
0.6290743947029114 0.12993377447128296 0.4695652425289154
0.6253507137298584 0.19967466592788696 0.5873411893844604
0.6481750011444092 0.2509258985519409 0.5664656162261963
0.6717444658279419 0.299462229013443 0.5292508006095886
0.6783340573310852 0.34384384751319885 0.5061179399490356
0.6823071241378784 0.1631697565317154 0.42060306668281555
0.7267600297927856 0.3087804913520813 0.5261274576187134
0.639262855052948 0.3069310188293457 0.4607691168785095
0.6550991535186768 0.21228477358818054 0.4366970360279083
0.6433121562004089 0.22147250175476074 0.5641614198684692
0.7379980683326721 0.2928832173347473 0.5123247504234314
0.7513759136199951 0.2774025797843933 0.4171155095100403
0.7372750639915466 0.15852674841880798 0.4932337999343872
0.6843756437301636 0.14660759270191193 0.574734091758728
0.7166622877120972 0.24227385222911835 0.5436115264892578
0.7149637937545776 0.18827848136425018 0.5676170587539673
0.5986599922180176 0.18116578459739685 0.4605967402458191
0.6617649793624878 0.28475630283355713 0.48424240946769714
0.639298677444458 0.31868937611579895 0.43736532330513
0.6458902955055237 0.22892707586288452 0.449886292219162
0.6626576781272888 0.16102740168571472 0.4752645492553711
0.6743927001953125 0.180402472615242 0.42928123474121094
0.6411570906639099 0.13920021057128906 0.5669087767601013
0.7568948268890381 0.2495526224374771 0.5006147623062134
0.646683394908905 0.21431249380111694 0.5911957025527954
0.6596019268035889 0.18775705993175507 0.5035886764526367
0.6767308712005615 0.2738495469093323 0.5584331750869751
0.643286943435669 0.29066362977027893 0.42904970049858093
0.7232259511947632 0.3274677097797394 0.5931791067123413
0.6524197459220886 0.22168788313865662 0.4666898548603058
0.7118614912033081 0.1662217080593109 0.5280722379684448
0.6219462156295776 0.19463738799095154 0.45206624269485474
0.6728649735450745 0.19165486097335815 0.42853862047195435
0.6824868321418762 0.2932122051715851 0.5994850993156433
0.6539843678474426 0.18308600783348083 0.5522456765174866
0.7413312792778015 0.23735299706459045 0.43452906608581543
0.7136743068695068 0.2758990228176117 0.4294576048851013
0.7628483772277832 0.19410182535648346 0.5654971599578857
0.6789216995239258 0.3021250069141388 0.46877744793891907
0.6356459856033325 0.11468741297721863 0.48602405190467834
0.6259945631027222 0.252770334482193 0.49458783864974976
0.600472092628479 0.3244301974773407 0.44770464301109314
0.6062180399894714 0.25107207894325256 0.4490697681903839
0.6479291319847107 0.20138871669769287 0.43478265404701233
0.6263810992240906 0.2706919014453888 0.49605825543403625
0.683438777923584 0.18409577012062073 0.5162766575813293
0.8012955784797668 0.17348738014698029 0.5661113858222961
0.6565334796905518 0.26281118392944336 0.5243829488754272
0.6667634844779968 0.16203749179840088 0.3993898630142212
0.7138230800628662 0.2511261999607086 0.5299485325813293
0.6924011707305908 0.1345563530921936 0.4766260087490082
0.6191064715385437 0.12927360832691193 0.4130585789680481
0.6941152811050415 0.21854804456233978 0.46329617500305176
0.6827145218849182 0.16666346788406372 0.49904483556747437
0.7569938898086548 0.24918526411056519 0.5240921378135681
0.6346427798271179 0.16013196110725403 0.3856842517852783
0.6661503911018372 0.31621548533439636 0.42478349804878235
0.740945041179657 0.23226195573806763 0.4045347273349762
0.5825667381286621 0.22925716638565063 0.4188939929008484
0.6108912825584412 0.21622399985790253 0.41644811630249023
0.6329069137573242 0.12544259428977966 0.4583577513694763
0.6308340430259705 0.2852894067764282 0.4893853962421417
0.7464807033538818 0.16894592344760895 0.5670653581619263
0.6930140256881714 0.13246557116508484 0.5442982912063599
0.7436962723731995 0.16998781263828278 0.4964263141155243
0.6040415167808533 0.29053795337677 0.5029709935188293
0.6316747665405273 0.2599094808101654 0.4395277202129364
0.6223909854888916 0.30241525173187256 0.552318811416626
0.7789601683616638 0.2307605892419815 0.4528539180755615
0.61435866355896 0.26125121116638184 0.5807129740715027
0.744850218296051 0.21667832136154175 0.452632337808609
0.7164713740348816 0.15970632433891296 0.4627917408943176
0.7182736992835999 0.20945052802562714 0.41944319009780884
0.686690092086792 0.18073175847530365 0.41146838665008545
0.6369724869728088 0.13678552210330963 0.47811394929885864
0.669896125793457 0.3453090190887451 0.4289148151874542
0.632391095161438 0.2738524079322815 0.5938727855682373
0.6559090614318848 0.15057584643363953 0.5337297916412354
0.6484586000442505 0.2945640981197357 0.41253790259361267
0.5812378525733948 0.29133060574531555 0.4655984342098236
0.7450542449951172 0.2812062203884125 0.5411760807037354
0.6040737628936768 0.17419448494911194 0.46610525250434875
0.6241399645805359 0.22274217009544373 0.43271422386169434
0.6241399645805359 0.22274217009544373 0.43271422386169434
0.6721956133842468 0.2167627215385437 0.5262424945831299
0.6443070769309998 0.3141922950744629 0.5748453140258789
0.7054972052574158 0.14803248643875122 0.5693204402923584
0.6696407198905945 0.12811042368412018 0.568244457244873
0.7221452593803406 0.20299968123435974 0.4986649751663208
0.6917650699615479 0.23270471394062042 0.4313981831073761
0.7957131862640381 0.1987304985523224 0.4642774164676666
0.740492045879364 0.24530166387557983 0.45790037512779236
0.7287284731864929 0.27154800295829773 0.40512415766716003
0.6365856528282166 0.2618190050125122 0.5297291874885559
0.6269444227218628 0.18804380297660828 0.5811111330986023
0.7477037906646729 0.17964111268520355 0.4526102840900421
0.6780257821083069 0.2057756632566452 0.386778861284256
0.5896201729774475 0.22726407647132874 0.5235385894775391
0.7719504833221436 0.23805205523967743 0.5570347905158997
0.6085739731788635 0.2675549387931824 0.4550149440765381
0.7284672260284424 0.19087731838226318 0.5481650829315186
0.6084093451499939 0.31422898173332214 0.44571009278297424
0.6905326247215271 0.19520597159862518 0.45140302181243896
0.7113510966300964 0.31415680050849915 0.470518559217453
0.7184090614318848 0.18823908269405365 0.49399229884147644
0.5915784239768982 0.2693478465080261 0.42478933930397034
0.6937294602394104 0.31650036573410034 0.43706175684928894
0.6368258595466614 0.26493406295776367 0.42105501890182495
0.7474907636642456 0.1565052568912506 0.5656796097755432
0.5502376556396484 0.26520174741744995 0.45201218128204346
0.5490759015083313 0.2748071253299713 0.429662823677063
0.6521217823028564 0.22042804956436157 0.488762766122818
0.648532509803772 0.19523942470550537 0.44853460788726807
0.5841014981269836 0.2445811927318573 0.39890986680984497
0.7059041261672974 0.17173239588737488 0.48843875527381897
0.574712872505188 0.2505093812942505 0.4168391227722168
0.7564055323600769 0.2063794881105423 0.5582093000411987
0.6459136605262756 0.3345921039581299 0.46089789271354675
0.7843704223632812 0.2037695050239563 0.45268648862838745
0.722283661365509 0.18857444822788239 0.40351602435112
0.7503958940505981 0.199741929769516 0.3920314610004425
0.740945041179657 0.23226195573806763 0.4045347273349762
0.7568948268890381 0.2495526224374771 0.5006147623062134
0.646683394908905 0.21431249380111694 0.5911957025527954
0.587995707988739 0.2674027681350708 0.5491834282875061
0.785622239112854 0.20968371629714966 0.4796629548072815
0.6564322113990784 0.18520431220531464 0.5035164952278137
0.6137123107910156 0.1467164158821106 0.44622325897216797
0.5750427842140198 0.24459505081176758 0.5996676683425903
0.6025132536888123 0.3088274300098419 0.4128133952617645
0.6617349982261658 0.2316833883523941 0.5554385781288147
0.6354795098304749 0.31056785583496094 0.47469717264175415
0.6030056476593018 0.18978901207447052 0.4988228976726532
0.637881875038147 0.14069685339927673 0.39241665601730347
0.5679386258125305 0.24965743720531464 0.5100257992744446
0.711050271987915 0.23835189640522003 0.5551989078521729
0.7143917083740234 0.28406426310539246 0.4739852249622345
0.704102098941803 0.20326153934001923 0.5254558324813843
0.6836434006690979 0.19586080312728882 0.5568842887878418
0.5505885481834412 0.27891308069229126 0.4452192187309265
0.6388038992881775 0.3344168961048126 0.44954484701156616
0.7430928349494934 0.2908044755458832 0.49065619707107544
0.7459045648574829 0.21304459869861603 0.5175042152404785
0.629960834980011 0.28772976994514465 0.5621441602706909
0.5692898035049438 0.24605631828308105 0.45555469393730164
0.6629044413566589 0.1794387251138687 0.41041114926338196
0.6832420229911804 0.2593863904476166 0.5960156321525574
0.6619948148727417 0.1333162635564804 0.5613864660263062
0.6729796528816223 0.2517695128917694 0.5022124648094177
0.6279109716415405 0.2715560495853424 0.39941027760505676
0.7480444312095642 0.2296934425830841 0.5617667436599731
0.694442093372345 0.19093243777751923 0.5811247229576111
0.7620342969894409 0.1979495882987976 0.574154257774353
0.6437849402427673 0.18927529454231262 0.4745500385761261
0.7188764810562134 0.2439413219690323 0.5448504090309143
0.7454556226730347 0.22955657541751862 0.39825621247291565
0.6565334796905518 0.26281118392944336 0.5243829488754272
0.7214214205741882 0.2812785804271698 0.5311285257339478
0.6932684779167175 0.15596537292003632 0.49669167399406433
0.6334071159362793 0.11123058944940567 0.5379499793052673
0.6423848271369934 0.21941502392292023 0.5201218128204346
0.5916487574577332 0.22874261438846588 0.5438899993896484
0.6529806852340698 0.12572768330574036 0.549301266670227
0.6578836441040039 0.18346847593784332 0.4367941617965698
0.7036553621292114 0.32119020819664 0.4087834060192108
0.674998939037323 0.24492348730564117 0.49607595801353455
0.6561815738677979 0.22936727106571198 0.5834508538246155
0.7621157169342041 0.2228728085756302 0.5084463953971863
0.6847076416015625 0.31516510248184204 0.4217820465564728
0.6866361498832703 0.1727849543094635 0.4585210680961609
0.6029620170593262 0.23365731537342072 0.5558875799179077
0.5534475445747375 0.27507415413856506 0.4280776083469391
0.6776743531227112 0.161955788731575 0.3828746974468231
0.7128158807754517 0.3330761790275574 0.4874257445335388
0.6832893490791321 0.2237766683101654 0.5308992862701416
0.6907486319541931 0.30485638976097107 0.4215831458568573
0.7001346945762634 0.19794265925884247 0.4771205484867096
0.7639315128326416 0.17436295747756958 0.5296239852905273
0.687379002571106 0.30465415120124817 0.4283982217311859
0.6845759749412537 0.2581573724746704 0.5928683876991272
0.6994822025299072 0.19043201208114624 0.5489313006401062
0.637597918510437 0.3260919749736786 0.5066831707954407
0.6981503963470459 0.20326641201972961 0.4545176923274994
0.6638730764389038 0.34283003211021423 0.4271441698074341
0.5979352593421936 0.3049040734767914 0.4663073718547821
0.6819840669631958 0.17635099589824677 0.5438057780265808
0.7676801085472107 0.1902664452791214 0.5411369204521179
0.6066325306892395 0.2629915177822113 0.4354308247566223
0.7223701477050781 0.19449496269226074 0.5307558178901672
0.6524197459220886 0.22168788313865662 0.4666898548603058
0.7118614912033081 0.1662217080593109 0.5280722379684448
0.6219462156295776 0.19463738799095154 0.45206624269485474
0.6728649735450745 0.19165486097335815 0.42853862047195435
0.6824868321418762 0.2932122051715851 0.5994850993156433
0.6539843678474426 0.18308600783348083 0.5522456765174866
0.7413312792778015 0.23735299706459045 0.43452906608581543
0.7136743068695068 0.2758990228176117 0.4294576048851013
0.7628483772277832 0.19410182535648346 0.5654971599578857
0.6789216995239258 0.3021250069141388 0.46877744793891907
0.6356459856033325 0.11468741297721863 0.48602405190467834
0.6259945631027222 0.252770334482193 0.49458783864974976
0.7290098667144775 0.22090531885623932 0.5040377974510193
0.7300845980644226 0.15785837173461914 0.564832866191864
0.6809665560722351 0.35611429810523987 0.5055475234985352
0.7188764810562134 0.2439413219690323 0.5448504090309143
0.7454556226730347 0.22955657541751862 0.39825621247291565
0.6565334796905518 0.26281118392944336 0.5243829488754272
0.6667634844779968 0.16203749179840088 0.3993898630142212
0.7138230800628662 0.2511261999607086 0.5299485325813293
0.6924011707305908 0.1345563530921936 0.4766260087490082
0.6191064715385437 0.12927360832691193 0.4130585789680481
0.6941152811050415 0.21854804456233978 0.46329617500305176
0.6827145218849182 0.16666346788406372 0.49904483556747437
0.7569938898086548 0.24918526411056519 0.5240921378135681
0.7588252425193787 0.24204295873641968 0.46787193417549133
0.5768251419067383 0.24319468438625336 0.4477827847003937
0.6483877897262573 0.1470702588558197 0.5630571842193604
0.7002573609352112 0.345173180103302 0.5169821977615356
0.7622202038764954 0.17212752997875214 0.48690882325172424
0.6915934681892395 0.3366500735282898 0.45063847303390503
0.595477283000946 0.27713075280189514 0.47937193512916565
0.6632537841796875 0.171418696641922 0.5498043298721313
0.6837551593780518 0.25675779581069946 0.44739988446235657
0.6150863170623779 0.2870539426803589 0.5123032927513123
0.6928540468215942 0.3336105942726135 0.4629262089729309
0.7275688648223877 0.2114042192697525 0.5689703822135925
0.6685447096824646 0.13727621734142303 0.4583113491535187
0.709516704082489 0.28688231110572815 0.538784384727478
0.6146079301834106 0.18229864537715912 0.5846384763717651
0.6637502312660217 0.15265537798404694 0.49569377303123474
0.6170517206192017 0.15273848176002502 0.466261625289917
0.6637502312660217 0.15265537798404694 0.49569377303123474
0.6170517206192017 0.15273848176002502 0.466261625289917
0.585511326789856 0.2909783720970154 0.45342516899108887
0.6320114135742188 0.30226823687553406 0.41943085193634033
0.6600707769393921 0.20864704251289368 0.4923785924911499
0.7676801085472107 0.1902664452791214 0.5411369204521179
0.6415602564811707 0.1511583775281906 0.42673689126968384
0.5630958676338196 0.25136759877204895 0.4971693754196167
0.6708206534385681 0.15360188484191895 0.43550071120262146
0.7258549928665161 0.15394064784049988 0.4710046947002411
0.6524197459220886 0.22168788313865662 0.4666898548603058
0.7118614912033081 0.1662217080593109 0.5280722379684448
0.6219462156295776 0.19463738799095154 0.45206624269485474
0.6728649735450745 0.19165486097335815 0.42853862047195435
0.6824868321418762 0.2932122051715851 0.5994850993156433
0.6539843678474426 0.18308600783348083 0.5522456765174866
0.7413312792778015 0.23735299706459045 0.43452906608581543
0.7136743068695068 0.2758990228176117 0.4294576048851013
0.6928621530532837 0.3047516644001007 0.49382567405700684
0.7118614912033081 0.1662217080593109 0.5280722379684448
0.6219462156295776 0.19463738799095154 0.45206624269485474
0.6728649735450745 0.19165486097335815 0.42853862047195435
0.6824868321418762 0.2932122051715851 0.5994850993156433
0.6539843678474426 0.18308600783348083 0.5522456765174866
0.7413312792778015 0.23735299706459045 0.43452906608581543
0.7136743068695068 0.2758990228176117 0.4294576048851013
0.7628483772277832 0.19410182535648346 0.5654971599578857
0.6789216995239258 0.3021250069141388 0.46877744793891907
0.6356459856033325 0.11468741297721863 0.48602405190467834
0.6259945631027222 0.252770334482193 0.49458783864974976
0.7290098667144775 0.22090531885623932 0.5040377974510193
0.7300845980644226 0.15785837173461914 0.564832866191864
0.6842598915100098 0.35204246640205383 0.5276669859886169
0.6003981232643127 0.23620961606502533 0.42182114720344543
0.6343119144439697 0.18043915927410126 0.47016966342926025
0.7562817931175232 0.2504183053970337 0.4437596797943115
0.7170785069465637 0.21975988149642944 0.5431491136550903
0.6531804800033569 0.23774723708629608 0.49611660838127136
0.7804359197616577 0.21105341613292694 0.44407665729522705
0.7523466944694519 0.1720997542142868 0.48442545533180237
0.6349258422851562 0.32913970947265625 0.513556182384491
0.649748682975769 0.12356432527303696 0.5511853694915771
0.7588252425193787 0.24204295873641968 0.46787193417549133
0.6390072703361511 0.23900918662548065 0.4761263132095337
0.6467625498771667 0.23304623365402222 0.45425572991371155
0.7389535307884216 0.22054235637187958 0.5371034741401672
0.6339483261108398 0.266561895608902 0.5712986588478088
0.7789627909660339 0.19117851555347443 0.4823104441165924
0.6918628811836243 0.32075342535972595 0.46502164006233215
0.6336184740066528 0.2717127501964569 0.4302648901939392
0.5963279604911804 0.22792182862758636 0.4754027724266052
0.7047130465507507 0.26885712146759033 0.5048677921295166
0.6098182797431946 0.13417792320251465 0.4145214259624481
0.772458553314209 0.18624380230903625 0.49303820729255676
0.6030425429344177 0.18165838718414307 0.5743242502212524
0.7628483772277832 0.19410182535648346 0.5654971599578857
0.6789216995239258 0.3021250069141388 0.46877744793891907
0.6356459856033325 0.11468741297721863 0.48602405190467834
0.6259945631027222 0.252770334482193 0.49458783864974976
0.7290098667144775 0.22090531885623932 0.5040377974510193
0.7300845980644226 0.15785837173461914 0.564832866191864
0.6809665560722351 0.35611429810523987 0.5055475234985352
0.7188764810562134 0.2439413219690323 0.5448504090309143
0.7454556226730347 0.22955657541751862 0.39825621247291565
0.6565334796905518 0.26281118392944336 0.5243829488754272
0.6667634844779968 0.16203749179840088 0.3993898630142212
0.7138230800628662 0.2511261999607086 0.5299485325813293
0.6924011707305908 0.1345563530921936 0.4766260087490082
0.6191064715385437 0.12927360832691193 0.4130585789680481
0.6941152811050415 0.21854804456233978 0.46329617500305176
0.6565728783607483 0.31053823232650757 0.43624347448349
0.6443102359771729 0.2561843693256378 0.39860841631889343
0.6286863088607788 0.11382684111595154 0.5445191264152527
0.5923452973365784 0.2862964868545532 0.5197977423667908
0.6746354103088379 0.2523549199104309 0.44401663541793823
0.685745894908905 0.3654317855834961 0.4691227972507477
0.6797823309898376 0.26731106638908386 0.4394151568412781
0.6118740439414978 0.22150452435016632 0.5953506827354431
0.6978773474693298 0.2936829626560211 0.4112364947795868
0.7215250134468079 0.22359851002693176 0.5713751316070557
0.5918650031089783 0.24281738698482513 0.6024027466773987
0.6440649628639221 0.18587873876094818 0.5280997157096863
0.6255249977111816 0.11373285204172134 0.5650043487548828
0.7035920023918152 0.2878722846508026 0.5030282139778137
0.5977638363838196 0.285394549369812 0.42270874977111816
0.6148374080657959 0.22117580473423004 0.5399432182312012
0.6386702060699463 0.18927526473999023 0.5171075463294983
0.753261387348175 0.21066059172153473 0.44034117460250854
0.7007665038108826 0.19857367873191833 0.5473275780677795
0.7105056047439575 0.29639703035354614 0.48832589387893677
0.728512167930603 0.3131720721721649 0.5893985629081726
0.5782310962677002 0.25059542059898376 0.5560420155525208
0.7505009770393372 0.1991817206144333 0.46185484528541565
0.6533998847007751 0.11515888571739197 0.5263485312461853
0.7754030823707581 0.22653533518314362 0.4934961497783661
0.6456602215766907 0.22863803803920746 0.5055169463157654
0.7622202038764954 0.17212752997875214 0.48690882325172424
0.6915934681892395 0.3366500735282898 0.45063847303390503
0.595477283000946 0.27713075280189514 0.47937193512916565
0.6632537841796875 0.171418696641922 0.5498043298721313
0.6632537841796875 0.171418696641922 0.5498043298721313
0.6837551593780518 0.25675779581069946 0.44739988446235657
0.6150863170623779 0.2870539426803589 0.5123032927513123
0.6928540468215942 0.3336105942726135 0.4629262089729309
0.7540826797485352 0.1886199563741684 0.53493732213974
0.7275688648223877 0.2114042192697525 0.5689703822135925
0.6685447096824646 0.13727621734142303 0.4583113491535187
0.709516704082489 0.28688231110572815 0.538784384727478
0.6146079301834106 0.18229864537715912 0.5846384763717651
0.6637502312660217 0.15265537798404694 0.49569377303123474
0.6170517206192017 0.15273848176002502 0.466261625289917
0.585511326789856 0.2909783720970154 0.45342516899108887
0.6320114135742188 0.30226823687553406 0.41943085193634033
0.6600707769393921 0.20864704251289368 0.4923785924911499
0.7450059652328491 0.2506696283817291 0.5433394908905029
0.5505885481834412 0.27891308069229126 0.4452192187309265
0.6388038992881775 0.3344168961048126 0.44954484701156616
0.7454556226730347 0.22955657541751862 0.39825621247291565
0.6565334796905518 0.26281118392944336 0.5243829488754272
0.6667634844779968 0.16203749179840088 0.3993898630142212
0.7138230800628662 0.2511261999607086 0.5299485325813293
0.7466751933097839 0.23684294521808624 0.5098055601119995
0.7519038319587708 0.2317672073841095 0.45184484124183655
0.7347550988197327 0.23663106560707092 0.4940597116947174
0.7505220770835876 0.1852741688489914 0.4810274541378021
0.6767394542694092 0.17740757763385773 0.5338171720504761
0.6327773928642273 0.3057844638824463 0.5196524858474731
0.7510966062545776 0.24249649047851562 0.5823324918746948
0.6959108114242554 0.13087370991706848 0.5525153875350952
0.5964021682739258 0.22913962602615356 0.5721948742866516
0.6428470015525818 0.2696931064128876 0.5528233647346497
0.6394501328468323 0.30747413635253906 0.4768231511116028
0.6663333773612976 0.32101258635520935 0.4662941098213196
0.7315351366996765 0.31400617957115173 0.5351880192756653
0.7140003442764282 0.33230772614479065 0.5325384140014648
0.6259487867355347 0.1535351723432541 0.4808749556541443
0.6493707895278931 0.32694193720817566 0.428497314453125
0.6530890464782715 0.19074329733848572 0.5675997734069824
0.7362298369407654 0.20992977917194366 0.4946194589138031
0.6859661936759949 0.1922321617603302 0.41729122400283813
0.6589447855949402 0.2528289258480072 0.39463117718696594
0.5798586010932922 0.2264506071805954 0.5237860679626465
0.6531191468238831 0.33478671312332153 0.451941579580307
0.6311635971069336 0.11338037997484207 0.5118942260742188
0.7080888748168945 0.33691203594207764 0.4901195466518402
0.6814815998077393 0.1466214954853058 0.39967653155326843
0.785622239112854 0.20968371629714966 0.4796629548072815
0.6565334796905518 0.26281118392944336 0.5243829488754272
0.6667634844779968 0.16203749179840088 0.3993898630142212
0.7138230800628662 0.2511261999607086 0.5299485325813293
0.6924011707305908 0.1345563530921936 0.4766260087490082
0.6191064715385437 0.12927360832691193 0.4130585789680481
0.6941152811050415 0.21854804456233978 0.46329617500305176
0.6020418405532837 0.29727888107299805 0.5524169206619263
0.7264596819877625 0.14470376074314117 0.5311459898948669
0.6346427798271179 0.16013196110725403 0.3856842517852783
0.6936952471733093 0.14982526004314423 0.5276119112968445
0.5554934740066528 0.26454463601112366 0.41634729504585266
0.7601366639137268 0.2624947130680084 0.4995998442173004
0.6240227818489075 0.2843235433101654 0.5530946850776672
0.7215776443481445 0.21824368834495544 0.5809223651885986
0.6316630840301514 0.3190461993217468 0.4688666760921478
0.6079517602920532 0.16935135424137115 0.5656101703643799
0.6130013465881348 0.30329006910324097 0.4590985178947449
0.6811917424201965 0.267385870218277 0.5285243988037109
0.638274610042572 0.16665102541446686 0.4391198754310608
0.7029540538787842 0.16520364582538605 0.46441200375556946
0.6019553542137146 0.2427307665348053 0.5613524913787842
0.6492118835449219 0.24420134723186493 0.5606446862220764
0.7535245418548584 0.22200635075569153 0.3885505497455597
0.6119978427886963 0.22131390869617462 0.5931513905525208
0.6214767098426819 0.3139564096927643 0.4765888750553131
0.6256337761878967 0.16801929473876953 0.5900050401687622
0.5823624730110168 0.2396855503320694 0.567674994468689
0.6138033866882324 0.30550363659858704 0.43587201833724976
0.7340714335441589 0.22423918545246124 0.4610308110713959
0.7505660057067871 0.27716362476348877 0.4399781823158264
0.6984521746635437 0.15035654604434967 0.45501381158828735
0.5593823790550232 0.26131704449653625 0.5326288342475891
0.6066761016845703 0.2393849641084671 0.49527230858802795
0.6056200265884399 0.2645457684993744 0.5966306924819946
0.6385618448257446 0.19887013733386993 0.5752364993095398
0.6334283351898193 0.11781424283981323 0.45519623160362244
0.743018627166748 0.20777148008346558 0.5146557688713074
0.5971385836601257 0.24733290076255798 0.4048430919647217
0.6767394542694092 0.17740757763385773 0.5338171720504761
0.6327773928642273 0.3057844638824463 0.5196524858474731
0.7510966062545776 0.24249649047851562 0.5823324918746948
0.6959108114242554 0.13087370991706848 0.5525153875350952
0.5964021682739258 0.22913962602615356 0.5721948742866516
0.6428470015525818 0.2696931064128876 0.5528233647346497
0.6210856437683105 0.19242320954799652 0.49951255321502686
0.6775786876678467 0.22660920023918152 0.4190313220024109
0.5578915476799011 0.2579037845134735 0.4450967013835907
0.6552727818489075 0.293010413646698 0.5707273483276367
0.6554926037788391 0.26467621326446533 0.48664581775665283
0.603016197681427 0.2791104018688202 0.5010986924171448
0.6888350248336792 0.28347596526145935 0.5738590359687805
0.7068385481834412 0.2587377727031708 0.4805971682071686
0.6405921578407288 0.25559329986572266 0.4868256747722626
0.6757494211196899 0.1524011343717575 0.5650644898414612
0.5917952060699463 0.20793844759464264 0.501979410648346
0.6646639704704285 0.1446833610534668 0.39005616307258606
0.5985661149024963 0.21170341968536377 0.5962291359901428
0.5697703957557678 0.26275745034217834 0.521136999130249
0.7527754902839661 0.21304085850715637 0.4718378782272339
0.6915328502655029 0.26405301690101624 0.5489429831504822
0.6823390126228333 0.3110814392566681 0.517772376537323
0.5636151432991028 0.24588295817375183 0.554681658744812
0.7001686692237854 0.3440810739994049 0.4746190309524536
0.6685447096824646 0.13727621734142303 0.4583113491535187
0.7211889028549194 0.24285611510276794 0.5461119413375854
0.664812445640564 0.2198251485824585 0.45430877804756165
0.6649749279022217 0.1473722904920578 0.3909453749656677
0.6926319003105164 0.3620569705963135 0.45888930559158325
0.6321126818656921 0.1403716504573822 0.3779512941837311
0.713591456413269 0.21644797921180725 0.3983452618122101
0.5947349667549133 0.2834038734436035 0.5603145956993103
0.6327223777770996 0.147987499833107 0.5698641538619995
0.7451290488243103 0.1612338274717331 0.5404439568519592
0.6484823822975159 0.3462088108062744 0.4206588566303253
0.6972867846488953 0.31767895817756653 0.5273897647857666
0.586417019367218 0.26227617263793945 0.5812915563583374
0.7910091280937195 0.20513422787189484 0.4919441044330597
0.572728157043457 0.23488682508468628 0.5936004519462585
0.6976662874221802 0.18678148090839386 0.5617528557777405
0.5822383761405945 0.21999803185462952 0.3970400393009186
0.6245185732841492 0.25227633118629456 0.4243854880332947
0.6565295457839966 0.18171723186969757 0.4816729724407196
0.6948739886283875 0.34953024983406067 0.5617417097091675
0.730881929397583 0.22185151278972626 0.453152060508728
0.6755869388580322 0.17920175194740295 0.4570775330066681
0.6447545886039734 0.1786389946937561 0.5877068638801575
0.6533522605895996 0.24624328315258026 0.5827435851097107
0.7155824303627014 0.23989535868167877 0.5685049891471863
0.7530272006988525 0.21895015239715576 0.4402915835380554
0.6024687886238098 0.19931432604789734 0.390843003988266
0.6885384321212769 0.20245672762393951 0.5512884855270386
0.678524374961853 0.20259736478328705 0.4546751379966736
0.6234554648399353 0.23262177407741547 0.4348818063735962
0.636652410030365 0.16659817099571228 0.5515459179878235
0.7035338282585144 0.1582600474357605 0.5327613949775696
0.6415602564811707 0.1511583775281906 0.42673689126968384
0.6924011707305908 0.1345563530921936 0.4766260087490082
0.6191064715385437 0.12927360832691193 0.4130585789680481
0.6941152811050415 0.21854804456233978 0.46329617500305176
0.6827145218849182 0.16666346788406372 0.49904483556747437
0.7569938898086548 0.24918526411056519 0.5240921378135681
0.7588252425193787 0.24204295873641968 0.46787193417549133
0.5768251419067383 0.24319468438625336 0.4477827847003937
0.6483877897262573 0.1470702588558197 0.5630571842193604
0.7601791620254517 0.16835348308086395 0.5004863142967224
0.6303266286849976 0.20193561911582947 0.4932309687137604
0.6422164440155029 0.29613858461380005 0.40271151065826416
0.7025291919708252 0.2847512364387512 0.4212437868118286
0.6357336640357971 0.26778697967529297 0.4608805179595947
0.7005471587181091 0.26306086778640747 0.5800565481185913
0.6270861029624939 0.2729462683200836 0.5793740749359131
0.6206077933311462 0.28814733028411865 0.4029311239719391
0.6633776426315308 0.223981574177742 0.5333372950553894
0.5603976845741272 0.2611216604709625 0.4846497178077698
0.6062800884246826 0.1853761076927185 0.5194302201271057
0.6097822189331055 0.21110446751117706 0.5365409255027771
0.6355369687080383 0.1766051948070526 0.46333831548690796
0.5782625675201416 0.29926493763923645 0.4146462380886078
0.6997084617614746 0.2461564838886261 0.5199945569038391
0.5495021939277649 0.2760305106639862 0.44458839297294617
0.595960259437561 0.2246820628643036 0.598129391670227
0.714296281337738 0.3014562427997589 0.45105794072151184
0.749404788017273 0.21795554459095 0.4234108328819275
0.7487838864326477 0.28388991951942444 0.4555930495262146
0.6894968748092651 0.20097404718399048 0.4738871455192566
0.7359568476676941 0.28647753596305847 0.5880386233329773
0.6997462511062622 0.16745570302009583 0.4632507264614105
0.6259945631027222 0.252770334482193 0.49458783864974976
0.6924011707305908 0.1345563530921936 0.4766260087490082
0.6191064715385437 0.12927360832691193 0.4130585789680481
0.6941152811050415 0.21854804456233978 0.46329617500305176
0.6827145218849182 0.16666346788406372 0.49904483556747437
0.7569938898086548 0.24918526411056519 0.5240921378135681
0.7588252425193787 0.24204295873641968 0.46787193417549133
0.5768251419067383 0.24319468438625336 0.4477827847003937
0.6483877897262573 0.1470702588558197 0.5630571842193604
0.7601791620254517 0.16835348308086395 0.5004863142967224
0.6303266286849976 0.20193561911582947 0.4932309687137604
0.6422164440155029 0.29613858461380005 0.40271151065826416
0.7025291919708252 0.2847512364387512 0.4212437868118286
0.6357336640357971 0.26778697967529297 0.4608805179595947
0.7026633024215698 0.27245351672172546 0.5717825889587402
0.6651632785797119 0.21026425063610077 0.4621351659297943
0.6371489763259888 0.2453961819410324 0.5760407447814941
0.5791985392570496 0.2445664405822754 0.5786973237991333
0.6332830786705017 0.2479010373353958 0.4435199201107025
0.6794491410255432 0.17634202539920807 0.41457799077033997
0.7089365124702454 0.12900708615779877 0.5367432832717896
0.6490218043327332 0.14989162981510162 0.5088185667991638
0.6572161316871643 0.14269375801086426 0.49251365661621094
0.7765883207321167 0.20937930047512054 0.4545668065547943
0.7887136936187744 0.18957147002220154 0.5310422778129578
0.7577579617500305 0.21510055661201477 0.4782305657863617
0.6554349064826965 0.12536156177520752 0.5284846425056458
0.6743493676185608 0.1388092190027237 0.4339817762374878
0.7368675470352173 0.23319657146930695 0.44667237997055054
0.7119686603546143 0.30399465560913086 0.4014313519001007
0.6230595111846924 0.1395420879125595 0.4042515456676483
0.6408643126487732 0.18705172836780548 0.42288389801979065
0.7781713604927063 0.20961187779903412 0.4753372073173523
0.5947811603546143 0.2911894917488098 0.43431761860847473
0.5977140069007874 0.29291024804115295 0.42719343304634094
0.6434694528579712 0.25554949045181274 0.48259657621383667
0.7215776443481445 0.21824368834495544 0.5809223651885986
0.6316630840301514 0.3190461993217468 0.4688666760921478
0.6079517602920532 0.16935135424137115 0.5656101703643799
0.6130013465881348 0.30329006910324097 0.4590985178947449
0.6502153873443604 0.18329061567783356 0.4213881194591522
0.633959949016571 0.24934552609920502 0.5447104573249817
0.6492118835449219 0.24420134723186493 0.5606446862220764
0.7535245418548584 0.22200635075569153 0.3885505497455597
0.6192840933799744 0.2668975591659546 0.5180526375770569
0.6214767098426819 0.3139564096927643 0.4765888750553131
0.6614201068878174 0.32311898469924927 0.4743272364139557
0.6138033866882324 0.30550363659858704 0.43587201833724976
