ply
format ascii 1.0
element vertex 826
property float x
property float y
property float z
end_header
0.5159226059913635 0.2908731997013092 0.44481465220451355
0.5272148847579956 0.15328577160835266 0.4782387614250183
0.45450636744499207 0.1912051886320114 0.5189545154571533
0.5007239580154419 0.2146364003419876 0.5819302201271057
0.44107863306999207 0.30285191535949707 0.4066963195800781
0.3589831292629242 0.3295697569847107 0.40960493683815
0.45582595467567444 0.18988315761089325 0.453847736120224
0.39276689291000366 0.1598612368106842 0.4940478205680847
0.4198090434074402 0.1882997304201126 0.4642523527145386
0.39683660864830017 0.24654771387577057 0.4830649197101593
0.5098478198051453 0.21953806281089783 0.5950477123260498
0.35042017698287964 0.15678685903549194 0.40794140100479126
0.48905277252197266 0.24990634620189667 0.5762239098548889
0.5286943316459656 0.24134884774684906 0.4264270067214966
0.3928070068359375 0.17155571281909943 0.5780317783355713
0.48452916741371155 0.1712854951620102 0.5268257856369019
0.5391601920127869 0.17890313267707825 0.54800945520401
0.47003716230392456 0.27713045477867126 0.4636414349079132
0.45020392537117004 0.1812155842781067 0.4156414568424225
0.5364665389060974 0.22692754864692688 0.5493260025978088
0.4500129520893097 0.3257831037044525 0.43624815344810486
0.4610556364059448 0.16014765202999115 0.4907630681991577
0.45082372426986694 0.16457603871822357 0.5886461138725281
0.5278725028038025 0.15218420326709747 0.4069419801235199
0.4670829772949219 0.3026094436645508 0.5302078723907471
0.4478647708892822 0.15375876426696777 0.4508792459964752
0.47950631380081177 0.3033022880554199 0.4034610092639923
0.4478647708892822 0.15375876426696777 0.4508792459964752
0.4627881348133087 0.3034263253211975 0.5936904549598694
0.4598335325717926 0.16369852423667908 0.5735215544700623
0.4941830337047577 0.2728811502456665 0.44608449935913086
0.42611995339393616 0.27526557445526123 0.5557542443275452
0.3701164126396179 0.1528521031141281 0.5011886954307556
0.487555593252182 0.18375137448310852 0.4981648623943329
0.5163518190383911 0.3173641860485077 0.5492544770240784
0.5324251651763916 0.30555763840675354 0.5095781683921814
0.46177229285240173 0.20942431688308716 0.5094875693321228
0.4558800160884857 0.2402736395597458 0.5094856023788452
0.48180145025253296 0.16336636245250702 0.5299397706985474
0.530423104763031 0.18729545176029205 0.5366505980491638
0.41526928544044495 0.1821666955947876 0.563759982585907
0.41457873582839966 0.2359246462583542 0.5087413191795349
0.4675191640853882 0.24017396569252014 0.4953375458717346
0.46249866485595703 0.23393402993679047 0.5576097965240479
0.46032342314720154 0.33194848895072937 0.4924876093864441
0.418343722820282 0.21871022880077362 0.5125815272331238
0.5342144966125488 0.2227192521095276 0.45382359623908997
0.37171098589897156 0.25201302766799927 0.4280056655406952
0.4027644097805023 0.16247202455997467 0.5592969059944153
0.3759399950504303 0.30323970317840576 0.43833985924720764
0.36476290225982666 0.2336266189813614 0.48754698038101196
0.38471609354019165 0.15998989343643188 0.4248501658439636
0.3659074306488037 0.29498010873794556 0.4409535527229309
0.5456826090812683 0.19501450657844543 0.542618989944458
0.5009490847587585 0.3250088691711426 0.5109304189682007
0.4109050929546356 0.22005657851696014 0.47954702377319336
0.5143861174583435 0.18207204341888428 0.5321516394615173
0.4041364789009094 0.26517802476882935 0.4033220708370209
0.5201502442359924 0.18056979775428772 0.45789822936058044
0.46177229285240173 0.20942431688308716 0.5094875693321228
0.4558800160884857 0.2402736395597458 0.5094856023788452
0.45171087980270386 0.1809157431125641 0.5100294947624207
0.3733232617378235 0.15707428753376007 0.4670332074165344
0.4445789158344269 0.18660607933998108 0.4745403528213501
0.48250219225883484 0.20666423439979553 0.5690733790397644
0.510486900806427 0.27482402324676514 0.5042260885238647
0.3748241066932678 0.287624329328537 0.5109758377075195
0.40432730317115784 0.19950750470161438 0.4929266571998596
0.4596620202064514 0.2521159052848816 0.46082812547683716
0.4878073036670685 0.3071487545967102 0.42699089646339417
0.4884379208087921 0.2014106661081314 0.4089042544364929
0.5401504635810852 0.30686861276626587 0.4598545432090759
0.5165876746177673 0.2199329286813736 0.5520495176315308
0.4019835591316223 0.22984763979911804 0.4216034412384033
0.37707698345184326 0.1713843047618866 0.6000068783760071
0.5171464681625366 0.21537233889102936 0.5048993229866028
0.4820755124092102 0.3312484920024872 0.4337141513824463
0.4579567313194275 0.3173896372318268 0.4920356273651123
0.4620647430419922 0.2279888391494751 0.49752458930015564
0.44456857442855835 0.22778159379959106 0.4851802885532379
0.48765507340431213 0.25706031918525696 0.5357381105422974
0.5450082421302795 0.29501429200172424 0.5084931254386902
0.5248456597328186 0.1659650355577469 0.5339969396591187
0.3857215940952301 0.3387613594532013 0.5131099224090576
0.5360708832740784 0.1879172921180725 0.5751014947891235
0.36534059047698975 0.3049182593822479 0.4556128978729248
0.40170007944107056 0.26020094752311707 0.47139859199523926
0.518633246421814 0.19571641087532043 0.5455270409584045
0.4617116153240204 0.25789886713027954 0.5528836250305176
0.4280335009098053 0.14757996797561646 0.5774346590042114
0.5397629141807556 0.19441372156143188 0.5718041062355042
0.45082372426986694 0.16457603871822357 0.5886461138725281
0.5278725028038025 0.15218420326709747 0.4069419801235199
0.4670829772949219 0.3026094436645508 0.5302078723907471
0.4478647708892822 0.15375876426696777 0.4508792459964752
0.4627881348133087 0.3034263253211975 0.5936904549598694
0.4598335325717926 0.16369852423667908 0.5735215544700623
0.4941830337047577 0.2728811502456665 0.44608449935913086
0.42611995339393616 0.27526557445526123 0.5557542443275452
0.3701164126396179 0.1528521031141281 0.5011886954307556
0.487555593252182 0.18375137448310852 0.4981648623943329
0.5163518190383911 0.3173641860485077 0.5492544770240784
0.5324251651763916 0.30555763840675354 0.5095781683921814
0.46177229285240173 0.20942431688308716 0.5094875693321228
0.3896434009075165 0.17998021841049194 0.44483911991119385
0.48197299242019653 0.23889900743961334 0.5302646160125732
0.4817838668823242 0.2153482288122177 0.41544389724731445
0.41521456837654114 0.24540671706199646 0.5206555724143982
0.47640562057495117 0.18241946399211884 0.4276595711708069
0.4752728044986725 0.20935146510601044 0.4038756489753723
0.42858022451400757 0.15046600997447968 0.5388102531433105
0.3638971745967865 0.26356300711631775 0.5835011601448059
0.41073957085609436 0.18445412814617157 0.5673710107803345
0.38924309611320496 0.21955476701259613 0.457051157951355
0.4159144461154938 0.2798926830291748 0.5457100868225098
0.40395867824554443 0.3279118537902832 0.4508730173110962
0.48433294892311096 0.15945099294185638 0.5887567400932312
0.3790956437587738 0.28362372517585754 0.5659308433532715
0.4015863835811615 0.2784275710582733 0.4368191957473755
0.5021271705627441 0.26564839482307434 0.4324243366718292
0.3556368052959442 0.15467682480812073 0.5596675872802734
0.5251855850219727 0.22296303510665894 0.47625476121902466
0.5364665389060974 0.22692754864692688 0.5493260025978088
0.4500129520893097 0.3257831037044525 0.43624815344810486
0.4610556364059448 0.16014765202999115 0.4907630681991577
0.45082372426986694 0.16457603871822357 0.5886461138725281
0.5278725028038025 0.15218420326709747 0.4069419801235199
0.4670829772949219 0.3026094436645508 0.5302078723907471
0.4988279640674591 0.30200111865997314 0.5022580027580261
0.4975077211856842 0.27249234914779663 0.5251877307891846
0.39358335733413696 0.332448810338974 0.5025367140769958
0.4153878092765808 0.17181546986103058 0.4258233308792114
0.4926871955394745 0.16405369341373444 0.533155620098114
0.5075090527534485 0.272693395614624 0.4316982924938202
0.39844638109207153 0.14360375702381134 0.4310818612575531
0.47050848603248596 0.22691145539283752 0.5840791463851929
0.38666728138923645 0.2009464055299759 0.500575602054596
0.47343096137046814 0.29827624559402466 0.5106564164161682
0.5346744656562805 0.24885082244873047 0.4899386167526245
0.5114003419876099 0.1723533570766449 0.442188024520874
0.37562698125839233 0.15642812848091125 0.41501134634017944
0.36934149265289307 0.1757073700428009 0.44450271129608154
0.36459043622016907 0.1978190392255783 0.5098907351493835
0.4578186869621277 0.3321906626224518 0.490301251411438
0.47528016567230225 0.2895963191986084 0.5654004812240601
0.4231012165546417 0.1542929857969284 0.44295698404312134
0.3914932906627655 0.247454434633255 0.5806082487106323
0.5381125807762146 0.13943861424922943 0.5370966792106628
0.5335314273834229 0.3074842691421509 0.4901007413864136
0.4599812924861908 0.31463906168937683 0.5892844796180725
0.45994874835014343 0.1985279619693756 0.4573436379432678
0.386597603559494 0.23695877194404602 0.5215727686882019
0.4766787886619568 0.2921091318130493 0.44077131152153015
0.4168321490287781 0.2971099615097046 0.5561327338218689
0.3701164126396179 0.1528521031141281 0.5011886954307556
0.48197299242019653 0.23889900743961334 0.5302646160125732
0.4817838668823242 0.2153482288122177 0.41544389724731445
0.41521456837654114 0.24540671706199646 0.5206555724143982
0.46670639514923096 0.1414373517036438 0.41868552565574646
0.3604939877986908 0.2252768874168396 0.5327874422073364
0.41250741481781006 0.17123794555664062 0.5330461859703064
0.4975077211856842 0.27249234914779663 0.5251877307891846
0.39358335733413696 0.332448810338974 0.5025367140769958
0.5184674263000488 0.19798703491687775 0.40613991022109985
0.44680726528167725 0.266401082277298 0.5852982401847839
0.35914939641952515 0.18219691514968872 0.5350761413574219
0.3916700780391693 0.32369670271873474 0.49981001019477844
0.5070469379425049 0.2964937388896942 0.4338448941707611
0.4049423933029175 0.2920539677143097 0.4517866373062134
0.3646954894065857 0.1684558391571045 0.5805067420005798
0.474806010723114 0.2036592662334442 0.47332459688186646
0.47528016567230225 0.2895963191986084 0.5654004812240601
0.4231012165546417 0.1542929857969284 0.44295698404312134
0.3914932906627655 0.247454434633255 0.5806082487106323
0.5452880859375 0.16924519836902618 0.477445513010025
0.5342488884925842 0.26167699694633484 0.44570767879486084
0.3977491557598114 0.15691117942333221 0.5409631729125977
0.47541573643684387 0.3362553119659424 0.5715137720108032
0.402031809091568 0.19496892392635345 0.5556331872940063
0.3703005909919739 0.2428620159626007 0.4039303958415985
0.4311928153038025 0.2640828788280487 0.42035403847694397
0.37792763113975525 0.16723951697349548 0.40050840377807617
0.4430362582206726 0.16318365931510925 0.49563363194465637
0.3589397072792053 0.2835066020488739 0.4543517529964447
0.44727784395217896 0.15874555706977844 0.49414461851119995
0.49033573269844055 0.3143020272254944 0.5066884160041809
0.4941830337047577 0.2728811502456665 0.44608449935913086
0.48197299242019653 0.23889900743961334 0.5302646160125732
0.4817838668823242 0.2153482288122177 0.41544389724731445
0.41521456837654114 0.24540671706199646 0.5206555724143982
0.46670639514923096 0.1414373517036438 0.41868552565574646
0.3604939877986908 0.2252768874168396 0.5327874422073364
0.41250741481781006 0.17123794555664062 0.5330461859703064
0.4975077211856842 0.27249234914779663 0.5251877307891846
0.39358335733413696 0.332448810338974 0.5025367140769958
0.5184674263000488 0.19798703491687775 0.40613991022109985
0.44680726528167725 0.266401082277298 0.5852982401847839
0.35914939641952515 0.18219691514968872 0.5350761413574219
0.3916700780391693 0.32369670271873474 0.49981001019477844
0.5070469379425049 0.2964937388896942 0.4338448941707611
0.4049423933029175 0.2920539677143097 0.4517866373062134
0.3646954894065857 0.1684558391571045 0.5805067420005798
0.474806010723114 0.2036592662334442 0.47332459688186646
0.47528016567230225 0.2895963191986084 0.5654004812240601
0.4231012165546417 0.1542929857969284 0.44295698404312134
0.3914932906627655 0.247454434633255 0.5806082487106323
0.5452880859375 0.16924519836902618 0.477445513010025
0.5342488884925842 0.26167699694633484 0.44570767879486084
0.4115425646305084 0.21758228540420532 0.45736271142959595
0.42601385712623596 0.14025624096393585 0.4203406274318695
0.3616766333580017 0.2872232496738434 0.434815913438797
0.5189661979675293 0.27664488554000854 0.5494519472122192
0.5338786244392395 0.14325256645679474 0.4949743151664734
0.4892611801624298 0.25764086842536926 0.48329854011535645
0.4364403784275055 0.30808255076408386 0.5376550555229187
0.3780469596385956 0.19320186972618103 0.4193362891674042
0.43300187587738037 0.21736674010753632 0.55608069896698
0.38443616032600403 0.2704727351665497 0.5165253281593323
0.487555593252182 0.18375137448310852 0.4981648623943329
0.46177229285240173 0.20942431688308716 0.5094875693321228
0.3896434009075165 0.17998021841049194 0.44483911991119385
0.48197299242019653 0.23889900743961334 0.5302646160125732
0.4817838668823242 0.2153482288122177 0.41544389724731445
0.41521456837654114 0.24540671706199646 0.5206555724143982
0.46670639514923096 0.1414373517036438 0.41868552565574646
0.3604939877986908 0.2252768874168396 0.5327874422073364
0.41250741481781006 0.17123794555664062 0.5330461859703064
0.4975077211856842 0.27249234914779663 0.5251877307891846
0.39358335733413696 0.332448810338974 0.5025367140769958
0.5184674263000488 0.19798703491687775 0.40613991022109985
0.44680726528167725 0.266401082277298 0.5852982401847839
0.35914939641952515 0.18219691514968872 0.5350761413574219
0.3916700780391693 0.32369670271873474 0.49981001019477844
0.5070469379425049 0.2964937388896942 0.4338448941707611
0.4049423933029175 0.2920539677143097 0.4517866373062134
0.3646954894065857 0.1684558391571045 0.5805067420005798
0.474806010723114 0.2036592662334442 0.47332459688186646
0.47528016567230225 0.2895963191986084 0.5654004812240601
0.4231012165546417 0.1542929857969284 0.44295698404312134
0.3914932906627655 0.247454434633255 0.5806082487106323
0.5452880859375 0.16924519836902618 0.477445513010025
0.5342488884925842 0.26167699694633484 0.44570767879486084
0.4115425646305084 0.21758228540420532 0.45736271142959595
0.3585738241672516 0.16881777346134186 0.5891667604446411
0.49084535241127014 0.24780531227588654 0.5703012347221375
0.5317899584770203 0.22446833550930023 0.46795544028282166
0.43682873249053955 0.1483229398727417 0.5402026176452637
0.399530291557312 0.1615183800458908 0.5249840021133423
0.4477768838405609 0.29237955808639526 0.5297833681106567
0.4655348062515259 0.31267544627189636 0.5664839744567871
0.474806010723114 0.2036592662334442 0.47332459688186646
0.35057350993156433 0.214033842086792 0.5137925148010254
0.40007948875427246 0.259635329246521 0.46857479214668274
0.5457258820533752 0.2355564683675766 0.5919316411018372
0.46384257078170776 0.20377403497695923 0.5035948753356934
0.36195680499076843 0.16576552391052246 0.5889820456504822
0.4899127781391144 0.2071104347705841 0.4423982501029968
0.35801422595977783 0.1550249308347702 0.4061107933521271
0.3664981424808502 0.16302929818630219 0.5506225228309631
0.46387001872062683 0.31760895252227783 0.5665107369422913
0.5236068964004517 0.3146176040172577 0.46177443861961365
0.46458229422569275 0.19611239433288574 0.48712995648384094
0.40377214550971985 0.25785478949546814 0.5748987793922424
0.47409579157829285 0.23519885540008545 0.47839638590812683
0.41006526350975037 0.22286376357078552 0.4273512661457062
0.4534008204936981 0.2915727496147156 0.5855247974395752
0.5036810040473938 0.2530851662158966 0.5319628119468689
0.469730019569397 0.3347242772579193 0.5163301229476929
0.4349346160888672 0.30944621562957764 0.48594406247138977
0.4634959101676941 0.21790234744548798 0.43506163358688354
0.4092807471752167 0.33072954416275024 0.4537734091281891
0.4675663709640503 0.26915788650512695 0.47188717126846313
0.4127555191516876 0.1585730016231537 0.455850213766098
0.35917428135871887 0.2755752503871918 0.5866234302520752
0.41347536444664 0.20864737033843994 0.5474438667297363
0.4214722514152527 0.14812634885311127 0.46665287017822266
0.3792170584201813 0.19078753888607025 0.551916778087616
0.38293153047561646 0.2000643014907837 0.5325754880905151
0.5487601161003113 0.25556862354278564 0.4455316662788391
0.37004366517066956 0.2837780714035034 0.42963850498199463
0.4186374247074127 0.20734038949012756 0.5206407308578491
0.5066630244255066 0.18990769982337952 0.559354305267334
0.3914932906627655 0.247454434633255 0.5806082487106323
0.5487601161003113 0.25556862354278564 0.4455316662788391
0.37004366517066956 0.2837780714035034 0.42963850498199463
0.5359006524085999 0.16647295653820038 0.5327979326248169
0.5143409371376038 0.19226208329200745 0.4545517861843109
0.3619290590286255 0.16387969255447388 0.4633217751979828
0.38692688941955566 0.2728157639503479 0.4713774621486664
0.5489640235900879 0.2847309112548828 0.5944347381591797
0.40678396821022034 0.31428050994873047 0.543801486492157
0.42904987931251526 0.1474880576133728 0.4696059823036194
0.38054612278938293 0.24171368777751923 0.5198558568954468
0.5130301117897034 0.1547810584306717 0.4938173294067383
0.40908411145210266 0.21433548629283905 0.4565475285053253
0.5033432841300964 0.17915505170822144 0.5092407464981079
0.3628903031349182 0.2082855999469757 0.574750542640686
0.43895551562309265 0.16576015949249268 0.4098464250564575
0.530554473400116 0.2538613975048065 0.561345636844635
0.3964017331600189 0.16261903941631317 0.5526270866394043
0.3945170044898987 0.24741439521312714 0.581613302230835
0.45856425166130066 0.20298942923545837 0.541732907295227
0.5332629084587097 0.3008280098438263 0.5628138780593872
0.3816010355949402 0.16197220981121063 0.5515410304069519
0.44593727588653564 0.20252539217472076 0.5684301853179932
0.513816773891449 0.2997390627861023 0.5684074759483337
0.3746117353439331 0.334218829870224 0.5683595538139343
0.44015830755233765 0.2619631290435791 0.4485603868961334
0.39607954025268555 0.23383112251758575 0.599496603012085
0.4504479467868805 0.2144676297903061 0.4162890911102295
0.39780208468437195 0.17106547951698303 0.5586317181587219
0.4259796738624573 0.25873905420303345 0.47221839427948
0.44228777289390564 0.14964407682418823 0.5407024621963501
0.4251194894313812 0.17872747778892517 0.4319479465484619
0.5143861174583435 0.18207204341888428 0.5321516394615173
0.40007948875427246 0.259635329246521 0.46857479214668274
0.5457258820533752 0.2355564683675766 0.5919316411018372
0.46384257078170776 0.20377403497695923 0.5035948753356934
0.36195680499076843 0.16576552391052246 0.5889820456504822
0.4899127781391144 0.2071104347705841 0.4423982501029968
0.35801422595977783 0.1550249308347702 0.4061107933521271
0.3664981424808502 0.16302929818630219 0.5506225228309631
0.46387001872062683 0.31760895252227783 0.5665107369422913
0.35783353447914124 0.27919498085975647 0.5797340869903564
0.40273863077163696 0.23666982352733612 0.5496337413787842
0.5079253911972046 0.2394987791776657 0.5238518714904785
0.5293718576431274 0.17757809162139893 0.48221009969711304
0.4936254620552063 0.3164263367652893 0.4574401378631592
0.5493702292442322 0.2800028920173645 0.5134272575378418
0.37796223163604736 0.22731347382068634 0.5476242303848267
0.4976177215576172 0.29417261481285095 0.4079815745353699
0.4607134759426117 0.2239171713590622 0.4624645411968231
0.42350223660469055 0.2155648171901703 0.5352893471717834
0.44959354400634766 0.2473812848329544 0.5853079557418823
0.3679986596107483 0.2831900715827942 0.4720943868160248
0.3951214849948883 0.1617349237203598 0.49558570981025696
0.36982905864715576 0.19233261048793793 0.5841640830039978
0.5407990217208862 0.32643288373947144 0.5074822902679443
0.41023895144462585 0.28956979513168335 0.5096713304519653
0.5074779987335205 0.18729595839977264 0.4126729369163513
0.4584260880947113 0.29076439142227173 0.43922147154808044
0.5357471704483032 0.1649918556213379 0.5820422172546387
0.41225749254226685 0.30170193314552307 0.4852987825870514
0.38001590967178345 0.1867598593235016 0.5556290149688721
0.5188602805137634 0.24609871208667755 0.5819972157478333
0.4977540969848633 0.2197783887386322 0.49151748418807983
0.5338786244392395 0.14325256645679474 0.4949743151664734
0.5231972932815552 0.2532525658607483 0.42501065135002136
0.4765649735927582 0.32083001732826233 0.4563891291618347
0.44200876355171204 0.319618284702301 0.5945149064064026
0.45164036750793457 0.32093071937561035 0.5286766886711121
0.4367362856864929 0.17535462975502014 0.5721470713615417
0.4776800870895386 0.2508395314216614 0.47252631187438965
0.5485450625419617 0.17928488552570343 0.581946849822998
0.371681272983551 0.20984476804733276 0.43186303973197937
0.4975036382675171 0.19614556431770325 0.4363499581813812
0.5162452459335327 0.14638715982437134 0.5244091153144836
0.48896703124046326 0.32382988929748535 0.45251986384391785
0.5409393906593323 0.1519995927810669 0.48229914903640747
0.4858327805995941 0.1639821082353592 0.5101011395454407
0.3825569450855255 0.1870223581790924 0.5882687568664551
0.3851780295372009 0.2420119345188141 0.4393397867679596
0.3601020574569702 0.14844118058681488 0.5141456127166748
0.39155611395835876 0.14842219650745392 0.40797188878059387
0.38426560163497925 0.20940977334976196 0.495037317276001
0.37715137004852295 0.32054153084754944 0.4201834499835968
0.4084493815898895 0.1780019849538803 0.4984266757965088
0.41903236508369446 0.28837332129478455 0.5947059392929077
0.42474403977394104 0.29750877618789673 0.5195891857147217
0.4508174955844879 0.31409522891044617 0.4958358705043793
0.4118313789367676 0.26345837116241455 0.4600023329257965
0.41738465428352356 0.13986524939537048 0.5647850632667542
0.5411671996116638 0.17273744940757751 0.4669046401977539
0.39722582697868347 0.2636558711528778 0.5335317850112915
0.5129663944244385 0.21436290442943573 0.5483160614967346
0.4404050409793854 0.22089137136936188 0.4166630804538727
0.36591315269470215 0.3100254237651825 0.5897660851478577
0.37549638748168945 0.28243929147720337 0.4798898994922638
0.470773845911026 0.27691829204559326 0.45178672671318054
0.4692365527153015 0.2662517726421356 0.4253961145877838
0.5116264820098877 0.27300646901130676 0.5644057393074036
0.5471206307411194 0.18054597079753876 0.5755997896194458
0.4980103075504303 0.2303304374217987 0.440921813249588
0.3791690766811371 0.14244358241558075 0.5223401784896851
0.47551050782203674 0.32855498790740967 0.41719916462898254
0.3592633008956909 0.3095347583293915 0.548659086227417
0.3701111376285553 0.22398214042186737 0.5854142308235168
0.5153195261955261 0.15497080981731415 0.4724060893058777
0.3716209828853607 0.28551405668258667 0.5175676941871643
0.4023325741291046 0.15642701089382172 0.488355427980423
0.36264923214912415 0.16042104363441467 0.4769240617752075
0.5218918323516846 0.18360969424247742 0.5478852391242981
0.3570103645324707 0.3110540807247162 0.4226243197917938
0.45744121074676514 0.2732066214084625 0.4399878680706024
0.4251290261745453 0.2941424548625946 0.47317007184028625
0.3677709996700287 0.19095022976398468 0.45768943428993225
0.38570669293403625 0.18357445299625397 0.4510994851589203
0.4912020266056061 0.20845022797584534 0.5021188259124756
0.46246975660324097 0.3116890788078308 0.5469452142715454
0.46441787481307983 0.31310272216796875 0.465887188911438
0.36281466484069824 0.1715673804283142 0.4028584063053131
0.521204948425293 0.26763230562210083 0.5689783096313477
0.48350203037261963 0.23366689682006836 0.5817716121673584
0.521204948425293 0.26763230562210083 0.5689783096313477
0.48350203037261963 0.23366689682006836 0.5817716121673584
0.4362958073616028 0.29037681221961975 0.4811611473560333
0.5220965147018433 0.1697087436914444 0.542481005191803
0.5019145607948303 0.32456350326538086 0.46775516867637634
0.376889705657959 0.28585144877433777 0.40866413712501526
0.4697079360485077 0.2567414343357086 0.47434553503990173
0.5338786244392395 0.14325256645679474 0.4949743151664734
0.37004366517066956 0.2837780714035034 0.42963850498199463
0.4186374247074127 0.20734038949012756 0.5206407308578491
0.5066630244255066 0.18990769982337952 0.559354305267334
0.49738234281539917 0.24100838601589203 0.5069102644920349
0.5143409371376038 0.19226208329200745 0.4545517861843109
0.3619290590286255 0.16387969255447388 0.4633217751979828
0.48860645294189453 0.18051742017269135 0.5619080662727356
0.3537764847278595 0.26325228810310364 0.486784428358078
0.4689752757549286 0.31104233860969543 0.503862202167511
0.3535832464694977 0.222159281373024 0.4443010985851288
0.48617687821388245 0.1505868285894394 0.41271454095840454
0.4997542202472687 0.16714054346084595 0.40144211053848267
0.49443498253822327 0.20269975066184998 0.4630833566188812
0.48144927620887756 0.3225088119506836 0.5057229995727539
0.40908411145210266 0.21433548629283905 0.4565475285053253
0.5033432841300964 0.17915505170822144 0.5092407464981079
0.3628903031349182 0.2082855999469757 0.574750542640686
0.43895551562309265 0.16576015949249268 0.4098464250564575
0.530554473400116 0.2538613975048065 0.561345636844635
0.3964017331600189 0.16261903941631317 0.5526270866394043
0.3945170044898987 0.24741439521312714 0.581613302230835
0.45856425166130066 0.20298942923545837 0.541732907295227
0.5332629084587097 0.3008280098438263 0.5628138780593872
0.3816010355949402 0.16197220981121063 0.5515410304069519
0.44593727588653564 0.20252539217472076 0.5684301853179932
0.46851906180381775 0.24808742105960846 0.513728141784668
0.5390228629112244 0.33298611640930176 0.4513329565525055
0.41062262654304504 0.27080169320106506 0.5042041540145874
0.530229389667511 0.1613016277551651 0.40379735827445984
0.44015830755233765 0.2619631290435791 0.4485603868961334
0.4209069013595581 0.15886139869689941 0.5245652794837952
0.35661402344703674 0.17126016318798065 0.5510429739952087
0.3570103645324707 0.3110540807247162 0.4226243197917938
0.45744121074676514 0.2732066214084625 0.4399878680706024
0.4251290261745453 0.2941424548625946 0.47317007184028625
0.38570669293403625 0.18357445299625397 0.4510994851589203
0.4912020266056061 0.20845022797584534 0.5021188259124756
0.46246975660324097 0.3116890788078308 0.5469452142715454
0.46441787481307983 0.31310272216796875 0.465887188911438
0.46441787481307983 0.31310272216796875 0.465887188911438
0.36281466484069824 0.1715673804283142 0.4028584063053131
0.521204948425293 0.26763230562210083 0.5689783096313477
0.48350203037261963 0.23366689682006836 0.5817716121673584
0.4362958073616028 0.29037681221961975 0.4811611473560333
0.4362958073616028 0.29037681221961975 0.4811611473560333
0.5220965147018433 0.1697087436914444 0.542481005191803
0.5019145607948303 0.32456350326538086 0.46775516867637634
0.4916158616542816 0.25916624069213867 0.4261434078216553
0.376889705657959 0.28585144877433777 0.40866413712501526
0.4697079360485077 0.2567414343357086 0.47434553503990173
0.5496439933776855 0.2737049162387848 0.5833799839019775
0.549170970916748 0.3312314748764038 0.46255648136138916
0.4248518943786621 0.17386695742607117 0.4680497348308563
0.41614198684692383 0.2724378705024719 0.5267153978347778
0.36762434244155884 0.23373766243457794 0.526920735836029
0.4692875146865845 0.33137771487236023 0.4127207100391388
0.37420788407325745 0.17458383738994598 0.5051795244216919
0.415863037109375 0.21320228278636932 0.5015172362327576
0.35399338603019714 0.16691674292087555 0.5245538353919983
0.35399338603019714 0.16691674292087555 0.5245538353919983
0.4725055396556854 0.2664518654346466 0.49429863691329956
0.49323374032974243 0.2087499350309372 0.5400972962379456
0.5285661816596985 0.3146604299545288 0.4811703860759735
0.4798526465892792 0.2619244158267975 0.4181048572063446
0.5267766714096069 0.20763340592384338 0.4765685796737671
0.4414101839065552 0.28331032395362854 0.51469886302948
0.5255203247070312 0.22481770813465118 0.4374948740005493
0.39054232835769653 0.26134395599365234 0.5869461894035339
0.3877802789211273 0.1752479374408722 0.45138052105903625
0.5426425933837891 0.3032298982143402 0.4667679965496063
0.38262274861335754 0.22035779058933258 0.5888224840164185
0.35504451394081116 0.17506000399589539 0.459792822599411
0.3846968710422516 0.3375016450881958 0.5780726671218872
0.5424302816390991 0.2844047248363495 0.5953453779220581
0.4065418243408203 0.3026828467845917 0.5755762457847595
0.4361402988433838 0.31859758496284485 0.5372415781021118
0.4162829518318176 0.3056085705757141 0.4167993664741516
0.3772291839122772 0.14025451242923737 0.5258755683898926
0.4586141109466553 0.14499004185199738 0.4800283908843994
0.4202721416950226 0.3188391625881195 0.49449747800827026
0.4595305323600769 0.2603316307067871 0.5674548149108887
0.4376446306705475 0.32166236639022827 0.5219652056694031
0.3889332711696625 0.15477219223976135 0.4750760793685913
0.5292635560035706 0.3385072648525238 0.5638929605484009
0.5292635560035706 0.3385072648525238 0.5638929605484009
0.4025834798812866 0.16236935555934906 0.41017305850982666
0.5182903409004211 0.1932521015405655 0.41062843799591064
0.4352822005748749 0.2443704903125763 0.4710642397403717
0.4587409198284149 0.2698175013065338 0.4417577385902405
0.5244643688201904 0.17328804731369019 0.4078238010406494
0.48142725229263306 0.15184785425662994 0.5764211416244507
0.4982762038707733 0.22852057218551636 0.5222145318984985
0.4616946578025818 0.21389606595039368 0.5020303726196289
0.4327990710735321 0.20968055725097656 0.42016705870628357
0.48699578642845154 0.23943381011486053 0.520830512046814
0.4995495676994324 0.27579981088638306 0.4529213309288025
0.46767231822013855 0.1594192534685135 0.49680790305137634
0.44023367762565613 0.1444757729768753 0.46444809436798096
0.4352432191371918 0.17746132612228394 0.4072874188423157
0.4376446306705475 0.32166236639022827 0.5219652056694031
0.3889332711696625 0.15477219223976135 0.4750760793685913
0.5292635560035706 0.3385072648525238 0.5638929605484009
0.4025834798812866 0.16236935555934906 0.41017305850982666
0.5182903409004211 0.1932521015405655 0.41062843799591064
0.4352822005748749 0.2443704903125763 0.4710642397403717
0.4587409198284149 0.2698175013065338 0.4417577385902405
0.5244643688201904 0.17328804731369019 0.4078238010406494
0.48142725229263306 0.15184785425662994 0.5764211416244507
0.4982762038707733 0.22852057218551636 0.5222145318984985
0.4616946578025818 0.21389606595039368 0.5020303726196289
0.4430086612701416 0.1922478973865509 0.4056479036808014
0.4327990710735321 0.20968055725097656 0.42016705870628357
0.41960608959198 0.32319319248199463 0.5544912219047546
0.48699578642845154 0.23943381011486053 0.520830512046814
0.35057350993156433 0.214033842086792 0.5137925148010254
0.40007948875427246 0.259635329246521 0.46857479214668274
0.5457258820533752 0.2355564683675766 0.5919316411018372
0.46384257078170776 0.20377403497695923 0.5035948753356934
0.36195680499076843 0.16576552391052246 0.5889820456504822
0.4899127781391144 0.2071104347705841 0.4423982501029968
0.35801422595977783 0.1550249308347702 0.4061107933521271
0.3664981424808502 0.16302929818630219 0.5506225228309631
0.46387001872062683 0.31760895252227783 0.5665107369422913
0.35783353447914124 0.27919498085975647 0.5797340869903564
0.40273863077163696 0.23666982352733612 0.5496337413787842
0.5231972932815552 0.2532525658607483 0.42501065135002136
0.4181343615055084 0.3252509832382202 0.5462481379508972
0.402031809091568 0.19496892392635345 0.5556331872940063
0.5228807926177979 0.19363416731357574 0.48017510771751404
0.48404449224472046 0.17791633307933807 0.486714243888855
0.3591095805168152 0.1704932302236557 0.5395466685295105
0.38654327392578125 0.2796958386898041 0.43576619029045105
0.41274750232696533 0.22296646237373352 0.43603602051734924
0.3962557315826416 0.3215298056602478 0.584452211856842
0.3964472711086273 0.16968657076358795 0.5863639116287231
0.40059471130371094 0.2480868250131607 0.5849508047103882
0.3772507309913635 0.23830680549144745 0.5353561639785767
0.47760865092277527 0.24924135208129883 0.523512065410614
0.3978324830532074 0.17591966688632965 0.4596007168292999
0.36771875619888306 0.30497094988822937 0.44091951847076416
0.3719326853752136 0.15341398119926453 0.5473782420158386
0.4222393333911896 0.2330612987279892 0.5421819090843201
0.5047459602355957 0.16547082364559174 0.4549390971660614
0.3736993074417114 0.24248358607292175 0.49590516090393066
0.453147292137146 0.18661701679229736 0.5046964287757874
0.537352979183197 0.20204444229602814 0.543595016002655
0.39598217606544495 0.20374837517738342 0.5846146941184998
0.395593523979187 0.31154271960258484 0.5292500853538513
0.39952483773231506 0.24698640406131744 0.5900185704231262
0.5301896333694458 0.3267775774002075 0.4954867959022522
0.40103062987327576 0.2193463146686554 0.5260879993438721
0.3559403121471405 0.2957344949245453 0.4444230794906616
0.4550228714942932 0.16128851473331451 0.4033224582672119
0.5385762453079224 0.13979651033878326 0.5146045088768005
0.4852093458175659 0.16739888489246368 0.4508334994316101
0.465779185295105 0.20442421734333038 0.5495986938476562
0.4186363220214844 0.19903740286827087 0.5968581438064575
0.47312816977500916 0.15604929625988007 0.5411800742149353
0.4692365527153015 0.2662517726421356 0.4253961145877838
0.5420829653739929 0.14193224906921387 0.5512402057647705
0.4697079360485077 0.2567414343357086 0.47434553503990173
0.5496439933776855 0.2737049162387848 0.5833799839019775
0.549170970916748 0.3312314748764038 0.46255648136138916
0.4248518943786621 0.17386695742607117 0.4680497348308563
0.41614198684692383 0.2724378705024719 0.5267153978347778
0.36762434244155884 0.23373766243457794 0.526920735836029
0.4692875146865845 0.33137771487236023 0.4127207100391388
0.37420788407325745 0.17458383738994598 0.5051795244216919
0.415863037109375 0.21320228278636932 0.5015172362327576
0.35399338603019714 0.16691674292087555 0.5245538353919983
0.4725055396556854 0.2664518654346466 0.49429863691329956
0.49323374032974243 0.2087499350309372 0.5400972962379456
0.41632506251335144 0.20253507792949677 0.40248823165893555
0.4298667013645172 0.2248145043849945 0.5348107814788818
0.36498957872390747 0.2651231586933136 0.40998291969299316
0.5145211815834045 0.28554707765579224 0.4346754252910614
0.42740604281425476 0.23011817038059235 0.5709986686706543
0.547743022441864 0.18657617270946503 0.5893420577049255
0.3855419158935547 0.20002804696559906 0.5204117298126221
0.5231750011444092 0.1480659693479538 0.5742477178573608
0.49933966994285583 0.18460999429225922 0.526526927947998
0.35306158661842346 0.25510647892951965 0.454064279794693
0.42511773109436035 0.1719450056552887 0.47026726603507996
0.4960373640060425 0.2399716079235077 0.5626641511917114
0.36361920833587646 0.29713425040245056 0.43998488783836365
0.4067430794239044 0.22359614074230194 0.5234573483467102
0.5489640235900879 0.2847309112548828 0.5944347381591797
0.40678396821022034 0.31428050994873047 0.543801486492157
0.42904987931251526 0.1474880576133728 0.4696059823036194
0.38054612278938293 0.24171368777751923 0.5198558568954468
0.39017653465270996 0.30397680401802063 0.4459996521472931
0.5471206307411194 0.18054597079753876 0.5755997896194458
0.48537448048591614 0.15511511266231537 0.40570756793022156
0.454197496175766 0.1668786108493805 0.4953102469444275
0.48501908779144287 0.30650588870048523 0.46222931146621704
0.5059002637863159 0.3043935000896454 0.46754294633865356
0.35216182470321655 0.20173120498657227 0.5999566316604614
0.37680819630622864 0.18038035929203033 0.45805221796035767
0.3734014630317688 0.25829243659973145 0.5387923717498779
0.5379805564880371 0.22789695858955383 0.5845786929130554
0.3743303716182709 0.31696632504463196 0.5252617597579956
0.4326297640800476 0.2910076379776001 0.5893373489379883
0.460811585187912 0.33058905601501465 0.42541536688804626
0.37190374732017517 0.2062089741230011 0.4420022964477539
0.5132654309272766 0.25129231810569763 0.5030706524848938
0.4947595000267029 0.26971545815467834 0.5485587120056152
0.40961626172065735 0.26987916231155396 0.45271727442741394
0.49602121114730835 0.2515306770801544 0.5521271228790283
0.414041131734848 0.3131084144115448 0.5439753532409668
0.4979509711265564 0.22628213465213776 0.49347254633903503
0.40470489859580994 0.332646906375885 0.4351586699485779
0.44997507333755493 0.18922542035579681 0.5638512372970581
0.44837918877601624 0.2904629409313202 0.5324182510375977
0.5061335563659668 0.3150959014892578 0.4079225957393646
0.48720619082450867 0.19052481651306152 0.5226647853851318
0.4067237675189972 0.15603385865688324 0.5994997024536133
0.4272238612174988 0.23481373488903046 0.4991419017314911
0.5160846710205078 0.23119612038135529 0.4405170977115631
0.4498358964920044 0.14242486655712128 0.5960623025894165
0.38276487588882446 0.15914849936962128 0.5851762294769287
0.49738234281539917 0.24100838601589203 0.5069102644920349
0.5143409371376038 0.19226208329200745 0.4545517861843109
0.3619290590286255 0.16387969255447388 0.4633217751979828
0.4044032692909241 0.18147040903568268 0.4604912996292114
0.5079398155212402 0.17273209989070892 0.4415470063686371
0.4110763370990753 0.2592644691467285 0.5479148626327515
0.37248918414115906 0.1823660433292389 0.5771765112876892
0.544031023979187 0.2544645667076111 0.45465579628944397
0.45659542083740234 0.25822970271110535 0.4155469238758087
0.5269689559936523 0.3161138892173767 0.5693134665489197
0.5451410412788391 0.27980107069015503 0.4395342171192169
0.5058954954147339 0.22413834929466248 0.5439709424972534
0.4161524772644043 0.2986364960670471 0.5560224056243896
0.39862433075904846 0.20662419497966766 0.4227767884731293
0.3570559024810791 0.3028753399848938 0.45830661058425903
0.4298667013645172 0.2248145043849945 0.5348107814788818
0.36498957872390747 0.2651231586933136 0.40998291969299316
0.5015327334403992 0.27065208554267883 0.57388836145401
0.5032781958580017 0.2658798098564148 0.4983070194721222
0.3540213406085968 0.2043738067150116 0.5672930479049683
0.354035347700119 0.1680368185043335 0.48627692461013794
0.4772104322910309 0.18072237074375153 0.47554075717926025
0.4574725031852722 0.286776065826416 0.5755766034126282
0.35967764258384705 0.14018423855304718 0.455569863319397
0.42213860154151917 0.16950775682926178 0.4327315390110016
0.544485330581665 0.18983373045921326 0.46143704652786255
0.3831936717033386 0.28528186678886414 0.5328696370124817
0.501416027545929 0.16980308294296265 0.41444170475006104
0.3653777837753296 0.24208319187164307 0.42451268434524536
0.3522900640964508 0.23765107989311218 0.4838302433490753
0.44247573614120483 0.16383638978004456 0.41808152198791504
0.5489640235900879 0.2847309112548828 0.5944347381591797
0.40678396821022034 0.31428050994873047 0.543801486492157
0.42904987931251526 0.1474880576133728 0.4696059823036194
0.38054612278938293 0.24171368777751923 0.5198558568954468
0.3585738241672516 0.16881777346134186 0.5891667604446411
0.35801422595977783 0.1550249308347702 0.4061107933521271
0.3664981424808502 0.16302929818630219 0.5506225228309631
0.46387001872062683 0.31760895252227783 0.5665107369422913
0.35783353447914124 0.27919498085975647 0.5797340869903564
0.40273863077163696 0.23666982352733612 0.5496337413787842
0.5231972932815552 0.2532525658607483 0.42501065135002136
0.4765649735927582 0.32083001732826233 0.4563891291618347
0.44200876355171204 0.319618284702301 0.5945149064064026
0.45164036750793457 0.32093071937561035 0.5286766886711121
0.4367362856864929 0.17535462975502014 0.5721470713615417
0.4776800870895386 0.2508395314216614 0.47252631187438965
0.3736479878425598 0.3042227327823639 0.40704527497291565
0.5483354926109314 0.20833848416805267 0.5613141059875488
0.5185005068778992 0.17656151950359344 0.5791686773300171
0.3575410842895508 0.2898021340370178 0.5475879311561584
0.39049920439720154 0.1745273619890213 0.5111068487167358
0.47196459770202637 0.19398516416549683 0.4072529971599579
0.4928811490535736 0.29183655977249146 0.41540297865867615
0.3776213228702545 0.2671140730381012 0.5883693695068359
0.41078540682792664 0.24966582655906677 0.5968431830406189
0.5260099172592163 0.3104234039783478 0.43655717372894287
0.44703179597854614 0.1395525336265564 0.45939353108406067
0.5224112272262573 0.16382499039173126 0.5308170318603516
0.4342162013053894 0.2661149501800537 0.5656182765960693
0.37373656034469604 0.1658688187599182 0.593562126159668
0.4232689142227173 0.29068946838378906 0.5097137689590454
0.4747220277786255 0.1502758115530014 0.4248048961162567
0.4406958818435669 0.3219926953315735 0.531170129776001
0.5241914391517639 0.17777226865291595 0.43695908784866333
0.5264915227890015 0.27891480922698975 0.5738850235939026
0.43109074234962463 0.28265175223350525 0.5215215086936951
0.42685166001319885 0.2908712327480316 0.4349875748157501
0.397421658039093 0.14452576637268066 0.457497775554657
0.48266229033470154 0.3053155839443207 0.5086613297462463
0.5286551713943481 0.30997270345687866 0.44430774450302124
0.4423193335533142 0.18758034706115723 0.5819600224494934
0.4175912141799927 0.1901121735572815 0.4877128303050995
0.4861152172088623 0.29855969548225403 0.4099622368812561
0.4163944125175476 0.15723995864391327 0.5052694082260132
0.44482332468032837 0.140495166182518 0.5982561111450195
0.4689682722091675 0.32464542984962463 0.44490161538124084
0.3958948850631714 0.3375919759273529 0.5750710964202881
0.4216059446334839 0.20680440962314606 0.45993927121162415
0.38366183638572693 0.1777239739894867 0.42539525032043457
0.4848891496658325 0.2101483941078186 0.5774977207183838
0.5228146314620972 0.19908028841018677 0.4205015003681183
0.43895551562309265 0.16576015949249268 0.4098464250564575
0.530554473400116 0.2538613975048065 0.561345636844635
0.3964017331600189 0.16261903941631317 0.5526270866394043
0.3945170044898987 0.24741439521312714 0.581613302230835
0.45856425166130066 0.20298942923545837 0.541732907295227
0.5332629084587097 0.3008280098438263 0.5628138780593872
0.3816010355949402 0.16197220981121063 0.5515410304069519
0.44593727588653564 0.20252539217472076 0.5684301853179932
0.46851906180381775 0.24808742105960846 0.513728141784668
0.5390228629112244 0.33298611640930176 0.4513329565525055
0.40088769793510437 0.18114647269248962 0.49958011507987976
0.44228777289390564 0.14964407682418823 0.5407024621963501
0.4251194894313812 0.17872747778892517 0.4319479465484619
0.5350534915924072 0.30917221307754517 0.49939167499542236
0.42934733629226685 0.2760762870311737 0.49042317271232605
0.5164903402328491 0.29115915298461914 0.541422426700592
0.3936920762062073 0.1577383577823639 0.45690909028053284
0.35057350993156433 0.214033842086792 0.5137925148010254
0.5489563345909119 0.3086642324924469 0.56035977602005
0.4216417670249939 0.1536734253168106 0.5835466980934143
0.44224369525909424 0.3125048875808716 0.4755287170410156
0.43831759691238403 0.23774009943008423 0.49962320923805237
0.40952691435813904 0.2194480001926422 0.4728125333786011
0.3518727123737335 0.2924942374229431 0.4146750867366791
0.5224498510360718 0.14957067370414734 0.41761183738708496
0.3788653016090393 0.3070959448814392 0.5987429022789001
0.45133906602859497 0.33059465885162354 0.49569207429885864
0.5426282286643982 0.3134975731372833 0.41165411472320557
0.46411609649658203 0.21790266036987305 0.43036743998527527
0.39307165145874023 0.17342530190944672 0.5044136643409729
0.4123188555240631 0.18503260612487793 0.4917808175086975
0.5175486207008362 0.26916617155075073 0.5831601023674011
0.41104644536972046 0.15587612986564636 0.4092545211315155
0.44322535395622253 0.28806188702583313 0.4730105996131897
0.4412257969379425 0.25436756014823914 0.543556809425354
0.4404001235961914 0.1581590622663498 0.5835421681404114
0.4196247160434723 0.31849485635757446 0.4673926532268524
0.4876076579093933 0.19060495495796204 0.527927815914154
0.35399124026298523 0.28280332684516907 0.5085169076919556
0.5103856921195984 0.1398104578256607 0.47185757756233215
0.3636642098426819 0.2218007892370224 0.484001487493515
0.45453837513923645 0.22693324089050293 0.49565693736076355
0.395408034324646 0.29711174964904785 0.4213012158870697
0.4459158778190613 0.18434812128543854 0.49951454997062683
0.5095608830451965 0.24094487726688385 0.41889384388923645
0.4715852439403534 0.2876010537147522 0.4852462112903595
0.3517359793186188 0.2545470893383026 0.5597268342971802
0.40902483463287354 0.2615504562854767 0.41981741786003113
0.4110436737537384 0.2081131488084793 0.515142023563385
0.4776800870895386 0.2508395314216614 0.47252631187438965
0.4216417670249939 0.1536734253168106 0.5835466980934143
0.44224369525909424 0.3125048875808716 0.4755287170410156
0.43831759691238403 0.23774009943008423 0.49962320923805237
0.40952691435813904 0.2194480001926422 0.4728125333786011
0.3518727123737335 0.2924942374229431 0.4146750867366791
0.5224498510360718 0.14957067370414734 0.41761183738708496
0.3788653016090393 0.3070959448814392 0.5987429022789001
0.5252296924591064 0.320840448141098 0.5245916843414307
0.3623562157154083 0.184910848736763 0.541476845741272
0.39514249563217163 0.256919264793396 0.5568013191223145
0.5207397937774658 0.26670169830322266 0.43775129318237305
0.41401946544647217 0.3195820450782776 0.4525552988052368
0.5295119881629944 0.26069334149360657 0.5038416981697083
0.5463228821754456 0.1689714789390564 0.4830920398235321
0.535149872303009 0.16757763922214508 0.5564672946929932
0.40538862347602844 0.30607685446739197 0.47573938965797424
0.44298726320266724 0.2896583676338196 0.5540415644645691
0.37949684262275696 0.22663842141628265 0.4094659090042114
0.48941150307655334 0.2610139548778534 0.5410093665122986
0.4159611463546753 0.22429990768432617 0.5425196886062622
0.5388142466545105 0.3073006570339203 0.5779560804367065
0.39282795786857605 0.17573165893554688 0.5833847522735596
0.45428240299224854 0.23846562206745148 0.4986291527748108
0.38090813159942627 0.2325787991285324 0.5379760265350342
0.3978070914745331 0.2600438892841339 0.43355464935302734
0.4459158778190613 0.18434812128543854 0.49951454997062683
0.5095608830451965 0.24094487726688385 0.41889384388923645
0.4715852439403534 0.2876010537147522 0.4852462112903595
0.3517359793186188 0.2545470893383026 0.5597268342971802
0.40902483463287354 0.2615504562854767 0.41981741786003113
0.4110436737537384 0.2081131488084793 0.515142023563385
0.42474403977394104 0.29750877618789673 0.5195891857147217
0.5399378538131714 0.31239283084869385 0.44819504022598267
0.44001421332359314 0.28056907653808594 0.5422923564910889
0.5231407284736633 0.16349904239177704 0.41614121198654175
0.4515761435031891 0.3282172679901123 0.4644564688205719
0.5273459553718567 0.23395560681819916 0.4451903998851776
0.48045289516448975 0.1892874538898468 0.5982812643051147
0.4458453953266144 0.1616017073392868 0.525518536567688
0.36852023005485535 0.3185281753540039 0.4694310426712036
0.5194668173789978 0.32424864172935486 0.5037282705307007
0.3647555410861969 0.16088910400867462 0.5231611132621765
0.41594061255455017 0.2905835509300232 0.47128570079803467
0.500441312789917 0.24520869553089142 0.41191738843917847
0.49535807967185974 0.3283613324165344 0.4908011257648468
0.4477443993091583 0.16958728432655334 0.5556425452232361
0.4385048449039459 0.3166329562664032 0.5854879021644592
0.403598815202713 0.2792576849460602 0.587755560874939
0.5262693166732788 0.2243775874376297 0.4656100869178772
0.46851906180381775 0.24808742105960846 0.513728141784668
0.5390228629112244 0.33298611640930176 0.4513329565525055
0.40088769793510437 0.18114647269248962 0.49958011507987976
0.44228777289390564 0.14964407682418823 0.5407024621963501
0.4251194894313812 0.17872747778892517 0.4319479465484619
0.5350534915924072 0.30917221307754517 0.49939167499542236
0.42934733629226685 0.2760762870311737 0.49042317271232605
0.5164903402328491 0.29115915298461914 0.541422426700592
0.3936920762062073 0.1577383577823639 0.45690909028053284
0.49332502484321594 0.21074369549751282 0.5606595277786255
0.44641342759132385 0.22368355095386505 0.40799060463905334
0.5216344594955444 0.31745266914367676 0.45670023560523987
0.3890303671360016 0.14796480536460876 0.4434798061847687
0.5350238084793091 0.28757646679878235 0.5117926001548767
