ply
format ascii 1.0
element vertex 833
property float x
property float y
property float z
end_header
0.6718138456344604 0.1584966778755188 0.5130192041397095
0.6809871196746826 0.3402025103569031 0.6014923453330994
0.6718138456344604 0.1584966778755188 0.5130192041397095
0.6809871196746826 0.3402025103569031 0.6014923453330994
0.6005445122718811 0.3182580769062042 0.5148358345031738
0.7075220346450806 0.16283537447452545 0.5601330399513245
0.6746754050254822 0.19917285442352295 0.5863332748413086
0.6864088773727417 0.17729830741882324 0.5794787406921387
0.7615864276885986 0.2607722878456116 0.5192248225212097
0.6961097121238708 0.36875489354133606 0.4710179567337036
0.632215678691864 0.2919272482395172 0.48535358905792236
0.6380258798599243 0.22792287170886993 0.4869452118873596
0.6677219867706299 0.2488313466310501 0.5375217199325562
0.6233513951301575 0.3299158811569214 0.5200583934783936
0.7461287975311279 0.2333265095949173 0.5183538198471069
0.5758095383644104 0.25348877906799316 0.5199329853057861
0.7564613223075867 0.21416886150836945 0.5496971607208252
0.7142776250839233 0.18511968851089478 0.5606560707092285
0.653447687625885 0.2061815708875656 0.4921591579914093
0.7570556402206421 0.24007250368595123 0.4105684757232666
0.6358271837234497 0.18185551464557648 0.4922652840614319
0.6360995173454285 0.15073096752166748 0.5041955709457397
0.595538318157196 0.24780818819999695 0.5290112495422363
0.6995725631713867 0.1419461965560913 0.5665613412857056
0.6892930269241333 0.360835462808609 0.47741931676864624
0.5713870525360107 0.2886832356452942 0.4342726469039917
0.6685458421707153 0.35463908314704895 0.46516987681388855
0.6230216026306152 0.2892002463340759 0.5011823177337646
0.5931140184402466 0.22825641930103302 0.5681763887405396
0.6431479454040527 0.2010391652584076 0.5272110104560852
0.6860007047653198 0.3213832676410675 0.479217529296875
0.7151570320129395 0.32639238238334656 0.5413137078285217
0.7003911137580872 0.2742868661880493 0.45414257049560547
0.5906587243080139 0.2693955898284912 0.5977127552032471
0.5904207229614258 0.24979692697525024 0.5921483039855957
0.6846520900726318 0.14604520797729492 0.47063979506492615
0.5932556390762329 0.26704710721969604 0.609499990940094
0.7244742512702942 0.2438296675682068 0.41060584783554077
0.6161927580833435 0.15883111953735352 0.574015200138092
0.6870315670967102 0.2159939408302307 0.38162875175476074
0.6907118558883667 0.32249295711517334 0.44203609228134155
0.6638473868370056 0.22810861468315125 0.4436812102794647
0.7572069764137268 0.23099739849567413 0.4378475546836853
0.5889713168144226 0.28243446350097656 0.4546811580657959
0.6602575182914734 0.12155064940452576 0.5529394149780273
0.6144978404045105 0.27285701036453247 0.5565401911735535
0.6045935153961182 0.27011096477508545 0.4993867576122284
0.7478921413421631 0.22304482758045197 0.38668128848075867
0.6117308139801025 0.2468220442533493 0.5000002980232239
0.6083924770355225 0.3115726411342621 0.4548661410808563
0.6608508825302124 0.3231498897075653 0.5163611173629761
0.7174052000045776 0.3493621051311493 0.5507531762123108
0.7189984321594238 0.19842985272407532 0.4560146629810333
0.5981080532073975 0.18311114609241486 0.411016583442688
0.7639480829238892 0.24477872252464294 0.4999309182167053
0.7249608039855957 0.33173519372940063 0.4605907201766968
0.7263498306274414 0.1933973878622055 0.41403675079345703
0.6655858159065247 0.276317298412323 0.521639883518219
0.6368716359138489 0.22967976331710815 0.5520143508911133
0.5746877789497375 0.2923303246498108 0.5488488078117371
0.6718138456344604 0.1584966778755188 0.5130192041397095
0.6809871196746826 0.3402025103569031 0.6014923453330994
0.6005445122718811 0.3182580769062042 0.5148358345031738
0.7075220346450806 0.16283537447452545 0.5601330399513245
0.6746754050254822 0.19917285442352295 0.5863332748413086
0.6864088773727417 0.17729830741882324 0.5794787406921387
0.7615864276885986 0.2607722878456116 0.5192248225212097
0.6961097121238708 0.36875489354133606 0.4710179567337036
0.632215678691864 0.2919272482395172 0.48535358905792236
0.6380258798599243 0.22792287170886993 0.4869452118873596
0.6677219867706299 0.2488313466310501 0.5375217199325562
0.6233513951301575 0.3299158811569214 0.5200583934783936
0.7461287975311279 0.2333265095949173 0.5183538198471069
0.5758095383644104 0.25348877906799316 0.5199329853057861
0.7103891372680664 0.24372835457324982 0.5407114028930664
0.6116307377815247 0.3292469382286072 0.5237185955047607
0.5682621002197266 0.2776557505130768 0.434347003698349
0.6179051399230957 0.1956462860107422 0.44332194328308105
0.6811122894287109 0.2494947761297226 0.38850724697113037
0.6032969951629639 0.3114771246910095 0.5330550670623779
0.6101022362709045 0.2508554458618164 0.46123096346855164
0.7141556739807129 0.30093544721603394 0.4048766791820526
0.6383345723152161 0.3250441551208496 0.4796212613582611
0.6222158670425415 0.340650737285614 0.4472605884075165
0.7770604491233826 0.20091775059700012 0.482970654964447
0.7402798533439636 0.28732001781463623 0.5852711200714111
0.5933517217636108 0.27537035942077637 0.5876959562301636
0.6583970189094543 0.30910032987594604 0.5696550607681274
0.7061672210693359 0.19680432975292206 0.42396047711372375
0.6262058615684509 0.2505195736885071 0.5276208519935608
0.6347310543060303 0.16115204989910126 0.5803937911987305
0.5761178731918335 0.2525944411754608 0.49221619963645935
0.7014139294624329 0.32812419533729553 0.5740704536437988
0.6668992042541504 0.33471250534057617 0.4236310124397278
0.6137713193893433 0.3027545213699341 0.5236647129058838
0.7097055315971375 0.3211553990840912 0.5034214854240417
0.6473221182823181 0.1452062726020813 0.5220404863357544
0.6505259275436401 0.2796998918056488 0.4307292699813843
0.6677219867706299 0.2488313466310501 0.5375217199325562
0.6233513951301575 0.3299158811569214 0.5200583934783936
0.7461287975311279 0.2333265095949173 0.5183538198471069
0.5758095383644104 0.25348877906799316 0.5199329853057861
0.7103891372680664 0.24372835457324982 0.5407114028930664
0.6116307377815247 0.3292469382286072 0.5237185955047607
0.5682621002197266 0.2776557505130768 0.434347003698349
0.6179051399230957 0.1956462860107422 0.44332194328308105
0.6811122894287109 0.2494947761297226 0.38850724697113037
0.5893858671188354 0.3279023766517639 0.42874759435653687
0.71486496925354 0.26041489839553833 0.4823101758956909
0.762860894203186 0.23922361433506012 0.49977073073387146
0.6141226887702942 0.25415289402008057 0.48125848174095154
0.7151035666465759 0.3272736668586731 0.586340606212616
0.6749609708786011 0.27565813064575195 0.5764842629432678
0.7713648676872253 0.24320580065250397 0.527273416519165
0.5855062007904053 0.2820260524749756 0.5256173014640808
0.77005934715271 0.22532261908054352 0.3904995024204254
0.7766017317771912 0.2593398094177246 0.3941459357738495
0.6948042511940002 0.2550468444824219 0.46269118785858154
0.6281834840774536 0.17051814496517181 0.5099037885665894
0.7142776250839233 0.18511968851089478 0.5606560707092285
0.653447687625885 0.2061815708875656 0.4921591579914093
0.7570556402206421 0.24007250368595123 0.4105684757232666
0.625141441822052 0.31308814883232117 0.4366653859615326
0.7078985571861267 0.3207889795303345 0.4690064489841461
0.729114830493927 0.21444350481033325 0.4480678141117096
0.7007129788398743 0.25906896591186523 0.5111443996429443
0.5823459625244141 0.23374557495117188 0.39466696977615356
0.7247382402420044 0.2968910336494446 0.5611094832420349
0.668678343296051 0.36074936389923096 0.41290873289108276
0.7600831985473633 0.24341006577014923 0.5714120864868164
0.6778178811073303 0.1608092486858368 0.5558245778083801
0.7072838544845581 0.29335543513298035 0.43545249104499817
0.5850522518157959 0.26245439052581787 0.49052608013153076
0.72915118932724 0.23684599995613098 0.5319640040397644
0.5824072360992432 0.2433321177959442 0.46131399273872375
0.7275426983833313 0.2733611762523651 0.43893739581108093
0.7108197212219238 0.29792967438697815 0.5517011880874634
0.7691642045974731 0.24768495559692383 0.49133381247520447
0.6595449447631836 0.2539133131504059 0.40253886580467224
0.645330548286438 0.30259954929351807 0.5510888695716858
0.6930326819419861 0.2942039668560028 0.4111560583114624
0.595413327217102 0.2432408481836319 0.5870009064674377
0.6894850134849548 0.25135233998298645 0.550762951374054
0.5954776406288147 0.20515456795692444 0.46932452917099
0.5787127614021301 0.2541067898273468 0.5849782824516296
0.653447687625885 0.2061815708875656 0.4921591579914093
0.6358752250671387 0.14686815440654755 0.5450001955032349
0.6892930269241333 0.360835462808609 0.47741931676864624
0.5664032697677612 0.2743578851222992 0.4519990086555481
0.7077556848526001 0.28090861439704895 0.40533825755119324
0.7234411835670471 0.32023686170578003 0.48680856823921204
0.6201013922691345 0.12355326116085052 0.5088318586349487
0.6547873020172119 0.21920882165431976 0.4814569652080536
0.6892919540405273 0.20338551700115204 0.4678797125816345
0.7017779350280762 0.19409416615962982 0.4463338851928711
0.5685918927192688 0.27639925479888916 0.4627976715564728
0.7908971905708313 0.20147106051445007 0.56706303358078
0.6299450993537903 0.1411045789718628 0.45635777711868286
0.609885036945343 0.3004719316959381 0.4705934226512909
0.6037818193435669 0.298062801361084 0.5754424333572388
0.6316237449645996 0.24935978651046753 0.4326271116733551
0.6468858122825623 0.22040072083473206 0.45580437779426575
0.6600137948989868 0.2751839756965637 0.42881715297698975
0.6604558229446411 0.35196852684020996 0.421725869178772
0.7211813926696777 0.170060396194458 0.4730972349643707
0.7053244709968567 0.26117607951164246 0.4332309365272522
0.7206643223762512 0.1846752166748047 0.45089006423950195
0.6342222094535828 0.2802663743495941 0.47511106729507446
0.6286385655403137 0.3159652054309845 0.5635609030723572
0.5853152275085449 0.2831726372241974 0.5983895659446716
0.7025799751281738 0.1694447547197342 0.5639603137969971
0.7950558662414551 0.21348199248313904 0.5677554607391357
0.6455880999565125 0.240526482462883 0.4198465943336487
0.7076192498207092 0.2724475562572479 0.5281822681427002
0.604140043258667 0.31739258766174316 0.45481547713279724
0.5742592811584473 0.2806065082550049 0.6128519177436829
0.6179977655410767 0.17218856513500214 0.44963353872299194
0.6746754050254822 0.19917285442352295 0.5863332748413086
0.6864088773727417 0.17729830741882324 0.5794787406921387
0.7615864276885986 0.2607722878456116 0.5192248225212097
0.6961097121238708 0.36875489354133606 0.4710179567337036
0.632215678691864 0.2919272482395172 0.48535358905792236
0.6380258798599243 0.22792287170886993 0.4869452118873596
0.6677219867706299 0.2488313466310501 0.5375217199325562
0.6233513951301575 0.3299158811569214 0.5200583934783936
0.7461287975311279 0.2333265095949173 0.5183538198471069
0.5758095383644104 0.25348877906799316 0.5199329853057861
0.7103891372680664 0.24372835457324982 0.5407114028930664
0.6116307377815247 0.3292469382286072 0.5237185955047607
0.5682621002197266 0.2776557505130768 0.434347003698349
0.6179051399230957 0.1956462860107422 0.44332194328308105
0.6468755602836609 0.2746645510196686 0.5799641609191895
0.6478265523910522 0.14626899361610413 0.47149938344955444
0.6858787536621094 0.2834358513355255 0.43338820338249207
0.6006908416748047 0.19160696864128113 0.44019463658332825
0.5695627331733704 0.28957509994506836 0.5048525929450989
0.6992461085319519 0.334980845451355 0.512556791305542
0.7713648676872253 0.24320580065250397 0.527273416519165
0.5855062007904053 0.2820260524749756 0.5256173014640808
0.77005934715271 0.22532261908054352 0.3904995024204254
0.7766017317771912 0.2593398094177246 0.3941459357738495
0.6948042511940002 0.2550468444824219 0.46269118785858154
0.6281834840774536 0.17051814496517181 0.5099037885665894
0.7142776250839233 0.18511968851089478 0.5606560707092285
0.653447687625885 0.2061815708875656 0.4921591579914093
0.7570556402206421 0.24007250368595123 0.4105684757232666
0.6358271837234497 0.18185551464557648 0.4922652840614319
0.6360995173454285 0.15073096752166748 0.5041955709457397
0.6180748343467712 0.206869438290596 0.4586820602416992
0.6116307377815247 0.3292469382286072 0.5237185955047607
0.5682621002197266 0.2776557505130768 0.434347003698349
0.6811122894287109 0.2494947761297226 0.38850724697113037
0.6032969951629639 0.3114771246910095 0.5330550670623779
0.6140798926353455 0.2875285744667053 0.6064553260803223
0.5830765962600708 0.2753804326057434 0.5909988284111023
0.6032969951629639 0.3114771246910095 0.5330550670623779
0.6140798926353455 0.2875285744667053 0.6064553260803223
0.762860894203186 0.23922361433506012 0.49977073073387146
0.7274956703186035 0.290507048368454 0.4620480239391327
0.7295810580253601 0.2651359736919403 0.4658885598182678
0.7295810580253601 0.2651359736919403 0.4658885598182678
0.6660482883453369 0.36103492975234985 0.4704394042491913
0.5685305595397949 0.2665342688560486 0.541206955909729
0.6718795299530029 0.3157303035259247 0.47302040457725525
0.5875446796417236 0.28840795159339905 0.5647672414779663
0.665651798248291 0.2094026356935501 0.5853854417800903
0.5720513463020325 0.2575671374797821 0.4337654411792755
0.6537172198295593 0.28545960783958435 0.4064980745315552
0.6476028561592102 0.14631476998329163 0.5552672147750854
0.6892930269241333 0.360835462808609 0.47741931676864624
0.5713870525360107 0.2886832356452942 0.4342726469039917
0.6685458421707153 0.35463908314704895 0.46516987681388855
0.6230216026306152 0.2892002463340759 0.5011823177337646
0.5931140184402466 0.22825641930103302 0.5681763887405396
0.6431479454040527 0.2010391652584076 0.5272110104560852
0.6860007047653198 0.3213832676410675 0.479217529296875
0.7151570320129395 0.32639238238334656 0.5413137078285217
0.6123024821281433 0.20320555567741394 0.5687512159347534
0.5743154883384705 0.2697637379169464 0.4446709454059601
0.5865781903266907 0.25088977813720703 0.5722268223762512
0.6180748343467712 0.206869438290596 0.4586820602416992
0.6140798926353455 0.2875285744667053 0.6064553260803223
0.762860894203186 0.23922361433506012 0.49977073073387146
0.7274956703186035 0.290507048368454 0.4620480239391327
0.7295810580253601 0.2651359736919403 0.4658885598182678
0.6660482883453369 0.36103492975234985 0.4704394042491913
0.5685305595397949 0.2665342688560486 0.541206955909729
0.6522344350814819 0.1559874415397644 0.5473857522010803
0.5875446796417236 0.28840795159339905 0.5647672414779663
0.665651798248291 0.2094026356935501 0.5853854417800903
0.5720513463020325 0.2575671374797821 0.4337654411792755
0.6645629405975342 0.31998521089553833 0.4354589581489563
0.6476028561592102 0.14631476998329163 0.5552672147750854
0.6892930269241333 0.360835462808609 0.47741931676864624
0.5713870525360107 0.2886832356452942 0.4342726469039917
0.6685458421707153 0.35463908314704895 0.46516987681388855
0.6230216026306152 0.2892002463340759 0.5011823177337646
0.5931140184402466 0.22825641930103302 0.5681763887405396
0.5931140184402466 0.22825641930103302 0.5681763887405396
0.6431479454040527 0.2010391652584076 0.5272110104560852
0.6860007047653198 0.3213832676410675 0.479217529296875
0.7151570320129395 0.32639238238334656 0.5413137078285217
0.7003911137580872 0.2742868661880493 0.45414257049560547
0.5906587243080139 0.2693955898284912 0.5977127552032471
0.5904207229614258 0.24979692697525024 0.5921483039855957
0.6846520900726318 0.14604520797729492 0.47063979506492615
0.5932556390762329 0.26704710721969604 0.609499990940094
0.7691106796264648 0.2542596459388733 0.4248524010181427
0.6273968815803528 0.3136503994464874 0.593687891960144
0.6844875812530518 0.319306343793869 0.4154364764690399
0.6907118558883667 0.32249295711517334 0.44203609228134155
0.75052809715271 0.2136562317609787 0.3909399211406708
0.6180748343467712 0.206869438290596 0.4586820602416992
0.6630669832229614 0.23324701189994812 0.5171079039573669
0.6166836619377136 0.1757659912109375 0.3936239182949066
0.6023678183555603 0.2159525454044342 0.5194141268730164
0.7109141945838928 0.3366973102092743 0.5471932291984558
0.7402961850166321 0.31172364950180054 0.48573458194732666
0.6279575824737549 0.16623535752296448 0.4974361062049866
0.6793264746665955 0.25090304017066956 0.5494117736816406
0.6249069571495056 0.21641993522644043 0.40776869654655457
0.7269505262374878 0.3202416002750397 0.5034876465797424
0.5937587022781372 0.2294093519449234 0.4418327808380127
0.6030184030532837 0.1970955729484558 0.5362464189529419
0.7256076335906982 0.28590402007102966 0.5202040076255798
0.7174184918403625 0.2806995213031769 0.5212056040763855
0.5978351831436157 0.2337162047624588 0.49763575196266174
0.6268942356109619 0.21956917643547058 0.48043718934059143
0.6321477293968201 0.26802685856819153 0.5437597632408142
0.7467381358146667 0.21988263726234436 0.4648827016353607
0.6749869585037231 0.16875378787517548 0.47890955209732056
0.7252789735794067 0.22662197053432465 0.5282670259475708
0.5979658365249634 0.27675873041152954 0.5199006795883179
0.5785650610923767 0.25237852334976196 0.48330339789390564
0.6172075271606445 0.17934510111808777 0.58116614818573
0.6260384321212769 0.1966067999601364 0.48221176862716675
0.6479664444923401 0.27723628282546997 0.5923022031784058
0.7053041458129883 0.3230772912502289 0.5758978724479675
0.7163619995117188 0.19536446034908295 0.4529472887516022
0.7280433773994446 0.18863129615783691 0.54728102684021
0.683666467666626 0.3579384982585907 0.4085344076156616
0.6138854622840881 0.2589947283267975 0.4638194143772125
0.7358335256576538 0.28660863637924194 0.40287676453590393
0.6859679818153381 0.17738677561283112 0.42125678062438965
0.7174052000045776 0.3493621051311493 0.5507531762123108
0.595538318157196 0.24780818819999695 0.5290112495422363
0.6995725631713867 0.1419461965560913 0.5665613412857056
0.6892930269241333 0.360835462808609 0.47741931676864624
0.5713870525360107 0.2886832356452942 0.4342726469039917
0.6685458421707153 0.35463908314704895 0.46516987681388855
0.6230216026306152 0.2892002463340759 0.5011823177337646
0.5931140184402466 0.22825641930103302 0.5681763887405396
0.6431479454040527 0.2010391652584076 0.5272110104560852
0.6860007047653198 0.3213832676410675 0.479217529296875
0.7151570320129395 0.32639238238334656 0.5413137078285217
0.7003911137580872 0.2742868661880493 0.45414257049560547
0.5906587243080139 0.2693955898284912 0.5977127552032471
0.5904207229614258 0.24979692697525024 0.5921483039855957
0.6846520900726318 0.14604520797729492 0.47063979506492615
0.5932556390762329 0.26704710721969604 0.609499990940094
0.7244742512702942 0.2438296675682068 0.41060584783554077
0.6161927580833435 0.15883111953735352 0.574015200138092
0.6870315670967102 0.2159939408302307 0.38162875175476074
0.6907118558883667 0.32249295711517334 0.44203609228134155
0.730390727519989 0.3131212592124939 0.4447205066680908
0.6478371620178223 0.3208412528038025 0.5040707588195801
0.6878158450126648 0.1949942260980606 0.3947452902793884
0.6526898741722107 0.31689730286598206 0.4409315884113312
0.6832027435302734 0.3184879422187805 0.4925302267074585
0.6791831851005554 0.2627624273300171 0.49932605028152466
0.6388675570487976 0.148006871342659 0.40921327471733093
0.6005411744117737 0.1615762710571289 0.46790409088134766
0.6487818956375122 0.256181001663208 0.4129268527030945
0.6419723033905029 0.21364472806453705 0.5323036909103394
0.5809422135353088 0.23760829865932465 0.41334614157676697
0.7085175514221191 0.3127419948577881 0.5910117626190186
0.7075220346450806 0.16283537447452545 0.5601330399513245
0.6549795866012573 0.18632002174854279 0.4019421339035034
0.7113246917724609 0.30038076639175415 0.5438356399536133
0.6675697565078735 0.298337459564209 0.48414355516433716
0.7181050181388855 0.27705100178718567 0.5908432006835938
0.6832850575447083 0.17036238312721252 0.3977474570274353
0.6634174585342407 0.33129656314849854 0.4690440893173218
0.7761532664299011 0.20224127173423767 0.5181047916412354
0.6239913702011108 0.20579680800437927 0.4391259253025055
0.7023509740829468 0.18713970482349396 0.5526978969573975
0.672312319278717 0.2956349551677704 0.5945906043052673
0.681129515171051 0.2531326115131378 0.5630438327789307
0.6789965629577637 0.345775842666626 0.5998494029045105
0.7517400979995728 0.2150246500968933 0.48074162006378174
0.690180242061615 0.3356385827064514 0.44426146149635315
0.6841062307357788 0.2675110697746277 0.41846737265586853
0.7251835465431213 0.2868870794773102 0.5178928375244141
0.6054369211196899 0.27361854910850525 0.5094702839851379
0.6920648217201233 0.3737269937992096 0.51701819896698
0.5877137780189514 0.2916027903556824 0.42246049642562866
0.6800277233123779 0.31334733963012695 0.559694766998291
0.6630147695541382 0.3432767391204834 0.521685779094696
0.6888889074325562 0.27318811416625977 0.5460306406021118
0.6075862646102905 0.23486709594726562 0.4175839126110077
0.6392037272453308 0.27552440762519836 0.4984368085861206
0.5753253102302551 0.2589122951030731 0.47372376918792725
0.6718059182167053 0.24814972281455994 0.46485579013824463
0.7410368323326111 0.3009302020072937 0.5246217250823975
0.6853522658348083 0.2873919606208801 0.5440911650657654
0.7077163457870483 0.3197754919528961 0.3993065059185028
0.6247945427894592 0.2232310026884079 0.5019418597221375
0.7012186050415039 0.2487945705652237 0.4426285922527313
0.6116307377815247 0.3292469382286072 0.5237185955047607
0.7077556848526001 0.28090861439704895 0.40533825755119324
0.653141438961029 0.14624063670635223 0.4573316276073456
0.614291250705719 0.1791566163301468 0.38979342579841614
0.7716780304908752 0.23725391924381256 0.570678174495697
0.7417739629745483 0.20007666945457458 0.5254416465759277
0.5925728678703308 0.2541825771331787 0.4900715947151184
0.5989556908607483 0.2753307819366455 0.6031466126441956
0.7299039959907532 0.24144816398620605 0.49921175837516785
0.609885036945343 0.3004719316959381 0.4705934226512909
0.6037818193435669 0.298062801361084 0.5754424333572388
0.6316237449645996 0.24935978651046753 0.4326271116733551
0.6468858122825623 0.22040072083473206 0.45580437779426575
0.6600137948989868 0.2751839756965637 0.42881715297698975
0.6604558229446411 0.35196852684020996 0.421725869178772
0.7211813926696777 0.170060396194458 0.4730972349643707
0.7053244709968567 0.26117607951164246 0.4332309365272522
0.7206643223762512 0.1846752166748047 0.45089006423950195
0.6342222094535828 0.2802663743495941 0.47511106729507446
0.6286385655403137 0.3159652054309845 0.5635609030723572
0.5853152275085449 0.2831726372241974 0.5983895659446716
0.7025799751281738 0.1694447547197342 0.5639603137969971
0.7950558662414551 0.21348199248313904 0.5677554607391357
0.7355598211288452 0.3152119815349579 0.498471736907959
0.5965654253959656 0.2461923360824585 0.5581948161125183
0.7542876601219177 0.24626319110393524 0.4779821038246155
0.6676055192947388 0.26346641778945923 0.47653400897979736
0.7011688351631165 0.17882199585437775 0.5315748453140259
0.6966344714164734 0.2787155508995056 0.5346026420593262
0.7825163006782532 0.21262836456298828 0.569419264793396
0.6680176258087158 0.16317607462406158 0.5640029311180115
0.7133557796478271 0.29224157333374023 0.5707716345787048
0.6811122894287109 0.2494947761297226 0.38850724697113037
0.6673128008842468 0.20200754702091217 0.4977762699127197
0.6839652061462402 0.2667229175567627 0.5517275333404541
0.6876553893089294 0.23109273612499237 0.5594186782836914
0.6877063512802124 0.34089115262031555 0.47800201177597046
0.7158200144767761 0.3410220444202423 0.4644264578819275
0.658228874206543 0.19359172880649567 0.5499835014343262
0.6287022829055786 0.1955222189426422 0.522049605846405
0.6950465440750122 0.18296322226524353 0.44430163502693176
0.6742363572120667 0.29470357298851013 0.5246869921684265
0.6052775382995605 0.27303603291511536 0.5271620154380798
0.7568784952163696 0.2513270974159241 0.4123307466506958
0.6701011657714844 0.3633992075920105 0.4511924982070923
0.6917377710342407 0.19419214129447937 0.5710570812225342
0.6113540530204773 0.3258135914802551 0.48151466250419617
0.7571699023246765 0.25147178769111633 0.46762752532958984
0.7291737794876099 0.2805204689502716 0.4505898058414459
0.753896176815033 0.1833956092596054 0.4997413158416748
0.6687378287315369 0.14508044719696045 0.5308087468147278
0.6694484949111938 0.24982209503650665 0.42754390835762024
0.698086678981781 0.312802255153656 0.5852218270301819
0.6588889956474304 0.1936393827199936 0.5253636837005615
0.6654196977615356 0.228895902633667 0.476406991481781
0.6632799506187439 0.15976482629776 0.5741886496543884
0.6424268484115601 0.2036656141281128 0.3988874852657318
0.7475290894508362 0.27059656381607056 0.4039117395877838
0.6254652142524719 0.16868077218532562 0.4217081069946289
0.6898113489151001 0.2539004683494568 0.5899940133094788
0.6580389738082886 0.3039112091064453 0.4713442921638489
0.684870183467865 0.34764039516448975 0.48279207944869995
0.7945665717124939 0.22412800788879395 0.4775862991809845
0.6241154074668884 0.23832574486732483 0.5157646536827087
0.77005934715271 0.22532261908054352 0.3904995024204254
0.6431479454040527 0.2010391652584076 0.5272110104560852
0.6860007047653198 0.3213832676410675 0.479217529296875
0.7151570320129395 0.32639238238334656 0.5413137078285217
0.7003911137580872 0.2742868661880493 0.45414257049560547
0.5906587243080139 0.2693955898284912 0.5977127552032471
0.5904207229614258 0.24979692697525024 0.5921483039855957
0.5824072360992432 0.2433321177959442 0.46131399273872375
0.577495276927948 0.2720305621623993 0.48199737071990967
0.6133201718330383 0.2390323132276535 0.5604610443115234
0.6184845566749573 0.21680505573749542 0.5389565229415894
0.7120096683502197 0.307717889547348 0.4209056794643402
0.6084597706794739 0.1848273128271103 0.5030696988105774
0.7667483687400818 0.20479454100131989 0.4494493007659912
0.6925976276397705 0.19818688929080963 0.5168366432189941
0.7848449349403381 0.21622467041015625 0.4956821799278259
0.628968358039856 0.2159946858882904 0.48302873969078064
0.6966085433959961 0.20362353324890137 0.3796602189540863
0.7687985897064209 0.2432277500629425 0.4953401982784271
0.5771264433860779 0.2598972022533417 0.5045056343078613
0.7239762544631958 0.17926961183547974 0.5557414889335632
0.6630723476409912 0.3565669357776642 0.4177713394165039
0.7215952277183533 0.2813839912414551 0.5029107928276062
0.7005441188812256 0.35811421275138855 0.6006410121917725
0.5733878016471863 0.3044201135635376 0.4100625216960907
0.6805668473243713 0.3108835220336914 0.46681731939315796
0.5936505198478699 0.30207788944244385 0.5630170702934265
0.7745309472084045 0.23598477244377136 0.3938085734844208
0.73163241147995 0.26483288407325745 0.4156712591648102
0.6671016216278076 0.23938293755054474 0.5546278357505798
0.7283846139907837 0.30429500341415405 0.522371232509613
0.669675886631012 0.19809839129447937 0.5308173298835754
0.595538318157196 0.24780818819999695 0.5290112495422363
0.769946813583374 0.2630515694618225 0.5254160761833191
0.7330560684204102 0.29796192049980164 0.5474006533622742
0.6101659536361694 0.2339078187942505 0.4998151659965515
0.7206334471702576 0.2599327564239502 0.4811626076698303
0.7344046831130981 0.32120299339294434 0.5884442925453186
0.6014655232429504 0.3017747402191162 0.5680685043334961
0.6796451807022095 0.2804963290691376 0.539970338344574
0.6473287343978882 0.11802919954061508 0.5709330439567566
0.6367900967597961 0.29770636558532715 0.5590861439704895
0.7080799341201782 0.2418346405029297 0.40983936190605164
0.6177603602409363 0.2227593958377838 0.5639051198959351
0.6589929461479187 0.1794271469116211 0.5548160076141357
0.6056807637214661 0.3033445477485657 0.52364581823349
0.7641205787658691 0.24626775085926056 0.4032123386859894
0.6606491208076477 0.16216513514518738 0.41043993830680847
0.6956437230110168 0.24314478039741516 0.4956398010253906
0.6609595417976379 0.2267923355102539 0.5910997986793518
0.6541714072227478 0.15960432589054108 0.5804766416549683
0.7225473523139954 0.3022853434085846 0.4733799993991852
0.6294982433319092 0.28140193223953247 0.46287286281585693
0.5606800317764282 0.2913416028022766 0.4132978320121765
0.6054641008377075 0.1910153478384018 0.4081774950027466
0.6043718457221985 0.2874723970890045 0.45698702335357666
0.6252597570419312 0.2128601223230362 0.5219470262527466
0.6674249768257141 0.385477751493454 0.41478338837623596
0.6219478845596313 0.1427188515663147 0.516970694065094
0.6527820825576782 0.2318335920572281 0.5618765950202942
0.6275328993797302 0.27406561374664307 0.39882412552833557
0.6866005659103394 0.2783241868019104 0.5021104216575623
0.6510234475135803 0.14338929951190948 0.5386411547660828
0.6155849695205688 0.329147607088089 0.44376370310783386
0.6776593923568726 0.3460425138473511 0.5666035413742065
0.648088812828064 0.1719341278076172 0.5392263531684875
0.693686842918396 0.3434222638607025 0.5861186981201172
0.63818359375 0.29522186517715454 0.5850927829742432
0.6110696196556091 0.15644563734531403 0.5114544034004211
0.7447110414505005 0.30109384655952454 0.5131091475486755
0.5805870294570923 0.2489711493253708 0.5836601257324219
0.6411952972412109 0.2836114168167114 0.435560017824173
0.6595934629440308 0.28184425830841064 0.5279471278190613
0.633821427822113 0.2012237012386322 0.5184702277183533
0.5839185118675232 0.27618134021759033 0.5524556636810303
0.6637883186340332 0.1749526411294937 0.5007907152175903
0.6692200899124146 0.29095661640167236 0.5552102327346802
0.5687207579612732 0.27883845567703247 0.5942636728286743
0.7011688351631165 0.17882199585437775 0.5315748453140259
0.6966344714164734 0.2787155508995056 0.5346026420593262
0.7825163006782532 0.21262836456298828 0.569419264793396
0.6680176258087158 0.16317607462406158 0.5640029311180115
0.6898878216743469 0.14949418604373932 0.5451733469963074
0.6878426671028137 0.31750261783599854 0.4561094641685486
0.7321945428848267 0.32177242636680603 0.4855279326438904
0.6241035461425781 0.13275839388370514 0.5366550087928772
0.6949483156204224 0.23748821020126343 0.5086601972579956
0.5820233225822449 0.2927500605583191 0.47189486026763916
0.6668074727058411 0.2029685378074646 0.5357763767242432
0.7141915559768677 0.3443492650985718 0.5512033104896545
0.6398245096206665 0.2937617301940918 0.502860963344574
0.6810694336891174 0.33763688802719116 0.4322373867034912
0.7053390145301819 0.3309049904346466 0.45780208706855774
0.7048577070236206 0.21445347368717194 0.44548991322517395
0.7136926054954529 0.3267805278301239 0.5130491256713867
0.5743847489356995 0.28283005952835083 0.5492320656776428
0.7447110414505005 0.30109384655952454 0.5131091475486755
0.5805870294570923 0.2489711493253708 0.5836601257324219
0.6411952972412109 0.2836114168167114 0.435560017824173
0.6595934629440308 0.28184425830841064 0.5279471278190613
0.633821427822113 0.2012237012386322 0.5184702277183533
0.5839185118675232 0.27618134021759033 0.5524556636810303
0.6637883186340332 0.1749526411294937 0.5007907152175903
0.6782138347625732 0.33651381731033325 0.5264520049095154
0.7011688351631165 0.17882199585437775 0.5315748453140259
0.6966344714164734 0.2787155508995056 0.5346026420593262
0.7825163006782532 0.21262836456298828 0.569419264793396
0.6680176258087158 0.16317607462406158 0.5640029311180115
0.7133557796478271 0.29224157333374023 0.5707716345787048
0.7123184204101562 0.28298500180244446 0.48323699831962585
0.6774427890777588 0.28136980533599854 0.5053183436393738
0.7005925178527832 0.19266000390052795 0.4687380790710449
0.708026647567749 0.23110003769397736 0.5167762637138367
0.5820233225822449 0.2927500605583191 0.47189486026763916
0.6668074727058411 0.2029685378074646 0.5357763767242432
0.7141915559768677 0.3443492650985718 0.5512033104896545
0.6398245096206665 0.2937617301940918 0.502860963344574
0.6810694336891174 0.33763688802719116 0.4322373867034912
0.7053390145301819 0.3309049904346466 0.45780208706855774
0.7541048526763916 0.2688387930393219 0.41470107436180115
0.6046807765960693 0.26244300603866577 0.5155137777328491
0.7094336748123169 0.33799752593040466 0.4475136697292328
0.7075179815292358 0.21345573663711548 0.44639045000076294
0.7448379993438721 0.26474514603614807 0.5337602496147156
0.6176121830940247 0.18741287291049957 0.509427547454834
0.7355431318283081 0.3206767737865448 0.5023525953292847
0.6081379055976868 0.18260903656482697 0.560948371887207
0.7881249189376831 0.23096638917922974 0.42745211720466614
0.6088014245033264 0.19512180984020233 0.5950325727462769
0.7410368323326111 0.3009302020072937 0.5246217250823975
0.6853522658348083 0.2873919606208801 0.5440911650657654
0.7077163457870483 0.3197754919528961 0.3993065059185028
0.6247945427894592 0.2232310026884079 0.5019418597221375
0.7012186050415039 0.2487945705652237 0.4426285922527313
0.6106816530227661 0.20378240942955017 0.5573102831840515
0.6540904641151428 0.12189207226037979 0.5546715259552002
0.7146555185317993 0.18886995315551758 0.5366723537445068
0.7257775664329529 0.3332369327545166 0.5491718649864197
0.6356439590454102 0.2646494209766388 0.4089749753475189
0.6914583444595337 0.2742326259613037 0.5431979894638062
0.6973699331283569 0.20198892056941986 0.4163617193698883
0.6126565933227539 0.25744274258613586 0.45173028111457825
0.5583180785179138 0.27998265624046326 0.5113715529441833
0.7090238332748413 0.3098371922969818 0.4384985566139221
0.6933884024620056 0.17787675559520721 0.46709033846855164
0.6393114924430847 0.3153282701969147 0.5723716616630554
0.6303856372833252 0.2543609142303467 0.46964871883392334
0.6575367450714111 0.23745959997177124 0.5115931630134583
0.7133470773696899 0.23626582324504852 0.5871142745018005
0.6585862040519714 0.19901898503303528 0.504392683506012
0.7432717680931091 0.3033090829849243 0.5015276074409485
0.6578009128570557 0.3132922947406769 0.5256463885307312
0.7185523509979248 0.29502877593040466 0.4537103474140167
0.6361609101295471 0.22756002843379974 0.4080680012702942
0.714665949344635 0.29455846548080444 0.48494940996170044
0.639909565448761 0.2799117863178253 0.5868552327156067
0.6028925180435181 0.3386164903640747 0.4204833209514618
0.6598832011222839 0.17851370573043823 0.4968886375427246
0.5769094228744507 0.3129017949104309 0.4643879234790802
0.7131487131118774 0.2354660928249359 0.461689293384552
0.753896176815033 0.1833956092596054 0.4997413158416748
0.684870183467865 0.34764039516448975 0.48279207944869995
0.7945665717124939 0.22412800788879395 0.4775862991809845
0.6241154074668884 0.23832574486732483 0.5157646536827087
0.6375951170921326 0.2734300196170807 0.40340936183929443
0.7653642296791077 0.24258071184158325 0.5200955867767334
0.7244974374771118 0.26353931427001953 0.4796317219734192
0.6618019342422485 0.29753103852272034 0.526944637298584
0.7308523058891296 0.1796663999557495 0.46759405732154846
0.6890859603881836 0.33530041575431824 0.5141815543174744
0.678792417049408 0.1636601686477661 0.5559348464012146
0.6473933458328247 0.2986103594303131 0.4109998047351837
0.564904510974884 0.26631787419319153 0.42281219363212585
0.7147347331047058 0.2229328453540802 0.5559719800949097
0.7121098637580872 0.337871789932251 0.5752648115158081
0.6483334898948669 0.15941360592842102 0.5188720226287842
0.684791624546051 0.23012468218803406 0.5007625222206116
0.7539026737213135 0.22104667127132416 0.4387305974960327
0.6850744485855103 0.24783489108085632 0.5549572706222534
0.6428489685058594 0.1340990960597992 0.43094056844711304
0.6081141829490662 0.1921938806772232 0.4898376166820526
0.7881249189376831 0.23096638917922974 0.42745211720466614
0.5959897637367249 0.2065727263689041 0.4741136431694031
0.6468382477760315 0.21021768450737 0.47315365076065063
0.6330949664115906 0.2795594334602356 0.5339719653129578
0.7431715726852417 0.18428631126880646 0.47486570477485657
0.7272396087646484 0.3201274275779724 0.49203309416770935
0.7837119102478027 0.1948479562997818 0.5279737114906311
0.6087373495101929 0.28111761808395386 0.4873128831386566
0.7653757333755493 0.23526380956172943 0.4922557771205902
0.6245120167732239 0.322984904050827 0.5564620494842529
0.6257908940315247 0.29965490102767944 0.4584202766418457
0.6800277233123779 0.31334733963012695 0.559694766998291
0.7410368323326111 0.3009302020072937 0.5246217250823975
0.6853522658348083 0.2873919606208801 0.5440911650657654
0.7077163457870483 0.3197754919528961 0.3993065059185028
0.6247945427894592 0.2232310026884079 0.5019418597221375
0.7012186050415039 0.2487945705652237 0.4426285922527313
0.6106816530227661 0.20378240942955017 0.5573102831840515
0.6540904641151428 0.12189207226037979 0.5546715259552002
0.6473280787467957 0.1294630914926529 0.5699823498725891
0.7184445858001709 0.2710672914981842 0.5836055278778076
0.5863549709320068 0.29428741335868835 0.5453069806098938
0.7703723311424255 0.25643816590309143 0.4646570682525635
0.7398385405540466 0.18294088542461395 0.5258537530899048
0.6340647339820862 0.3082882761955261 0.4704756438732147
0.6869403123855591 0.23166368901729584 0.4350600242614746
0.720661997795105 0.21782585978507996 0.4759867489337921
0.7177218794822693 0.2847203314304352 0.42407286167144775
0.7091379761695862 0.2111956626176834 0.4029044508934021
0.7503905892372131 0.17073720693588257 0.562545657157898
0.6036880016326904 0.21425965428352356 0.5189478993415833
0.6667189598083496 0.28284215927124023 0.46641185879707336
0.6199592351913452 0.1356496810913086 0.4059511423110962
0.7114731073379517 0.26749250292778015 0.5165166854858398
0.7117702960968018 0.19449158012866974 0.5267515182495117
0.6294555068016052 0.1883769929409027 0.48065975308418274
0.6354314088821411 0.36150896549224854 0.42493560910224915
0.6601070165634155 0.1508946567773819 0.5301252007484436
0.5878876447677612 0.21380622684955597 0.42310628294944763
0.6157993674278259 0.17769768834114075 0.5525255799293518
0.5656103491783142 0.27179571986198425 0.40354466438293457
0.5580677390098572 0.29802876710891724 0.42211008071899414
0.7500500679016113 0.24374490976333618 0.3989207148551941
0.6392037272453308 0.27552440762519836 0.4984368085861206
0.5753253102302551 0.2589122951030731 0.47372376918792725
0.6718059182167053 0.24814972281455994 0.46485579013824463
0.7410368323326111 0.3009302020072937 0.5246217250823975
0.6853522658348083 0.2873919606208801 0.5440911650657654
0.7077163457870483 0.3197754919528961 0.3993065059185028
0.6247945427894592 0.2232310026884079 0.5019418597221375
0.7012186050415039 0.2487945705652237 0.4426285922527313
0.6106816530227661 0.20378240942955017 0.5573102831840515
0.5795726180076599 0.2488868534564972 0.4862481653690338
0.6774855256080627 0.251411110162735 0.41218066215515137
0.6305389404296875 0.32860052585601807 0.5459772944450378
0.6877899765968323 0.33456382155418396 0.5690168738365173
0.59831303358078 0.2680710554122925 0.594862699508667
0.6369538307189941 0.277040958404541 0.55036461353302
0.6209139823913574 0.12258151918649673 0.5684929490089417
0.6621446013450623 0.3598276972770691 0.42715924978256226
0.6618772745132446 0.1856490522623062 0.46693122386932373
0.584984302520752 0.2714320719242096 0.42461973428726196
0.7480306029319763 0.1874324083328247 0.5256807804107666
0.6233603954315186 0.12164726108312607 0.5778948664665222
0.7132084965705872 0.26089340448379517 0.5634147524833679
0.7221553921699524 0.15419085323810577 0.5417182445526123
0.5576237440109253 0.2882581055164337 0.47341886162757874
0.6199523210525513 0.17289742827415466 0.5170223116874695
0.6625781655311584 0.28469976782798767 0.42698922753334045
0.5969386100769043 0.20845071971416473 0.3987117409706116
0.6277247071266174 0.24056704342365265 0.5476856231689453
0.6054055690765381 0.2109166979789734 0.45838043093681335
0.6691123843193054 0.3024585247039795 0.4332307279109955
0.7074557542800903 0.2707045376300812 0.5728365778923035
0.6837343573570251 0.1379740983247757 0.5015591979026794
0.7011688351631165 0.17882199585437775 0.5315748453140259
0.7048577070236206 0.21445347368717194 0.44548991322517395
0.6693264245986938 0.2976720333099365 0.5835341215133667
0.6456045508384705 0.2187962532043457 0.3882450759410858
0.7059689164161682 0.3397371172904968 0.4719909429550171
0.7371460199356079 0.2950476109981537 0.5672644376754761
0.6176121830940247 0.18741287291049957 0.509427547454834
0.662684440612793 0.2506767213344574 0.42205870151519775
0.6594126224517822 0.31493091583251953 0.5041119456291199
0.7247644066810608 0.28875988721847534 0.4262349009513855
0.6720163822174072 0.21699845790863037 0.5589017868041992
0.612165629863739 0.3352886736392975 0.44235584139823914
0.6545079946517944 0.25858110189437866 0.44467729330062866
0.6263982057571411 0.27327457070350647 0.4093513488769531
0.6958988308906555 0.18864476680755615 0.5693864226341248
0.6212281584739685 0.17796236276626587 0.5304814577102661
0.6152276992797852 0.22598667442798615 0.4378347098827362
0.7061366438865662 0.3164496421813965 0.4554196000099182
0.5868040919303894 0.21723847091197968 0.41755661368370056
0.7795863151550293 0.19220981001853943 0.526287317276001
0.7385112643241882 0.25053855776786804 0.4024140238761902
0.6476223468780518 0.302738219499588 0.4833633005619049
0.6354315280914307 0.1884550005197525 0.5170807242393494
0.6175069212913513 0.27232059836387634 0.5370338559150696
0.596939742565155 0.30483660101890564 0.5446047186851501
0.7263429164886475 0.17985987663269043 0.5358750820159912
0.5579907894134521 0.2834256589412689 0.44161248207092285
0.6681057810783386 0.16038210690021515 0.4358566701412201
0.6797757744789124 0.3142224848270416 0.4657602906227112
0.647323489189148 0.3368530571460724 0.48648497462272644
0.6420860886573792 0.32283294200897217 0.47108206152915955
0.6774809956550598 0.24425795674324036 0.5228381752967834
0.6674249768257141 0.385477751493454 0.41478338837623596
0.7100557684898376 0.2983139455318451 0.4640807807445526
0.6558536291122437 0.22844673693180084 0.4473840296268463
0.654640793800354 0.3629913628101349 0.4725888967514038
0.6160595417022705 0.23542520403862 0.5869653820991516
0.6409441232681274 0.2144554853439331 0.4229871332645416
0.6217162013053894 0.18966460227966309 0.4982343316078186
0.7060836553573608 0.24686802923679352 0.5396750569343567
0.6124842762947083 0.14363273978233337 0.43369752168655396
0.5965625047683716 0.18626177310943604 0.41535091400146484
0.7212093472480774 0.2115844190120697 0.528192400932312
0.6630788445472717 0.29177165031433105 0.5095406770706177
0.6953131556510925 0.20086096227169037 0.44009241461753845
0.6458974480628967 0.2738870084285736 0.4436064660549164
0.7018226981163025 0.331999808549881 0.588042676448822
0.6892716288566589 0.3635028600692749 0.48924383521080017
0.7385112643241882 0.25053855776786804 0.4024140238761902
0.6476223468780518 0.302738219499588 0.4833633005619049
0.6354315280914307 0.1884550005197525 0.5170807242393494
0.6175069212913513 0.27232059836387634 0.5370338559150696
0.7263429164886475 0.17985987663269043 0.5358750820159912
0.5579907894134521 0.2834256589412689 0.44161248207092285
0.6681057810783386 0.16038210690021515 0.4358566701412201
0.6797757744789124 0.3142224848270416 0.4657602906227112
0.647323489189148 0.3368530571460724 0.48648497462272644
0.6943441033363342 0.2842763364315033 0.46640855073928833
0.7365585565567017 0.2726057469844818 0.531253457069397
0.6424319744110107 0.20023150742053986 0.47596439719200134
0.7288646697998047 0.1689276248216629 0.4943579137325287
0.6698669791221619 0.3120122253894806 0.4784819483757019
0.6576655507087708 0.2871968150138855 0.4875548481941223
0.7118538022041321 0.3183322548866272 0.5543476939201355
0.7045921087265015 0.36293119192123413 0.44479241967201233
0.6629989743232727 0.28342342376708984 0.3981701731681824
0.6021883487701416 0.3169732987880707 0.4433644413948059
0.6950995326042175 0.2429792582988739 0.4520806074142456
0.6217979788780212 0.233591228723526 0.45550045371055603
0.6140086650848389 0.14267095923423767 0.4228608012199402
0.5754764080047607 0.24597489833831787 0.41208651661872864
0.7678858637809753 0.2521527111530304 0.5822231769561768
0.6475821137428284 0.20098739862442017 0.5519558191299438
0.6723891496658325 0.3355318605899811 0.5936716794967651
0.6076721549034119 0.2807435691356659 0.40028971433639526
0.696652352809906 0.20993350446224213 0.5772863626480103
0.617705225944519 0.307243674993515 0.47728875279426575
0.6768781542778015 0.31957679986953735 0.5037868022918701
0.6770901083946228 0.18721184134483337 0.48804593086242676
0.6718631982803345 0.36656972765922546 0.43462005257606506
0.6953935623168945 0.36894261837005615 0.5209485292434692
0.5910234451293945 0.27007806301116943 0.6069318652153015
0.6788229942321777 0.2656324803829193 0.5803718566894531
0.5741152167320251 0.2874508202075958 0.558170735836029
0.6400690674781799 0.24845528602600098 0.5645601749420166
0.6176026463508606 0.25377753376960754 0.47776710987091064
0.7475403547286987 0.2318364679813385 0.550957977771759
0.697079598903656 0.26928094029426575 0.5353860259056091
0.6551079750061035 0.2031283974647522 0.5811659693717957
0.6597819328308105 0.22326457500457764 0.5778560638427734
0.6183531880378723 0.2137136161327362 0.5775442719459534
0.6208808422088623 0.1612362414598465 0.49943163990974426
0.6305389404296875 0.32860052585601807 0.5459772944450378
0.6877899765968323 0.33456382155418396 0.5690168738365173
0.59831303358078 0.2680710554122925 0.594862699508667
0.6369538307189941 0.277040958404541 0.55036461353302
0.6540904641151428 0.12189207226037979 0.5546715259552002
0.7103756070137024 0.29116082191467285 0.42761796712875366
0.7634187936782837 0.2152717113494873 0.5654206275939941
0.6777546405792236 0.31576696038246155 0.46719539165496826
0.6318244338035583 0.12163311243057251 0.48992350697517395
0.6265205144882202 0.2672271132469177 0.49393323063850403
0.7287616729736328 0.23813927173614502 0.5033581852912903
0.7316150665283203 0.17553529143333435 0.5642391443252563
0.6799638271331787 0.3702148497104645 0.5041305422782898
0.7174853086471558 0.2595857083797455 0.5445672273635864
0.7429667711257935 0.24844904243946075 0.39600899815559387
0.6567577123641968 0.276559442281723 0.5235527753829956
0.6650695204734802 0.1739770919084549 0.401876300573349
0.71248859167099 0.266305536031723 0.5294206738471985
0.6936866641044617 0.1489010453224182 0.4779373109340668
0.6161138415336609 0.1405884325504303 0.4172680377960205
0.6935904622077942 0.2325226366519928 0.4629041850566864
0.682563066482544 0.17934510111808777 0.49992555379867554
0.755043089389801 0.2687126100063324 0.5234671831130981
0.7568775415420532 0.2622324228286743 0.4662880301475525
0.5755972266197205 0.2613660991191864 0.447651207447052
0.6457915306091309 0.15954238176345825 0.5642374157905579
0.6077395677566528 0.24906817078590393 0.4678489863872528
0.6778833866119385 0.2095624804496765 0.4342854619026184
0.5783377289772034 0.27611786127090454 0.5633525848388672
0.7455223798751831 0.2636691927909851 0.5320572257041931
0.6944307684898376 0.37125492095947266 0.5098347663879395
0.6102879047393799 0.2564293444156647 0.48384562134742737
0.6241980791091919 0.2640906274318695 0.4220474362373352
0.736844539642334 0.25730860233306885 0.4646773338317871
0.6110804677009583 0.19611798226833344 0.5761272311210632
0.7472149133682251 0.22501139342784882 0.5106541514396667
0.6540904641151428 0.12189207226037979 0.5546715259552002
0.7367936968803406 0.2671395540237427 0.5643733739852905
0.6512153148651123 0.15943287312984467 0.5231059789657593
0.6816991567611694 0.16656216979026794 0.45317548513412476
0.5586809515953064 0.276212215423584 0.5115156769752502
0.6954073309898376 0.3514280915260315 0.4344545602798462
0.6992909908294678 0.25532016158103943 0.49471616744995117
0.77664715051651 0.21705934405326843 0.5601155757904053
0.7743707299232483 0.25378820300102234 0.48992374539375305
0.6781376600265503 0.14633280038833618 0.5437742471694946
0.726615846157074 0.3286181390285492 0.5908540487289429
0.6798135042190552 0.22210432589054108 0.5254814624786377
0.6777853965759277 0.2480407953262329 0.4678545594215393
0.5868500471115112 0.26148927211761475 0.576566219329834
0.6076708436012268 0.16841240227222443 0.48434579372406006
0.7013209462165833 0.2870859205722809 0.4002038538455963
0.7158878445625305 0.3400188982486725 0.4442214071750641
