ply
format ascii 1.0
element vertex 827
property float x
property float y
property float z
end_header
0.46893495321273804 0.12211856991052628 0.5064429044723511
0.4352319538593292 0.2832607328891754 0.4527073800563812
0.40626129508018494 0.21183525025844574 0.5388636589050293
0.33320605754852295 0.20800846815109253 0.5054762959480286
0.4123058319091797 0.2642683982849121 0.4817962944507599
0.5158287882804871 0.2349204272031784 0.4229260981082916
0.38618722558021545 0.19355589151382446 0.45217272639274597
0.49604466557502747 0.150461345911026 0.45578697323799133
0.4620991349220276 0.22235071659088135 0.5240148305892944
0.46443018317222595 0.2781575620174408 0.4527857303619385
0.4620991349220276 0.22235071659088135 0.5240148305892944
0.46443018317222595 0.2781575620174408 0.4527857303619385
0.506817638874054 0.15333116054534912 0.49435538053512573
0.501081109046936 0.18750229477882385 0.4124267101287842
0.4769109785556793 0.3216455578804016 0.451466828584671
0.43659090995788574 0.15517596900463104 0.47342681884765625
0.466242253780365 0.14454832673072815 0.39988166093826294
0.4820482134819031 0.29196324944496155 0.42291951179504395
0.5376507043838501 0.16577699780464172 0.5727440118789673
0.5347362756729126 0.2229260504245758 0.5297452211380005
0.455881267786026 0.19311925768852234 0.5042827725410461
0.5107035636901855 0.2966052293777466 0.595934271812439
0.41212284564971924 0.2183281034231186 0.5953021049499512
0.4421653151512146 0.16831712424755096 0.42445632815361023
0.4719143509864807 0.13661111891269684 0.5466289520263672
0.44861114025115967 0.1387607306241989 0.5055652260780334
0.487268328666687 0.239340677857399 0.5362184047698975
0.43251293897628784 0.12890134751796722 0.5528414249420166
0.4738764762878418 0.28812354803085327 0.5493859052658081
0.4330437183380127 0.3126808702945709 0.49652886390686035
0.44111064076423645 0.14712300896644592 0.42936524748802185
0.5061877369880676 0.17713889479637146 0.501808762550354
0.47569140791893005 0.3113884925842285 0.539147138595581
0.5095154047012329 0.21978729963302612 0.5480676889419556
0.4351167678833008 0.20503553748130798 0.5440550446510315
0.4545759856700897 0.22980529069900513 0.5265378952026367
0.5225415229797363 0.2739620506763458 0.5167039632797241
0.46751493215560913 0.34972846508026123 0.5327838659286499
0.492270290851593 0.20416437089443207 0.5098478198051453
0.5553836226463318 0.24387222528457642 0.42011821269989014
0.4594198763370514 0.13478606939315796 0.5136019587516785
0.3794558346271515 0.1831638365983963 0.47556111216545105
0.5037024021148682 0.3148077428340912 0.5339658856391907
0.4920169711112976 0.14427949488162994 0.47794950008392334
0.5000509023666382 0.3065143823623657 0.528327226638794
0.5090133547782898 0.18978755176067352 0.47731998562812805
0.424360454082489 0.21581430733203888 0.502806544303894
0.5629241466522217 0.24338512122631073 0.4229099452495575
0.45186465978622437 0.11217489838600159 0.5809091329574585
0.4277799129486084 0.24067114293575287 0.4332793056964874
0.44762757420539856 0.16169914603233337 0.48968467116355896
0.4895469546318054 0.22002211213111877 0.511751651763916
0.34309056401252747 0.2093239426612854 0.5602117776870728
0.4701504111289978 0.17253558337688446 0.45889294147491455
0.4060629904270172 0.2347048670053482 0.41499030590057373
0.3629237115383148 0.1863616704940796 0.5195887088775635
0.4861178994178772 0.2612278163433075 0.5744932889938354
0.44524484872817993 0.15119677782058716 0.40512815117836
0.4346467852592468 0.21828706562519073 0.43302109837532043
0.5538637638092041 0.22831904888153076 0.4391601085662842
0.3731822073459625 0.19977997243404388 0.587497889995575
0.41515034437179565 0.26493117213249207 0.5973407626152039
0.5390775799751282 0.17717495560646057 0.45425543189048767
0.3635842204093933 0.19272437691688538 0.5270408987998962
0.4191284775733948 0.1971762776374817 0.550707221031189
0.495279997587204 0.24742034077644348 0.49165451526641846
0.36688682436943054 0.21438097953796387 0.5616505146026611
0.5054206252098083 0.28732195496559143 0.4427911043167114
0.45572429895401 0.256603866815567 0.559745728969574
0.48076876997947693 0.24725741147994995 0.4385342299938202
0.39219576120376587 0.19811709225177765 0.5552530288696289
0.40511810779571533 0.24604551494121552 0.4832926392555237
0.398886114358902 0.2343863993883133 0.5687106847763062
0.3826923668384552 0.1666918843984604 0.5571482181549072
0.4682213068008423 0.31462758779525757 0.6116006374359131
0.5635656118392944 0.23031243681907654 0.4498835504055023
0.4119094908237457 0.22608882188796997 0.42365777492523193
0.43216830492019653 0.24156086146831512 0.5253618359565735
0.4043468236923218 0.25327005982398987 0.484953910112381
0.5230184197425842 0.28196534514427185 0.5424512624740601
0.46483662724494934 0.13187579810619354 0.5444870591163635
0.5002570748329163 0.22310945391654968 0.5644010901451111
0.39489707350730896 0.21387143433094025 0.538877546787262
0.4787342846393585 0.23096872866153717 0.5737650990486145
0.48111772537231445 0.3256832957267761 0.5857456922531128
0.46411433815956116 0.3257329761981964 0.5086080431938171
0.44582581520080566 0.15237179398536682 0.5901759266853333
0.41103729605674744 0.2957545816898346 0.43672141432762146
0.45008644461631775 0.28067687153816223 0.45725247263908386
0.5592334866523743 0.25754791498184204 0.5355380177497864
0.442195326089859 0.13777509331703186 0.45008543133735657
0.4437481164932251 0.33529335260391235 0.5020947456359863
0.46516960859298706 0.23331260681152344 0.4569317698478699
0.42594096064567566 0.2579432725906372 0.5094714164733887
0.46280741691589355 0.29117223620414734 0.5139169096946716
0.5279460549354553 0.290689080953598 0.4423356354236603
0.3551902770996094 0.23430505394935608 0.4605359733104706
0.3981437385082245 0.18168067932128906 0.43613722920417786
0.3562779128551483 0.22050592303276062 0.4487821161746979
0.3997151255607605 0.22277018427848816 0.5122336149215698
0.43709003925323486 0.3437018394470215 0.5231631398200989
0.505382239818573 0.16243667900562286 0.45758113265037537
0.46480196714401245 0.15274088084697723 0.4113439917564392
0.45830363035202026 0.2892719805240631 0.561913788318634
0.5255803465843201 0.13767312467098236 0.5646619200706482
0.494672030210495 0.13648873567581177 0.5892214775085449
0.4615769684314728 0.2249988168478012 0.5999383330345154
0.4191284775733948 0.1971762776374817 0.550707221031189
0.495279997587204 0.24742034077644348 0.49165451526641846
0.36688682436943054 0.21438097953796387 0.5616505146026611
0.5054206252098083 0.28732195496559143 0.4427911043167114
0.4663689136505127 0.328583300113678 0.58550626039505
0.4314122796058655 0.23095126450061798 0.4326457381248474
0.43149492144584656 0.17940250039100647 0.4550965428352356
0.4836941063404083 0.15665064752101898 0.5746400356292725
0.41471612453460693 0.1773991733789444 0.5696780681610107
0.4169427454471588 0.15605571866035461 0.5253325700759888
0.4906235635280609 0.15627062320709229 0.5363906621932983
0.48296254873275757 0.282122939825058 0.5730136632919312
0.4707667827606201 0.24894292652606964 0.5828790068626404
0.5221433043479919 0.30689483880996704 0.5462368130683899
0.46746307611465454 0.27181944251060486 0.46973690390586853
0.5519000887870789 0.259589284658432 0.43942099809646606
0.4756080210208893 0.29657357931137085 0.4922356605529785
0.45545142889022827 0.16808578372001648 0.4507320821285248
0.511614978313446 0.13086038827896118 0.47184115648269653
0.38977813720703125 0.21030917763710022 0.4814816117286682
0.3618617057800293 0.23162591457366943 0.5640551447868347
0.41471612453460693 0.1773991733789444 0.5696780681610107
0.4169427454471588 0.15605571866035461 0.5253325700759888
0.4906235635280609 0.15627062320709229 0.5363906621932983
0.48296254873275757 0.282122939825058 0.5730136632919312
0.4707667827606201 0.24894292652606964 0.5828790068626404
0.5221433043479919 0.30689483880996704 0.5462368130683899
0.46746307611465454 0.27181944251060486 0.46973690390586853
0.5519000887870789 0.259589284658432 0.43942099809646606
0.4756080210208893 0.29657357931137085 0.4922356605529785
0.45545142889022827 0.16808578372001648 0.4507320821285248
0.5052769780158997 0.136746346950531 0.480438768863678
0.3662082254886627 0.22968870401382446 0.4507606029510498
0.4535757899284363 0.17711663246154785 0.46343761682510376
0.5549907088279724 0.24542182683944702 0.44779452681541443
0.49937108159065247 0.21811430156230927 0.6039457321166992
0.48016074299812317 0.1759846806526184 0.5792862176895142
0.35962173342704773 0.2432796061038971 0.5074548125267029
0.36141905188560486 0.22622394561767578 0.4038865864276886
0.39336058497428894 0.2156498283147812 0.5104941725730896
0.3871234655380249 0.21112555265426636 0.4734240770339966
0.5195416808128357 0.2539218068122864 0.47732824087142944
0.465523898601532 0.13208000361919403 0.43592002987861633
0.5115681290626526 0.1897922158241272 0.4117925763130188
0.44922569394111633 0.20934584736824036 0.4987552762031555
0.38667598366737366 0.17033247649669647 0.5888641476631165
0.3979785740375519 0.21483995020389557 0.4137299060821533
0.48489055037498474 0.17059119045734406 0.4537799060344696
0.4312630593776703 0.2792437672615051 0.41356608271598816
0.4258708953857422 0.25951895117759705 0.5018356442451477
0.4511995017528534 0.13693779706954956 0.5036038756370544
0.40142494440078735 0.21660158038139343 0.527001678943634
0.4362364411354065 0.25099650025367737 0.5539305806159973
0.39547067880630493 0.21402208507061005 0.5385333895683289
0.5184428691864014 0.28166741132736206 0.5818604826927185
0.42216062545776367 0.2867838442325592 0.5267588496208191
0.4426419734954834 0.34176039695739746 0.43377894163131714
0.4539051949977875 0.3661908507347107 0.5128611326217651
0.38667598366737366 0.17033247649669647 0.5888641476631165
0.3979785740375519 0.21483995020389557 0.4137299060821533
0.5031738877296448 0.16558705270290375 0.469047486782074
0.3979785740375519 0.21483995020389557 0.4137299060821533
0.48489055037498474 0.17059119045734406 0.4537799060344696
0.4312630593776703 0.2792437672615051 0.41356608271598816
0.5592334866523743 0.25754791498184204 0.5355380177497864
0.442195326089859 0.13777509331703186 0.45008543133735657
0.4437481164932251 0.33529335260391235 0.5020947456359863
0.46516960859298706 0.23331260681152344 0.4569317698478699
0.42594096064567566 0.2579432725906372 0.5094714164733887
0.46280741691589355 0.29117223620414734 0.5139169096946716
0.5077320337295532 0.2922864258289337 0.6162781715393066
0.43721485137939453 0.20934709906578064 0.45109838247299194
0.45186418294906616 0.28293299674987793 0.45508885383605957
0.510983407497406 0.24053971469402313 0.4275800585746765
0.5115512609481812 0.25306436419487 0.6064078211784363
0.4364137351512909 0.27643460035324097 0.448255717754364
0.5292302370071411 0.2950359582901001 0.41850927472114563
0.4009014368057251 0.2938212752342224 0.4905417561531067
0.44698527455329895 0.3549923002719879 0.5721322894096375
0.48331621289253235 0.12265919893980026 0.46723437309265137
0.4023902118206024 0.21963341534137726 0.4945119321346283
0.5453658103942871 0.2244098037481308 0.553126871585846
0.533549427986145 0.1588338315486908 0.5528664588928223
0.366561621427536 0.2587585747241974 0.4992530047893524
0.3614722788333893 0.1813126653432846 0.594257652759552
0.5075848698616028 0.15384593605995178 0.536663830280304
0.5053645372390747 0.2374676764011383 0.5285402536392212
0.3657829761505127 0.23520232737064362 0.47923046350479126
0.49359291791915894 0.2436947077512741 0.5366429686546326
0.44985631108283997 0.22349943220615387 0.559244692325592
0.4829535186290741 0.22437766194343567 0.4170982837677002
0.47266682982444763 0.3611241281032562 0.45496779680252075
0.47865399718284607 0.3431640863418579 0.5386086106300354
0.47865399718284607 0.3431640863418579 0.5386086106300354
0.4390523433685303 0.2846386730670929 0.5476569533348083
0.4863952398300171 0.33705270290374756 0.4676381051540375
0.3440098166465759 0.20041663944721222 0.5624330639839172
0.5006037354469299 0.25172314047813416 0.4924977719783783
0.38597372174263 0.23574891686439514 0.460495263338089
0.5125156044960022 0.126381516456604 0.5021644234657288
0.5125156044960022 0.126381516456604 0.5021644234657288
0.4438320994377136 0.16356271505355835 0.5503455400466919
0.4832417666912079 0.13840985298156738 0.5275629162788391
0.39924299716949463 0.2047818899154663 0.4537687301635742
0.5654423832893372 0.2233678698539734 0.5076039433479309
0.533787727355957 0.17587436735630035 0.530629575252533
0.5132749080657959 0.21270380914211273 0.5236915349960327
0.5413920283317566 0.22112245857715607 0.5505609512329102
0.5172089338302612 0.24826368689537048 0.5120724439620972
0.5413920283317566 0.22112245857715607 0.5505609512329102
0.5172089338302612 0.24826368689537048 0.5120724439620972
0.5172089338302612 0.24826368689537048 0.5120724439620972
0.4298839271068573 0.2321505844593048 0.5310350060462952
0.3434901535511017 0.21387723088264465 0.4761047959327698
0.5211973786354065 0.2681717276573181 0.43807920813560486
0.3972298204898834 0.22071920335292816 0.49378180503845215
0.5158287882804871 0.2349204272031784 0.4229260981082916
0.3629237115383148 0.1863616704940796 0.5195887088775635
0.4861178994178772 0.2612278163433075 0.5744932889938354
0.44524484872817993 0.15119677782058716 0.40512815117836
0.44524484872817993 0.15119677782058716 0.40512815117836
0.4346467852592468 0.21828706562519073 0.43302109837532043
0.5055414438247681 0.2134956568479538 0.5920954942703247
0.4651934504508972 0.3402087688446045 0.5248439311981201
0.5164886116981506 0.26747971773147583 0.5472773313522339
0.5314857959747314 0.24859660863876343 0.5074047446250916
0.4471287429332733 0.1983490288257599 0.48831725120544434
0.5055397748947144 0.1739043891429901 0.4926253855228424
0.3995280861854553 0.20716573297977448 0.5553991794586182
0.3653813600540161 0.21747338771820068 0.42648208141326904
0.4156355857849121 0.15923961997032166 0.5667658448219299
0.4320390224456787 0.18790557980537415 0.5821948051452637
0.44106248021125793 0.2937443256378174 0.46839001774787903
0.5318260788917542 0.2916850447654724 0.49331462383270264
0.3593463599681854 0.21836905181407928 0.4032559394836426
0.447131872177124 0.23818258941173553 0.43910709023475647
0.39592862129211426 0.24574895203113556 0.5838887691497803
0.47749027609825134 0.31787434220314026 0.6167240738868713
0.5330988168716431 0.16265566647052765 0.46308207511901855
0.49273598194122314 0.1395171582698822 0.5344661474227905
0.4576215445995331 0.29657578468322754 0.6010722517967224
0.553490400314331 0.21557213366031647 0.4942325949668884
0.5295138955116272 0.1550285369157791 0.5282294750213623
0.5075848698616028 0.15384593605995178 0.536663830280304
0.5053645372390747 0.2374676764011383 0.5285402536392212
0.5130363702774048 0.2125019133090973 0.4940885007381439
0.5040451884269714 0.24447423219680786 0.5897945165634155
0.41116657853126526 0.16664016246795654 0.49301251769065857
0.4330437183380127 0.3126808702945709 0.49652886390686035
0.38597372174263 0.23574891686439514 0.460495263338089
0.5125156044960022 0.126381516456604 0.5021644234657288
0.4438320994377136 0.16356271505355835 0.5503455400466919
0.4832417666912079 0.13840985298156738 0.5275629162788391
0.39924299716949463 0.2047818899154663 0.4537687301635742
0.5654423832893372 0.2233678698539734 0.5076039433479309
0.533787727355957 0.17587436735630035 0.530629575252533
0.5132749080657959 0.21270380914211273 0.5236915349960327
0.5413920283317566 0.22112245857715607 0.5505609512329102
0.5172089338302612 0.24826368689537048 0.5120724439620972
0.4298839271068573 0.2321505844593048 0.5310350060462952
0.3434901535511017 0.21387723088264465 0.4761047959327698
0.5211973786354065 0.2681717276573181 0.43807920813560486
0.3972298204898834 0.22071920335292816 0.49378180503845215
0.37485694885253906 0.20421092212200165 0.508155107498169
0.4933355748653412 0.12434212863445282 0.4817119836807251
0.40723562240600586 0.1725812405347824 0.5878084301948547
0.4521535336971283 0.207339346408844 0.47094473242759705
0.5119826197624207 0.17644266784191132 0.592708170413971
0.5169740319252014 0.19481121003627777 0.5458128452301025
0.3551902770996094 0.23430505394935608 0.4605359733104706
0.3907814025878906 0.2575181722640991 0.5434674620628357
0.42038843035697937 0.2978917956352234 0.41621074080467224
0.4617685079574585 0.1410333216190338 0.5895149111747742
0.41327542066574097 0.25181055068969727 0.49566182494163513
0.45481961965560913 0.3310115337371826 0.5935677886009216
0.5124339461326599 0.235864520072937 0.5578566789627075
0.3682974576950073 0.17900648713111877 0.5673054456710815
0.4974437355995178 0.26887890696525574 0.5655437707901001
0.42762041091918945 0.16065895557403564 0.4319821000099182
0.40496551990509033 0.19897030293941498 0.5496451258659363
0.4958614706993103 0.20373888313770294 0.48372092843055725
0.4895469546318054 0.22002211213111877 0.511751651763916
0.34309056401252747 0.2093239426612854 0.5602117776870728
0.4701504111289978 0.17253558337688446 0.45889294147491455
0.4060629904270172 0.2347048670053482 0.41499030590057373
0.3629237115383148 0.1863616704940796 0.5195887088775635
0.4861178994178772 0.2612278163433075 0.5744932889938354
0.44524484872817993 0.15119677782058716 0.40512815117836
0.4450545012950897 0.15113703906536102 0.4052387475967407
0.5065403580665588 0.31111082434654236 0.4472039043903351
0.4751184582710266 0.29510724544525146 0.5149993300437927
0.5055414438247681 0.2134956568479538 0.5920954942703247
0.46410277485847473 0.33088281750679016 0.6035898923873901
0.4769846498966217 0.2744187116622925 0.46564462780952454
0.37485694885253906 0.20421092212200165 0.508155107498169
0.4933355748653412 0.12434212863445282 0.4817119836807251
0.40723562240600586 0.1725812405347824 0.5878084301948547
0.4521535336971283 0.207339346408844 0.47094473242759705
0.5119826197624207 0.17644266784191132 0.592708170413971
0.5169740319252014 0.19481121003627777 0.5458128452301025
0.3551902770996094 0.23430505394935608 0.4605359733104706
0.3981437385082245 0.18168067932128906 0.43613722920417786
0.3562779128551483 0.22050592303276062 0.4487821161746979
0.3997151255607605 0.22277018427848816 0.5122336149215698
0.43709003925323486 0.3437018394470215 0.5231631398200989
0.505382239818573 0.16243667900562286 0.45758113265037537
0.46480196714401245 0.15274088084697723 0.4113439917564392
0.45830363035202026 0.2892719805240631 0.561913788318634
0.5255803465843201 0.13767312467098236 0.5646619200706482
0.494672030210495 0.13648873567581177 0.5892214775085449
0.4615769684314728 0.2249988168478012 0.5999383330345154
0.4191284775733948 0.1971762776374817 0.550707221031189
0.3776664435863495 0.24921078979969025 0.5221412777900696
0.4617685079574585 0.1410333216190338 0.5895149111747742
0.41327542066574097 0.25181055068969727 0.49566182494163513
0.45481961965560913 0.3310115337371826 0.5935677886009216
0.5124339461326599 0.235864520072937 0.5578566789627075
0.3682974576950073 0.17900648713111877 0.5673054456710815
0.4974437355995178 0.26887890696525574 0.5655437707901001
0.42762041091918945 0.16065895557403564 0.4319821000099182
0.40496551990509033 0.19897030293941498 0.5496451258659363
0.44634947180747986 0.17102830111980438 0.4870208203792572
0.5472295880317688 0.27163010835647583 0.47620418667793274
0.397550493478775 0.25655660033226013 0.6010525226593018
0.5160958766937256 0.14209623634815216 0.46517133712768555
0.5318710803985596 0.23559091985225677 0.4976610243320465
0.38998943567276 0.18378286063671112 0.47645434737205505
0.39462658762931824 0.2641366124153137 0.5953834652900696
0.48680248856544495 0.214936763048172 0.5058004856109619
0.45537200570106506 0.21307183802127838 0.5411248207092285
0.4322739541530609 0.254589319229126 0.5414633750915527
0.4502664804458618 0.21093426644802094 0.5137778520584106
0.45435377955436707 0.1613062024116516 0.5709827542304993
0.5039548277854919 0.26533982157707214 0.4169030487537384
0.5498294830322266 0.21778738498687744 0.6011844277381897
0.5051963329315186 0.22035735845565796 0.5828882455825806
0.4472920894622803 0.1434929370880127 0.4609205424785614
0.5308224558830261 0.262654572725296 0.5826312303543091
0.456352174282074 0.2990121841430664 0.5062762498855591
0.4535658061504364 0.3142072558403015 0.45027709007263184
0.5191119909286499 0.31250059604644775 0.46903732419013977
0.4539051949977875 0.3661908507347107 0.5128611326217651
0.5409930348396301 0.26032766699790955 0.5028928518295288
0.5035166144371033 0.13248707354068756 0.5409721732139587
0.4701504111289978 0.17253558337688446 0.45889294147491455
0.5168008208274841 0.24829383194446564 0.45946642756462097
0.38920119404792786 0.19917947053909302 0.5330244302749634
0.4508991241455078 0.1726495325565338 0.40736910700798035
0.49389010667800903 0.22977590560913086 0.485810250043869
0.49847665429115295 0.20133383572101593 0.4551661014556885
0.4967649579048157 0.27566009759902954 0.578724205493927
0.44609570503234863 0.13716886937618256 0.436025470495224
0.3474609851837158 0.21184971928596497 0.6013796329498291
0.3662298023700714 0.19375869631767273 0.5252725481987
0.4770023822784424 0.13225200772285461 0.5638048648834229
0.5123505592346191 0.31279289722442627 0.5031994581222534
0.52740478515625 0.2667207419872284 0.5241032242774963
0.3901625871658325 0.16139629483222961 0.5465793609619141
0.5209909677505493 0.17768457531929016 0.4643669128417969
0.47875499725341797 0.11051354557275772 0.49892815947532654
0.4706525504589081 0.18462702631950378 0.4736239016056061
0.5498294830322266 0.21778738498687744 0.6011844277381897
0.5051963329315186 0.22035735845565796 0.5828882455825806
0.4472920894622803 0.1434929370880127 0.4609205424785614
0.5308224558830261 0.262654572725296 0.5826312303543091
0.456352174282074 0.2990121841430664 0.5062762498855591
0.4535658061504364 0.3142072558403015 0.45027709007263184
0.5191119909286499 0.31250059604644775 0.46903732419013977
0.4539051949977875 0.3661908507347107 0.5128611326217651
0.5409930348396301 0.26032766699790955 0.5028928518295288
0.5035166144371033 0.13248707354068756 0.5409721732139587
0.3950713574886322 0.20681284368038177 0.5366552472114563
0.41823452711105347 0.20178966224193573 0.4474605321884155
0.47445574402809143 0.24304547905921936 0.4246724247932434
0.4247206747531891 0.28511977195739746 0.4403548240661621
0.41827458143234253 0.2247980833053589 0.4468173086643219
0.5314857959747314 0.24859660863876343 0.5074047446250916
0.5413920283317566 0.22112245857715607 0.5505609512329102
0.5172089338302612 0.24826368689537048 0.5120724439620972
0.4298839271068573 0.2321505844593048 0.5310350060462952
0.3434901535511017 0.21387723088264465 0.4761047959327698
0.5211973786354065 0.2681717276573181 0.43807920813560486
0.3972298204898834 0.22071920335292816 0.49378180503845215
0.37485694885253906 0.20421092212200165 0.508155107498169
0.4933355748653412 0.12434212863445282 0.4817119836807251
0.40723562240600586 0.1725812405347824 0.5878084301948547
0.4178996682167053 0.300800621509552 0.4186464846134186
0.40598273277282715 0.16558878123760223 0.4241466820240021
0.423026978969574 0.3267660439014435 0.453310489654541
0.45955950021743774 0.1961025446653366 0.4376887381076813
0.4917120635509491 0.19541038572788239 0.4861084818840027
0.47741395235061646 0.2988935708999634 0.5859589576721191
0.4301747977733612 0.1508483588695526 0.5371479988098145
0.45360228419303894 0.3617514669895172 0.5032258629798889
0.42048174142837524 0.24691671133041382 0.605030357837677
0.4583611488342285 0.2359021008014679 0.5863515734672546
0.37255844473838806 0.16873249411582947 0.5949549674987793
0.4381902813911438 0.26973187923431396 0.49451011419296265
0.5283234119415283 0.2488739788532257 0.5805298686027527
0.5550113916397095 0.24552153050899506 0.5648922920227051
0.5177357196807861 0.24761363863945007 0.48507604002952576
0.420037180185318 0.13981442153453827 0.4927747845649719
0.46665307879447937 0.2846857011318207 0.5949053168296814
0.5187276005744934 0.308201402425766 0.5440757274627686
0.5047566294670105 0.14415398240089417 0.50068598985672
0.4855395555496216 0.31346040964126587 0.5732922554016113
0.4719467759132385 0.22258399426937103 0.5987687110900879
0.41823452711105347 0.20178966224193573 0.4474605321884155
0.47266682982444763 0.3611241281032562 0.45496779680252075
0.5292302370071411 0.2950359582901001 0.41850927472114563
0.4009014368057251 0.2938212752342224 0.4905417561531067
0.44698527455329895 0.3549923002719879 0.5721322894096375
0.45950308442115784 0.1278270184993744 0.5207710266113281
0.3507702350616455 0.18789228796958923 0.5791071057319641
0.40574827790260315 0.14409239590168 0.5600904822349548
0.5085133910179138 0.23454473912715912 0.5322657823562622
0.5453658103942871 0.2244098037481308 0.553126871585846
0.533549427986145 0.1588338315486908 0.5528664588928223
0.366561621427536 0.2587585747241974 0.4992530047893524
0.5523127317428589 0.18887807428836823 0.6044372320175171
0.4998772442340851 0.23432111740112305 0.5112560391426086
0.4140249192714691 0.21815940737724304 0.585746169090271
0.5516124367713928 0.2601298987865448 0.5087485313415527
0.5367215275764465 0.19925880432128906 0.5189210772514343
0.39719143509864807 0.24966533482074738 0.592485249042511
0.396496444940567 0.25979354977607727 0.5476101040840149
0.4045773148536682 0.17076322436332703 0.5954107642173767
0.5145114064216614 0.28825581073760986 0.4170556962490082
0.39245378971099854 0.2543773651123047 0.5725809931755066
0.44684281945228577 0.12464018166065216 0.4760759770870209
0.5324714183807373 0.22612401843070984 0.542458713054657
0.40916696190834045 0.16259850561618805 0.5427595973014832
0.37917080521583557 0.20357033610343933 0.5424599051475525
0.42437878251075745 0.22017435729503632 0.4430350065231323
0.49433213472366333 0.13486860692501068 0.3965921401977539
0.5427118539810181 0.2506961524486542 0.47596511244773865
0.4755867123603821 0.20058123767375946 0.4486030042171478
0.3804791569709778 0.19630159437656403 0.4527019262313843
0.39877429604530334 0.2989179790019989 0.4472804367542267
0.4671272933483124 0.34807541966438293 0.4759942293167114
0.40723562240600586 0.1725812405347824 0.5878084301948547
0.442195326089859 0.13777509331703186 0.45008543133735657
0.4437481164932251 0.33529335260391235 0.5020947456359863
0.46516960859298706 0.23331260681152344 0.4569317698478699
0.42594096064567566 0.2579432725906372 0.5094714164733887
0.46280741691589355 0.29117223620414734 0.5139169096946716
0.5077320337295532 0.2922864258289337 0.6162781715393066
0.43721485137939453 0.20934709906578064 0.45109838247299194
0.5115512609481812 0.25306436419487 0.6064078211784363
0.4364137351512909 0.27643460035324097 0.448255717754364
0.5292302370071411 0.2950359582901001 0.41850927472114563
0.4009014368057251 0.2938212752342224 0.4905417561531067
0.44698527455329895 0.3549923002719879 0.5721322894096375
0.45950308442115784 0.1278270184993744 0.5207710266113281
0.3507702350616455 0.18789228796958923 0.5791071057319641
0.40574827790260315 0.14409239590168 0.5600904822349548
0.5085133910179138 0.23454473912715912 0.5322657823562622
0.5453658103942871 0.2244098037481308 0.553126871585846
0.533549427986145 0.1588338315486908 0.5528664588928223
0.366561621427536 0.2587585747241974 0.4992530047893524
0.5523127317428589 0.18887807428836823 0.6044372320175171
0.4998772442340851 0.23432111740112305 0.5112560391426086
0.4140249192714691 0.21815940737724304 0.585746169090271
0.5516124367713928 0.2601298987865448 0.5087485313415527
0.5381773114204407 0.2670839726924896 0.5738202333450317
0.5538564324378967 0.2626858353614807 0.49997809529304504
0.40232160687446594 0.3174549341201782 0.44340530037879944
0.5154279470443726 0.2932365834712982 0.5245751142501831
0.4789957106113434 0.25844115018844604 0.4564575254917145
0.4819985330104828 0.272295206785202 0.5786607265472412
0.49374955892562866 0.11508050560951233 0.5517758131027222
0.5200269222259521 0.2010369747877121 0.42511647939682007
0.4892512261867523 0.2668561339378357 0.481790691614151
0.4291066527366638 0.2291998714208603 0.5899971127510071
0.35627490282058716 0.19926315546035767 0.4534434974193573
0.4944848418235779 0.25710567831993103 0.6076359152793884
0.5538564324378967 0.2626858353614807 0.49997809529304504
0.40232160687446594 0.3174549341201782 0.44340530037879944
0.5154279470443726 0.2932365834712982 0.5245751142501831
0.4789957106113434 0.25844115018844604 0.4564575254917145
0.4819985330104828 0.272295206785202 0.5786607265472412
0.49374955892562866 0.11508050560951233 0.5517758131027222
0.5200269222259521 0.2010369747877121 0.42511647939682007
0.48842257261276245 0.24738365411758423 0.44002199172973633
0.4543520212173462 0.1518130749464035 0.5966742038726807
0.5358049869537354 0.15682955086231232 0.5601155757904053
0.47267773747444153 0.31056851148605347 0.4629935622215271
0.49354711174964905 0.18525665998458862 0.5017513036727905
0.43633243441581726 0.31685638427734375 0.47059351205825806
0.46416765451431274 0.28880298137664795 0.436586856842041
0.46289142966270447 0.19590440392494202 0.5533351898193359
0.4057500660419464 0.16895535588264465 0.4843592345714569
0.4233030378818512 0.3047654628753662 0.5121907591819763
0.37600383162498474 0.188961923122406 0.566917896270752
0.5357913970947266 0.261508047580719 0.5876106023788452
0.4700201153755188 0.15821151435375214 0.5903275012969971
0.5351230502128601 0.2350737601518631 0.47436192631721497
0.4486671984195709 0.16973991692066193 0.5238224864006042
0.46665406227111816 0.18351887166500092 0.5297160744667053
0.5013285279273987 0.14513333141803741 0.445526659488678
0.47387614846229553 0.19291570782661438 0.4672747552394867
0.4727761149406433 0.19417740404605865 0.5307784676551819
0.37067803740501404 0.22516335546970367 0.49645406007766724
0.4459651708602905 0.3564908504486084 0.47835734486579895
0.5004361867904663 0.3144610822200775 0.5377469062805176
0.40574827790260315 0.14409239590168 0.5600904822349548
0.5085133910179138 0.23454473912715912 0.5322657823562622
0.5453658103942871 0.2244098037481308 0.553126871585846
0.533549427986145 0.1588338315486908 0.5528664588928223
0.5417935252189636 0.2748470902442932 0.5710247159004211
0.4343041181564331 0.156332865357399 0.5121769905090332
0.37406226992607117 0.2547024190425873 0.4328828752040863
0.4652051031589508 0.3203582465648651 0.6154263019561768
0.48636218905448914 0.1334368735551834 0.40342453122138977
0.3581013083457947 0.18784625828266144 0.5401570796966553
0.43424904346466064 0.20088835060596466 0.488535076379776
0.5019128322601318 0.2961679697036743 0.4358743727207184
0.534433126449585 0.20227207243442535 0.46319952607154846
0.4556450843811035 0.2696087658405304 0.4566926956176758
0.4946035146713257 0.11799459159374237 0.45579075813293457
0.42560428380966187 0.17040683329105377 0.45799556374549866
0.5010825991630554 0.18667908012866974 0.430568128824234
0.42437878251075745 0.22017435729503632 0.4430350065231323
0.49433213472366333 0.13486860692501068 0.3965921401977539
0.5427118539810181 0.2506961524486542 0.47596511244773865
0.4755867123603821 0.20058123767375946 0.4486030042171478
0.3804791569709778 0.19630159437656403 0.4527019262313843
0.39877429604530334 0.2989179790019989 0.4472804367542267
0.4671272933483124 0.34807541966438293 0.4759942293167114
0.4852016270160675 0.1641971468925476 0.46569931507110596
0.4057500660419464 0.16895535588264465 0.4843592345714569
0.4233030378818512 0.3047654628753662 0.5121907591819763
0.37600383162498474 0.188961923122406 0.566917896270752
0.5230545401573181 0.19264158606529236 0.5457484722137451
0.42791905999183655 0.15949822962284088 0.5520577430725098
0.4957852363586426 0.2206602543592453 0.4928673803806305
0.5549907088279724 0.24542182683944702 0.44779452681541443
0.4519087076187134 0.18979664146900177 0.45885294675827026
0.36770135164260864 0.24956709146499634 0.43233516812324524
0.5067207217216492 0.1829519122838974 0.5908819437026978
0.4049956798553467 0.17182740569114685 0.5753859281539917
0.5691393613815308 0.22431981563568115 0.5330519676208496
0.3593881130218506 0.2380732148885727 0.4291324317455292
0.4894232153892517 0.20309585332870483 0.5109513401985168
0.412335604429245 0.21217845380306244 0.5365406274795532
0.47432592511177063 0.19844375550746918 0.5408989191055298
0.5215561389923096 0.3104803264141083 0.4713824689388275
0.5478910803794861 0.24310429394245148 0.4607084095478058
0.49689531326293945 0.26330408453941345 0.4217960834503174
0.42999568581581116 0.15553751587867737 0.47640472650527954
0.3749210238456726 0.23258769512176514 0.5695351362228394
0.544106662273407 0.26897943019866943 0.4264860451221466
0.5039480924606323 0.1821916252374649 0.5278306603431702
0.35913023352622986 0.22528676688671112 0.4015292525291443
0.5591378808021545 0.20600998401641846 0.4533790946006775
0.45402732491493225 0.20192088186740875 0.5352654457092285
0.5578173995018005 0.19991469383239746 0.4401998519897461
0.4498920440673828 0.19365966320037842 0.5343844294548035
0.4034757614135742 0.24376240372657776 0.5665859580039978
0.5071675181388855 0.33194971084594727 0.46394529938697815
0.4364297688007355 0.26235488057136536 0.6067520380020142
0.49157097935676575 0.21708688139915466 0.5383742451667786
0.43678736686706543 0.31370681524276733 0.4581654667854309
0.5123505592346191 0.3064570724964142 0.4864582419395447
0.4022858440876007 0.19926902651786804 0.5081238746643066
0.5510291457176208 0.22383524477481842 0.6177919507026672
0.5134934186935425 0.2369501292705536 0.5296428203582764
0.3683798015117645 0.19221746921539307 0.44439497590065
0.41823452711105347 0.20178966224193573 0.4474605321884155
0.48842257261276245 0.24738365411758423 0.44002199172973633
0.4543520212173462 0.1518130749464035 0.5966742038726807
0.5358049869537354 0.15682955086231232 0.5601155757904053
0.40935346484184265 0.13526156544685364 0.586077094078064
0.42021623253822327 0.30195504426956177 0.5530108213424683
0.4307122826576233 0.27892005443573 0.42795997858047485
0.4531049430370331 0.3077488839626312 0.5630565285682678
0.46118825674057007 0.23224808275699615 0.436545729637146
0.4518885016441345 0.13053080439567566 0.5218875408172607
0.4538944661617279 0.18811148405075073 0.5156503319740295
0.4057500660419464 0.16895535588264465 0.4843592345714569
0.4233030378818512 0.3047654628753662 0.5121907591819763
0.37600383162498474 0.188961923122406 0.566917896270752
0.5230545401573181 0.19264158606529236 0.5457484722137451
0.42791905999183655 0.15949822962284088 0.5520577430725098
0.4957852363586426 0.2206602543592453 0.4928673803806305
0.4728618860244751 0.18587307631969452 0.5365700721740723
0.4675290286540985 0.24379202723503113 0.5999352931976318
0.36302289366722107 0.2367960512638092 0.49035587906837463
0.48246264457702637 0.33428773283958435 0.49200788140296936
0.37067803740501404 0.22516335546970367 0.49645406007766724
0.4459651708602905 0.3564908504486084 0.47835734486579895
0.4757452607154846 0.32451000809669495 0.4733913540840149
0.41112253069877625 0.22917811572551727 0.5344173312187195
0.5038651823997498 0.15756845474243164 0.5215184092521667
0.4264606535434723 0.2544315457344055 0.48711439967155457
0.481315940618515 0.3222842216491699 0.5335636734962463
0.49064338207244873 0.23536530137062073 0.46832847595214844
0.42915260791778564 0.19031326472759247 0.4732784628868103
0.4835885763168335 0.18788973987102509 0.5363322496414185
0.5006232857704163 0.1982106864452362 0.41925039887428284
0.47445574402809143 0.24304547905921936 0.4246724247932434
0.5478910803794861 0.24310429394245148 0.4607084095478058
0.49689531326293945 0.26330408453941345 0.4217960834503174
0.42999568581581116 0.15553751587867737 0.47640472650527954
0.3749210238456726 0.23258769512176514 0.5695351362228394
0.544106662273407 0.26897943019866943 0.4264860451221466
0.5039480924606323 0.1821916252374649 0.5278306603431702
0.35913023352622986 0.22528676688671112 0.4015292525291443
0.5591378808021545 0.20600998401641846 0.4533790946006775
0.45402732491493225 0.20192088186740875 0.5352654457092285
0.5578173995018005 0.19991469383239746 0.4401998519897461
0.4498920440673828 0.19365966320037842 0.5343844294548035
0.4034757614135742 0.24376240372657776 0.5665859580039978
0.4034757614135742 0.24376240372657776 0.5665859580039978
0.5071675181388855 0.33194971084594727 0.46394529938697815
0.4364297688007355 0.26235488057136536 0.6067520380020142
0.49157097935676575 0.21708688139915466 0.5383742451667786
0.43678736686706543 0.31370681524276733 0.4581654667854309
0.43678736686706543 0.31370681524276733 0.4581654667854309
0.5123505592346191 0.3064570724964142 0.4864582419395447
0.4022858440876007 0.19926902651786804 0.5081238746643066
0.5510291457176208 0.22383524477481842 0.6177919507026672
0.5134934186935425 0.2369501292705536 0.5296428203582764
0.3683798015117645 0.19221746921539307 0.44439497590065
0.45621389150619507 0.1437206268310547 0.5253050327301025
0.43199723958969116 0.3178018629550934 0.5013447403907776
0.4122906029224396 0.16259384155273438 0.5076116323471069
0.5085469484329224 0.2608688771724701 0.43664178252220154
0.41625040769577026 0.1782541275024414 0.443987637758255
0.4533390998840332 0.29944926500320435 0.596686840057373
0.4684014916419983 0.299044132232666 0.46806424856185913
0.4925202429294586 0.22373877465724945 0.48884570598602295
0.43682098388671875 0.2706027925014496 0.582922637462616
0.47267773747444153 0.31056851148605347 0.4629935622215271
0.49354711174964905 0.18525665998458862 0.5017513036727905
0.4822123646736145 0.19797194004058838 0.4808470904827118
0.40368229150772095 0.28953590989112854 0.4594669044017792
0.5067381858825684 0.2669106721878052 0.5449959635734558
0.4114125370979309 0.30377134680747986 0.49575886130332947
0.33117955923080444 0.19998113811016083 0.5625901818275452
0.447329580783844 0.2475215494632721 0.5850751996040344
0.4941543638706207 0.3282608687877655 0.5107415914535522
0.46525681018829346 0.11466414481401443 0.5833387970924377
0.3429732322692871 0.22436174750328064 0.5049257874488831
0.4733657240867615 0.1641436070203781 0.5353901386260986
0.5471847057342529 0.23915232717990875 0.5649511218070984
0.490776389837265 0.15605410933494568 0.5752847790718079
0.3916327953338623 0.1732618659734726 0.59173583984375
0.37152278423309326 0.18881922960281372 0.5045899152755737
0.5077801942825317 0.29594701528549194 0.5452395081520081
0.5124791860580444 0.24524690210819244 0.5130805969238281
0.5108129978179932 0.1490493267774582 0.5877273082733154
0.411502867937088 0.2356232851743698 0.5716099739074707
0.4776286780834198 0.35811612010002136 0.4318827986717224
0.44205206632614136 0.24707674980163574 0.5730648040771484
0.4066305160522461 0.29323118925094604 0.5929718613624573
0.5417813062667847 0.1701505333185196 0.4922920763492584
0.42930126190185547 0.3434782326221466 0.45901551842689514
0.48826906085014343 0.13031424582004547 0.5855954885482788
0.478675901889801 0.1939770132303238 0.41905587911605835
0.4962989389896393 0.28413286805152893 0.5188572406768799
0.5181605815887451 0.25382235646247864 0.4633253514766693
0.46077409386634827 0.307120144367218 0.5849721431732178
0.5178017020225525 0.19010064005851746 0.5356295108795166
0.5077320337295532 0.2922864258289337 0.6162781715393066
0.48424288630485535 0.28830504417419434 0.5395573973655701
0.47455868124961853 0.3159430921077728 0.571514368057251
0.49212726950645447 0.2541867792606354 0.5784747004508972
0.5315592885017395 0.24757854640483856 0.551663339138031
0.4762192964553833 0.34502652287483215 0.49983909726142883
0.5551825165748596 0.25560304522514343 0.4715762138366699
0.381456583738327 0.2536470890045166 0.479801207780838
0.5305923819541931 0.2802050709724426 0.4969331920146942
0.4647742509841919 0.11321285367012024 0.5785913467407227
0.43982529640197754 0.12042675167322159 0.5673139095306396
0.42911645770072937 0.1479727029800415 0.40055394172668457
0.4850122630596161 0.24486283957958221 0.43235892057418823
0.36889657378196716 0.19929549098014832 0.41873273253440857
0.5177198648452759 0.15701280534267426 0.5155428051948547
0.429308146238327 0.21959345042705536 0.5666597485542297
0.51558518409729 0.2379772961139679 0.5077085494995117
0.5130713582038879 0.3124602138996124 0.53102707862854
0.379178524017334 0.25169873237609863 0.4921531081199646
0.43925678730010986 0.2774081528186798 0.5766047835350037
0.4609065055847168 0.22314278781414032 0.6025707125663757
0.49298399686813354 0.3182230293750763 0.429960161447525
0.47801756858825684 0.29683345556259155 0.5024983882904053
0.5035188794136047 0.13821569085121155 0.5061766505241394
0.45945048332214355 0.22387723624706268 0.607524573802948
0.46417364478111267 0.3290453851222992 0.4296824336051941
0.48429661989212036 0.27928057312965393 0.5495384931564331
0.4254026412963867 0.12496896088123322 0.5748305916786194
0.3978869915008545 0.27207088470458984 0.4944052994251251
0.5222195982933044 0.30012086033821106 0.5911158323287964
0.5179636478424072 0.24619723856449127 0.4340529143810272
0.5233783721923828 0.14414696395397186 0.5638400316238403
0.43721485137939453 0.20934709906578064 0.45109838247299194
0.4369444251060486 0.2042187601327896 0.49390891194343567
0.5537575483322144 0.24987481534481049 0.4199684262275696
0.5652399659156799 0.22314977645874023 0.5827592611312866
0.4891655743122101 0.33771225810050964 0.45613762736320496
0.4118877053260803 0.2932211458683014 0.5788024067878723
0.5249091386795044 0.27944591641426086 0.5747795701026917
0.4186916649341583 0.16427025198936462 0.39828571677207947
0.36126217246055603 0.2169482707977295 0.4784085154533386
0.4730692207813263 0.12655307352542877 0.5739686489105225
0.3911389112472534 0.240147203207016 0.41400569677352905
0.5057142972946167 0.24493926763534546 0.6127678751945496
0.37071236968040466 0.19487351179122925 0.49599987268447876
0.49560272693634033 0.11215304583311081 0.5852676630020142
0.4868287444114685 0.22256770730018616 0.6032716035842896
0.405541330575943 0.23547036945819855 0.4431798458099365
0.4964827001094818 0.21125350892543793 0.5403707027435303
0.4723092317581177 0.19240577518939972 0.4098752439022064
0.4519087076187134 0.18979664146900177 0.45885294675827026
0.36770135164260864 0.24956709146499634 0.43233516812324524
0.5067207217216492 0.1829519122838974 0.5908819437026978
0.4049956798553467 0.17182740569114685 0.5753859281539917
0.5691393613815308 0.22431981563568115 0.5330519676208496
0.3593881130218506 0.2380732148885727 0.4291324317455292
0.4894232153892517 0.20309585332870483 0.5109513401985168
0.412335604429245 0.21217845380306244 0.5365406274795532
0.47432592511177063 0.19844375550746918 0.5408989191055298
0.5215561389923096 0.3104803264141083 0.4713824689388275
0.5478910803794861 0.24310429394245148 0.4607084095478058
0.49689531326293945 0.26330408453941345 0.4217960834503174
0.42999568581581116 0.15553751587867737 0.47640472650527954
0.3749210238456726 0.23258769512176514 0.5695351362228394
0.3767921030521393 0.26814618706703186 0.5074304342269897
0.46828874945640564 0.12786394357681274 0.4016682505607605
0.508210301399231 0.2933076024055481 0.4938148260116577
0.3666999936103821 0.23519979417324066 0.49352890253067017
0.4945121705532074 0.32177048921585083 0.4211266040802002
0.36736348271369934 0.22509293258190155 0.5326383709907532
0.3485998809337616 0.19290320575237274 0.5864056348800659
0.493304967880249 0.3438403606414795 0.480927973985672
0.5237097144126892 0.17312940955162048 0.43720996379852295
0.4601343870162964 0.3680901527404785 0.43731626868247986
0.4679950773715973 0.33732810616493225 0.5412854552268982
0.4204254448413849 0.18859981000423431 0.5954956412315369
0.4924543797969818 0.29943224787712097 0.4810011386871338
0.3640262484550476 0.24748168885707855 0.5462749600410461
0.4525024890899658 0.30632534623146057 0.47845062613487244
0.4488265812397003 0.3565047085285187 0.5814634561538696
0.5011892914772034 0.29038920998573303 0.4915046989917755
0.48618263006210327 0.2520683705806732 0.4168480634689331
0.44942834973335266 0.2579694390296936 0.4815438389778137
0.40018850564956665 0.27662619948387146 0.5721231698989868
0.47483524680137634 0.11352235823869705 0.5475655794143677
0.5622915625572205 0.21851356327533722 0.46395549178123474
0.43581047654151917 0.2536475360393524 0.4616803526878357
0.48672690987586975 0.15227724611759186 0.5385433435440063
0.5296233892440796 0.28056663274765015 0.5098861455917358
0.5289192199707031 0.22654594480991364 0.41486361622810364
0.46858730912208557 0.18876637518405914 0.5316054821014404
0.3491522967815399 0.2065625935792923 0.5419686436653137
0.5090529918670654 0.2834508717060089 0.4356832802295685
0.45329558849334717 0.26716384291648865 0.5380653142929077
0.47891688346862793 0.12888680398464203 0.515319287776947
0.4483322203159332 0.170229971408844 0.424190878868103
0.5538564324378967 0.2626858353614807 0.49997809529304504
0.5177198648452759 0.15701280534267426 0.5155428051948547
0.429308146238327 0.21959345042705536 0.5666597485542297
0.51558518409729 0.2379772961139679 0.5077085494995117
0.5130713582038879 0.3124602138996124 0.53102707862854
0.379178524017334 0.25169873237609863 0.4921531081199646
0.43925678730010986 0.2774081528186798 0.5766047835350037
0.4609065055847168 0.22314278781414032 0.6025707125663757
0.3760925233364105 0.2421765774488449 0.5128619074821472
0.4248638451099396 0.28261226415634155 0.5111492276191711
0.4509679973125458 0.3255452811717987 0.44492340087890625
0.4365778863430023 0.14150920510292053 0.47412917017936707
0.43086308240890503 0.33371344208717346 0.5466823577880859
0.448343962430954 0.17915639281272888 0.4418078362941742
0.48268476128578186 0.33311405777931213 0.5069674849510193
0.41546064615249634 0.19497689604759216 0.5496159791946411
0.4490111172199249 0.2738860845565796 0.43973565101623535
0.5013328194618225 0.13353019952774048 0.5237736105918884
0.434755802154541 0.21572214365005493 0.5254368782043457
0.5605675578117371 0.23185504972934723 0.597999095916748
0.43247562646865845 0.19417622685432434 0.489116370677948
0.4567062258720398 0.26359230279922485 0.5814749002456665
0.4434397220611572 0.32100245356559753 0.5454609394073486
0.44958221912384033 0.16956935822963715 0.5731337666511536
0.45908427238464355 0.13169459998607635 0.5741094350814819
0.5441594123840332 0.16942664980888367 0.5947028994560242
0.44581130146980286 0.24086104333400726 0.5983321666717529
0.5438674688339233 0.1788245439529419 0.5689526796340942
0.4766521751880646 0.23181550204753876 0.4991975426673889
0.4913709759712219 0.170076385140419 0.45638227462768555
0.4440281093120575 0.1351325660943985 0.4034143388271332
0.4643625319004059 0.19781823456287384 0.40978947281837463
0.4543520212173462 0.1518130749464035 0.5966742038726807
0.45621389150619507 0.1437206268310547 0.5253050327301025
0.43199723958969116 0.3178018629550934 0.5013447403907776
0.4122906029224396 0.16259384155273438 0.5076116323471069
0.5085469484329224 0.2608688771724701 0.43664178252220154
0.4122906029224396 0.16259384155273438 0.5076116323471069
0.5085469484329224 0.2608688771724701 0.43664178252220154
0.4533390998840332 0.29944926500320435 0.596686840057373
0.4684014916419983 0.299044132232666 0.46806424856185913
0.4925202429294586 0.22373877465724945 0.48884570598602295
0.4858754575252533 0.11642984300851822 0.5881115198135376
0.4260047674179077 0.13838864862918854 0.559741199016571
0.47359782457351685 0.31718388199806213 0.48258888721466064
0.49167510867118835 0.15215525031089783 0.5947484374046326
0.4808083176612854 0.11101072281599045 0.5723018646240234
0.5090529918670654 0.2834508717060089 0.4356832802295685
0.45329558849334717 0.26716384291648865 0.5380653142929077
0.4544478952884674 0.2554509937763214 0.526297926902771
0.4769168198108673 0.13295401632785797 0.5075035691261292
0.4387168288230896 0.14363791048526764 0.5941881537437439
0.5355216264724731 0.1570710986852646 0.5872459411621094
0.3879796862602234 0.21384815871715546 0.6020563244819641
0.3759628236293793 0.23029857873916626 0.4405697286128998
0.5611699223518372 0.1983829140663147 0.5246986150741577
0.48424288630485535 0.28830504417419434 0.5395573973655701
0.5315592885017395 0.24757854640483856 0.551663339138031
0.4762192964553833 0.34502652287483215 0.49983909726142883
0.5551825165748596 0.25560304522514343 0.4715762138366699
