ply
format ascii 1.0
element vertex 826
property float x
property float y
property float z
end_header
0.38553011417388916 0.29070404171943665 0.5821683406829834
0.43896961212158203 0.23631539940834045 0.4273899495601654
0.5683528184890747 0.24881845712661743 0.5501533150672913
0.37248674035072327 0.2604246735572815 0.5360485911369324
0.5466737747192383 0.2794409394264221 0.5385518670082092
0.4855983257293701 0.2686092257499695 0.5949915647506714
0.3521365523338318 0.20516806840896606 0.5173946619033813
0.4641345143318176 0.2882952392101288 0.4765416383743286
0.40978091955184937 0.16283081471920013 0.49558472633361816
0.4720226228237152 0.20599961280822754 0.4368700087070465
0.48234817385673523 0.1299712061882019 0.5369589328765869
0.5047013759613037 0.2986980080604553 0.530032217502594
0.5293270945549011 0.22235704958438873 0.545437216758728
0.48358237743377686 0.14039944112300873 0.4273930788040161
0.4523691236972809 0.34445124864578247 0.48676741123199463
0.4302169680595398 0.23864758014678955 0.5635706782341003
0.4144548773765564 0.1566021591424942 0.4897552728652954
0.4585658311843872 0.292448490858078 0.4579203724861145
0.48142847418785095 0.12940719723701477 0.46547913551330566
0.4927396774291992 0.19267518818378448 0.4224867820739746
0.4958418905735016 0.32438260316848755 0.5586826801300049
0.440034955739975 0.3007819652557373 0.5539342164993286
0.42509153485298157 0.2091551274061203 0.40282782912254333
0.4225445091724396 0.3501785397529602 0.508428156375885
0.4969630241394043 0.20547086000442505 0.58746337890625
0.5347285270690918 0.18601705133914948 0.6006962060928345
0.439342200756073 0.2481960654258728 0.5368912816047668
0.5210805535316467 0.306049108505249 0.5107839703559875
0.5646629333496094 0.24788345396518707 0.5834382772445679
0.5685842633247375 0.2513873279094696 0.5778127908706665
0.3998014032840729 0.19380781054496765 0.4130009710788727
0.5051316022872925 0.20668484270572662 0.5719403624534607
0.47831836342811584 0.25660184025764465 0.52007657289505
0.5068410634994507 0.3012010455131531 0.5725489854812622
0.40158355236053467 0.18693313002586365 0.5264943838119507
0.4821073114871979 0.21868352591991425 0.5908403396606445
0.5594310164451599 0.23157265782356262 0.4627329707145691
0.5081185698509216 0.16337859630584717 0.41941794753074646
0.43009161949157715 0.23008963465690613 0.4534955620765686
0.4817221760749817 0.22052332758903503 0.5590842366218567
0.4904056787490845 0.31849604845046997 0.42691275477409363
0.4976314604282379 0.3010753393173218 0.4867652356624603
0.3829617202281952 0.25135502219200134 0.42372187972068787
0.5074906945228577 0.29852816462516785 0.525575578212738
0.5079382061958313 0.15493184328079224 0.5160034894943237
0.4740802049636841 0.29058146476745605 0.5211288332939148
0.562030553817749 0.24273602664470673 0.4738526940345764
0.4551417827606201 0.358664333820343 0.4819909334182739
0.43393614888191223 0.1515326201915741 0.570048987865448
0.4663986563682556 0.2087118923664093 0.5196477770805359
0.44544467329978943 0.22344496846199036 0.5086204409599304
0.5339188575744629 0.22780272364616394 0.5174534916877747
0.4316648840904236 0.35554757714271545 0.5379409193992615
0.5032162070274353 0.18793588876724243 0.44017115235328674
0.32564717531204224 0.23275485634803772 0.4506957530975342
0.4962133765220642 0.30400967597961426 0.4648652672767639
0.4968130886554718 0.21279799938201904 0.5013403296470642
0.3842814266681671 0.2930445671081543 0.4304247796535492
0.36247777938842773 0.23752136528491974 0.4898020923137665
0.48791569471359253 0.27675965428352356 0.5939522385597229
0.37771928310394287 0.2228260636329651 0.4990520179271698
0.4140220582485199 0.30785441398620605 0.5982000827789307
0.34256166219711304 0.2511526942253113 0.4708726704120636
0.3432861566543579 0.201894149184227 0.5771999955177307
0.5023014545440674 0.2573665380477905 0.5633419156074524
0.44088083505630493 0.303513765335083 0.530402421951294
0.5140789151191711 0.1482381969690323 0.501815140247345
0.4860202968120575 0.30861911177635193 0.5370693802833557
0.4818423092365265 0.32100093364715576 0.5186231136322021
0.41405871510505676 0.18485476076602936 0.5159569382667542
0.37361693382263184 0.18368582427501678 0.47395339608192444
0.42080336809158325 0.17812812328338623 0.5924534201622009
0.4511217772960663 0.29747721552848816 0.47525686025619507
0.4300612509250641 0.28821760416030884 0.4361691176891327
0.5002174973487854 0.12810689210891724 0.4956035912036896
0.49341899156570435 0.33235523104667664 0.5117243528366089
0.44102445244789124 0.28424572944641113 0.45334547758102417
0.5398074388504028 0.27687788009643555 0.5035746097564697
0.5221384763717651 0.23194760084152222 0.5763977766036987
0.48791569471359253 0.27675965428352356 0.5939522385597229
0.37771928310394287 0.2228260636329651 0.4990520179271698
0.4140220582485199 0.30785441398620605 0.5982000827789307
0.3440721929073334 0.20156489312648773 0.6028880476951599
0.4588630199432373 0.21346397697925568 0.5060034990310669
0.4456874430179596 0.17273707687854767 0.5005205273628235
0.524857759475708 0.23795460164546967 0.5241721868515015
0.5504806041717529 0.21327444911003113 0.4442768692970276
0.4661467969417572 0.22093583643436432 0.45135173201560974
0.52828049659729 0.27127498388290405 0.5289207100868225
0.4899999499320984 0.15034501254558563 0.43315842747688293
0.5077074766159058 0.21231380105018616 0.5456583499908447
0.5610586404800415 0.2598515450954437 0.5521669387817383
0.520352840423584 0.21742697060108185 0.43840548396110535
0.39158323407173157 0.17893454432487488 0.4585869610309601
0.4661957621574402 0.2651463747024536 0.5331070423126221
0.392969012260437 0.24602988362312317 0.4247589707374573
0.5543221235275269 0.2644260823726654 0.4315952658653259
0.4148862659931183 0.25062456727027893 0.43110933899879456
0.4946413040161133 0.2876420021057129 0.5183270573616028
0.4735371172428131 0.25081923604011536 0.5669183135032654
0.5074906945228577 0.29852816462516785 0.525575578212738
0.42995283007621765 0.29441991448402405 0.599750280380249
0.4511590600013733 0.22111240029335022 0.4125482141971588
0.4262743890285492 0.28928083181381226 0.5748009085655212
0.5304029583930969 0.24436378479003906 0.42546096444129944
0.5026386976242065 0.251886785030365 0.5557291507720947
0.46164819598197937 0.14808791875839233 0.5096571445465088
0.44328299164772034 0.2719764709472656 0.5171986222267151
0.41641807556152344 0.19900518655776978 0.5843145847320557
0.4980258643627167 0.24761705100536346 0.4522256553173065
0.4912644326686859 0.23134198784828186 0.43825796246528625
0.4913825988769531 0.26062121987342834 0.5333613157272339
0.36272573471069336 0.2045123279094696 0.45226210355758667
0.47737643122673035 0.11482760310173035 0.5809900760650635
0.4348246157169342 0.2285037338733673 0.5315530896186829
0.4307927191257477 0.32421594858169556 0.5023947954177856
0.41351908445358276 0.2848697602748871 0.5154294967651367
0.5021592378616333 0.337690532207489 0.4316546618938446
0.39981362223625183 0.2300332933664322 0.5089420676231384
0.5224050283432007 0.28891777992248535 0.43393951654434204
0.5456244349479675 0.26685163378715515 0.5456435680389404
0.49150264263153076 0.17383988201618195 0.49429377913475037
0.5006256699562073 0.19306638836860657 0.5905197858810425
0.49057939648628235 0.33965587615966797 0.5019065737724304
0.4100911319255829 0.20847570896148682 0.5363460183143616
0.38078001141548157 0.24344341456890106 0.5881190896034241
0.513900637626648 0.18440279364585876 0.40933939814567566
0.37629765272140503 0.24609027802944183 0.4580337107181549
0.41667047142982483 0.33708104491233826 0.5492386221885681
0.4429354667663574 0.3001319169998169 0.5927766561508179
0.48250359296798706 0.14361347258090973 0.5787112712860107
0.4580657482147217 0.2412584125995636 0.5795247554779053
0.4050883650779724 0.1954682320356369 0.5233580470085144
0.4777069687843323 0.32894325256347656 0.434797465801239
0.4621225595474243 0.23158051073551178 0.5186946988105774
0.38933101296424866 0.29353368282318115 0.4329671561717987
0.47904446721076965 0.16441255807876587 0.433357834815979
0.3856543302536011 0.22846858203411102 0.6029704213142395
0.3725384473800659 0.19224204123020172 0.5004557967185974
0.5004938840866089 0.19799837470054626 0.5483412742614746
0.4553332030773163 0.13073314726352692 0.5214889645576477
0.4801742732524872 0.11406031250953674 0.5635643601417542
0.46168220043182373 0.30864930152893066 0.47520992159843445
0.39183175563812256 0.22571778297424316 0.5313566327095032
0.4926438629627228 0.1449948251247406 0.48699307441711426
0.45880982279777527 0.25150689482688904 0.5258573293685913
0.38554510474205017 0.27250930666923523 0.42517033219337463
0.46503114700317383 0.2255754917860031 0.5401615500450134
0.420137494802475 0.14261361956596375 0.5707805752754211
0.5512104630470276 0.23292098939418793 0.518954336643219
0.5534481406211853 0.26928088068962097 0.5167625546455383
0.4789435863494873 0.16153019666671753 0.5792573690414429
0.4665656089782715 0.3090859055519104 0.4907275140285492
0.4886479675769806 0.15035642683506012 0.4812372922897339
0.4623432755470276 0.1787671446800232 0.5863414406776428
0.39982911944389343 0.182914599776268 0.49227413535118103
0.4870617985725403 0.32882994413375854 0.5496309995651245
0.4592556059360504 0.15994875133037567 0.4918386936187744
0.48205214738845825 0.16962650418281555 0.5034894943237305
0.3959444463253021 0.26008933782577515 0.4167369604110718
0.443574994802475 0.3247489929199219 0.4950639307498932
0.3847271502017975 0.2866860330104828 0.5451230406761169
0.5605282783508301 0.23311905562877655 0.5704602003097534
0.562542736530304 0.24382051825523376 0.5200191140174866
0.3965820074081421 0.27826017141342163 0.4521545171737671
0.37771928310394287 0.2228260636329651 0.4990520179271698
0.4140220582485199 0.30785441398620605 0.5982000827789307
0.3440721929073334 0.20156489312648773 0.6028880476951599
0.4588630199432373 0.21346397697925568 0.5060034990310669
0.4948599338531494 0.3081924021244049 0.4814154803752899
0.4073135554790497 0.2595389187335968 0.48700186610221863
0.43167558312416077 0.3095920979976654 0.5274676084518433
0.4723448157310486 0.2941349446773529 0.4501265287399292
0.4903833270072937 0.21326597034931183 0.583875834941864
0.44697633385658264 0.28086400032043457 0.592369794845581
0.47252100706100464 0.2203749120235443 0.5948259830474854
0.4369514286518097 0.20186766982078552 0.5681704878807068
0.4183047115802765 0.2505779266357422 0.4908677637577057
0.48044663667678833 0.32453861832618713 0.618184506893158
0.46625086665153503 0.3237546682357788 0.4991503953933716
0.3498351573944092 0.20558208227157593 0.5550200343132019
0.40733587741851807 0.19943706691265106 0.4513195753097534
0.49615156650543213 0.23434528708457947 0.5299376249313354
0.48931884765625 0.2458784282207489 0.42307934165000916
0.3695898652076721 0.2691115736961365 0.5124618411064148
0.39711523056030273 0.1723657101392746 0.4408223032951355
0.4844561219215393 0.133315309882164 0.42974284291267395
0.4412972331047058 0.3691215217113495 0.5820777416229248
0.4118601977825165 0.1911318004131317 0.442104697227478
0.48673805594444275 0.2397640496492386 0.4351678490638733
0.37421178817749023 0.2265205830335617 0.5054064393043518
0.42019495368003845 0.31307461857795715 0.5858509540557861
0.40610790252685547 0.32782554626464844 0.531279981136322
0.5302910804748535 0.27137112617492676 0.5537710189819336
0.5300858616828918 0.25016194581985474 0.6166443824768066
0.4964519739151001 0.24806910753250122 0.4429018497467041
0.40944868326187134 0.24810807406902313 0.4411461651325226
0.4166211187839508 0.190529465675354 0.5204698443412781
0.37406685948371887 0.2494930475950241 0.42439258098602295
0.49557507038116455 0.2426261603832245 0.4766503572463989
0.4825310707092285 0.3073132336139679 0.6107764840126038
0.5249279141426086 0.28286999464035034 0.5404728651046753
0.39435312151908875 0.20704343914985657 0.5016036629676819
0.41792115569114685 0.33828678727149963 0.6044307947158813
0.45468756556510925 0.1370726376771927 0.46914881467819214
0.5376457571983337 0.19704405963420868 0.49303150177001953
0.40899837017059326 0.3131784200668335 0.5019022822380066
0.4563700556755066 0.15305902063846588 0.4835546016693115
0.44252264499664307 0.2545952796936035 0.47818103432655334
0.5674203634262085 0.2609280049800873 0.5363377928733826
0.4519718885421753 0.1319343000650406 0.4481658935546875
0.4422399699687958 0.14254607260227203 0.42453062534332275
0.4527282118797302 0.13593102991580963 0.42183324694633484
0.42775022983551025 0.3274516761302948 0.43176719546318054
0.4276120960712433 0.16343460977077484 0.5725076198577881
0.44147202372550964 0.3841765522956848 0.47604721784591675
0.4300388991832733 0.34248706698417664 0.5215569138526917
0.5067180395126343 0.17080058157444 0.4853726923465729
0.3893161118030548 0.19348587095737457 0.44398942589759827
0.4078145921230316 0.2017163634300232 0.47593215107917786
0.41268080472946167 0.1743689626455307 0.42445385456085205
0.4087710678577423 0.30934154987335205 0.5035027861595154
0.41499388217926025 0.17042972147464752 0.5857661962509155
0.4887067377567291 0.1450566202402115 0.5278507471084595
0.4341258108615875 0.2244437038898468 0.5912184119224548
0.438131183385849 0.2513766288757324 0.4887107014656067
0.40199342370033264 0.16181433200836182 0.46776747703552246
0.5140789151191711 0.1482381969690323 0.501815140247345
0.46148985624313354 0.29039645195007324 0.4159380793571472
0.46792784333229065 0.22727324068546295 0.6032013297080994
0.38900837302207947 0.2514500021934509 0.5571701526641846
0.5071965456008911 0.323068231344223 0.5499917268753052
0.4806534945964813 0.33773744106292725 0.5466349124908447
0.5180451273918152 0.21288956701755524 0.46960338950157166
0.40085259079933167 0.23085203766822815 0.46834656596183777
0.4599545896053314 0.1991928219795227 0.41934677958488464
0.37891125679016113 0.27485114336013794 0.4410497844219208
0.5494927167892456 0.23308031260967255 0.576313316822052
0.42719098925590515 0.30553051829338074 0.603934109210968
0.40461257100105286 0.1992332637310028 0.47107142210006714
0.38146647810935974 0.21649040281772614 0.4996700882911682
0.48148196935653687 0.34469640254974365 0.510964572429657
0.3825347125530243 0.23286043107509613 0.4083188474178314
0.43074628710746765 0.2732625901699066 0.5489484667778015
0.5010409355163574 0.2370092123746872 0.5877535343170166
0.41048967838287354 0.2985190749168396 0.4997216463088989
0.4070323705673218 0.31797119975090027 0.4354430139064789
0.35830745100975037 0.23630578815937042 0.40790849924087524
0.4097374677658081 0.20805330574512482 0.5420780777931213
0.38584160804748535 0.23453275859355927 0.4098591208457947
0.36919769644737244 0.19725054502487183 0.49423202872276306
0.4490339756011963 0.1830732524394989 0.411207914352417
0.40862199664115906 0.28539931774139404 0.45029953122138977
0.36510130763053894 0.25579774379730225 0.5203326344490051
0.5018630623817444 0.1324709951877594 0.5153278112411499
0.5038044452667236 0.30083388090133667 0.5719825625419617
0.457086443901062 0.14063462615013123 0.4539181888103485
0.5254379510879517 0.29305869340896606 0.5220053791999817
0.5065895915031433 0.15123938024044037 0.4065660238265991
0.4963396191596985 0.2700687050819397 0.5570539832115173
0.46148985624313354 0.29039645195007324 0.4159380793571472
0.46792784333229065 0.22727324068546295 0.6032013297080994
0.38900837302207947 0.2514500021934509 0.5571701526641846
0.5071965456008911 0.323068231344223 0.5499917268753052
0.4806534945964813 0.33773744106292725 0.5466349124908447
0.5180451273918152 0.21288956701755524 0.46960338950157166
0.3805980980396271 0.23297333717346191 0.4326622486114502
0.4447712004184723 0.1397327184677124 0.42984360456466675
0.4599545896053314 0.1991928219795227 0.41934677958488464
0.37891125679016113 0.27485114336013794 0.4410497844219208
0.5494927167892456 0.23308031260967255 0.576313316822052
0.42719098925590515 0.30553051829338074 0.603934109210968
0.40461257100105286 0.1992332637310028 0.47107142210006714
0.38146647810935974 0.21649040281772614 0.4996700882911682
0.48148196935653687 0.34469640254974365 0.510964572429657
0.3825347125530243 0.23286043107509613 0.4083188474178314
0.5024927258491516 0.16740836203098297 0.5335525870323181
0.5398775339126587 0.24438469111919403 0.47110602259635925
0.43355774879455566 0.23912426829338074 0.4666714668273926
0.3853798508644104 0.23261865973472595 0.4232267141342163
0.36919769644737244 0.19725054502487183 0.49423202872276306
0.4490339756011963 0.1830732524394989 0.411207914352417
0.40862199664115906 0.28539931774139404 0.45029953122138977
0.36510130763053894 0.25579774379730225 0.5203326344490051
0.5018630623817444 0.1324709951877594 0.5153278112411499
0.5038044452667236 0.30083388090133667 0.5719825625419617
0.457086443901062 0.14063462615013123 0.4539181888103485
0.3595726191997528 0.2755810022354126 0.44594642519950867
0.5025423169136047 0.2140415757894516 0.5871084332466125
0.5065895915031433 0.15123938024044037 0.4065660238265991
0.49747636914253235 0.2500663101673126 0.6054019331932068
0.36569273471832275 0.24293069541454315 0.48200178146362305
0.38141629099845886 0.22822357714176178 0.5728575587272644
0.47661447525024414 0.14559681713581085 0.4387875497341156
0.40944868326187134 0.24810807406902313 0.4411461651325226
0.4166211187839508 0.190529465675354 0.5204698443412781
0.37406685948371887 0.2494930475950241 0.42439258098602295
0.49557507038116455 0.2426261603832245 0.4766503572463989
0.4825310707092285 0.3073132336139679 0.6107764840126038
0.5249279141426086 0.28286999464035034 0.5404728651046753
0.39435312151908875 0.20704343914985657 0.5016036629676819
0.41792115569114685 0.33828678727149963 0.6044307947158813
0.45468756556510925 0.1370726376771927 0.46914881467819214
0.5376457571983337 0.19704405963420868 0.49303150177001953
0.40899837017059326 0.3131784200668335 0.5019022822380066
0.4563700556755066 0.15305902063846588 0.4835546016693115
0.44252264499664307 0.2545952796936035 0.47818103432655334
0.5674203634262085 0.2609280049800873 0.5363377928733826
0.4519718885421753 0.1319343000650406 0.4481658935546875
0.42876654863357544 0.2869431674480438 0.5995458364486694
0.5515905022621155 0.20033738017082214 0.5818932056427002
0.5150678753852844 0.25804516673088074 0.5282350182533264
0.406819611787796 0.20116978883743286 0.5947102904319763
0.41456714272499084 0.21722525358200073 0.4602774381637573
0.540909469127655 0.22712786495685577 0.4342464506626129
0.495691180229187 0.13600629568099976 0.5176774859428406
0.4339196979999542 0.17635582387447357 0.5018107891082764
0.35074207186698914 0.26689356565475464 0.41003477573394775
0.481523334980011 0.278561532497406 0.5708341598510742
0.42053139209747314 0.13194626569747925 0.5895093083381653
0.5004269480705261 0.21332040429115295 0.48521459102630615
0.4473680257797241 0.19218546152114868 0.6030347943305969
0.48561421036720276 0.17889827489852905 0.48133814334869385
0.5610586404800415 0.2598515450954437 0.5521669387817383
0.38561198115348816 0.22951488196849823 0.4626244604587555
0.35085201263427734 0.22958338260650635 0.5077391266822815
0.3518175184726715 0.23946534097194672 0.46265265345573425
0.4668106138706207 0.24253544211387634 0.43228405714035034
0.4761875569820404 0.30041489005088806 0.5605575442314148
0.46070414781570435 0.15400218963623047 0.4925819933414459
0.3656611442565918 0.21635928750038147 0.5169922709465027
0.3762660622596741 0.20635704696178436 0.5605829954147339
0.5219630599021912 0.2954457700252533 0.5171555280685425
0.42237886786460876 0.305087149143219 0.5486420392990112
0.4158764183521271 0.26131758093833923 0.5532009601593018
0.4186907708644867 0.19020392000675201 0.601023256778717
0.5077788829803467 0.2879325747489929 0.4816628098487854
0.47620144486427307 0.22934086620807648 0.5536172389984131
0.47183191776275635 0.26432004570961 0.5093702673912048
0.42876654863357544 0.2869431674480438 0.5995458364486694
0.5453355312347412 0.2838757336139679 0.4496561288833618
0.5515905022621155 0.20033738017082214 0.5818932056427002
0.5150678753852844 0.25804516673088074 0.5282350182533264
0.406819611787796 0.20116978883743286 0.5947102904319763
0.41456714272499084 0.21722525358200073 0.4602774381637573
0.540909469127655 0.22712786495685577 0.4342464506626129
0.495691180229187 0.13600629568099976 0.5176774859428406
0.4339196979999542 0.17635582387447357 0.5018107891082764
0.35074207186698914 0.26689356565475464 0.41003477573394775
0.481523334980011 0.278561532497406 0.5708341598510742
0.42053139209747314 0.13194626569747925 0.5895093083381653
0.5004269480705261 0.21332040429115295 0.48521459102630615
0.3970594108104706 0.2837984561920166 0.5803009867668152
0.4788643717765808 0.1524619162082672 0.5196014642715454
0.45933330059051514 0.17456373572349548 0.5812585353851318
0.5347285270690918 0.18601705133914948 0.6006962060928345
0.3732936680316925 0.1779642105102539 0.5568787455558777
0.4821380078792572 0.22631408274173737 0.5311926603317261
0.4795355200767517 0.27178460359573364 0.596145510673523
0.5383352041244507 0.21339869499206543 0.4929457902908325
0.47560060024261475 0.20312722027301788 0.5960584878921509
0.5380597710609436 0.25431036949157715 0.44659334421157837
0.44097137451171875 0.31071731448173523 0.6070849299430847
0.3822705149650574 0.180855855345726 0.5285722613334656
0.47551101446151733 0.17415751516819 0.5249072313308716
0.368950754404068 0.19973304867744446 0.5258661508560181
0.4973105788230896 0.12598156929016113 0.4884190261363983
0.483391135931015 0.12993955612182617 0.5509858131408691
0.5326145887374878 0.26121658086776733 0.5433629155158997
0.39665472507476807 0.15889568626880646 0.5643366575241089
0.5340432524681091 0.19238178431987762 0.6018643975257874
0.4851571023464203 0.2860201895236969 0.45801252126693726
0.46995002031326294 0.2529597878456116 0.48359525203704834
0.37253618240356445 0.2038593590259552 0.5757429003715515
0.43820425868034363 0.38269075751304626 0.4574994146823883
0.45948347449302673 0.30266663432121277 0.529346764087677
0.47576677799224854 0.26452258229255676 0.507656991481781
0.47794124484062195 0.2001405954360962 0.5476454496383667
0.4504026472568512 0.2575238049030304 0.5596894025802612
0.5500762462615967 0.2388257533311844 0.5163100361824036
0.4384944438934326 0.22237864136695862 0.5635203719139099
0.5649303793907166 0.2610679566860199 0.4827723205089569
0.44963333010673523 0.3767165243625641 0.4443022906780243
0.46137112379074097 0.2172153741121292 0.41942697763442993
0.49833017587661743 0.15949378907680511 0.4476708173751831
0.4116349220275879 0.19366344809532166 0.5687047243118286
0.4550720155239105 0.13933633267879486 0.5496129989624023
0.535717785358429 0.21643832325935364 0.49008920788764954
0.5505445599555969 0.2757622301578522 0.5836033821105957
0.3745597004890442 0.24045665562152863 0.4525863230228424
0.427244633436203 0.3185434639453888 0.4444304406642914
0.4224478006362915 0.19026662409305573 0.4012576639652252
0.34980064630508423 0.26600944995880127 0.4174633026123047
0.3689121901988983 0.2500728666782379 0.4326995611190796
0.44065961241722107 0.3072552978992462 0.5230863690376282
0.5282759666442871 0.2027951031923294 0.49655014276504517
0.38563787937164307 0.18663905560970306 0.43176254630088806
0.37368619441986084 0.2602965831756592 0.5101828575134277
0.45291227102279663 0.1308871954679489 0.3959941565990448
0.4744550287723541 0.3036421537399292 0.46329620480537415
0.39378872513771057 0.2738124430179596 0.5406725406646729
0.4860520362854004 0.17869271337985992 0.5962375402450562
0.4532260298728943 0.1596224457025528 0.575452983379364
0.4112420082092285 0.307257741689682 0.458838552236557
0.39850515127182007 0.22916197776794434 0.55617755651474
0.4790954887866974 0.2398672103881836 0.6073340773582458
0.5122933983802795 0.24443374574184418 0.41577035188674927
0.3740425109863281 0.22577309608459473 0.5612756013870239
0.49820536375045776 0.24684925377368927 0.5238385200500488
0.5490105152130127 0.24761062860488892 0.4205611050128937
0.3712802827358246 0.20461156964302063 0.46378934383392334
0.4120360314846039 0.19726890325546265 0.5326778292655945
0.5530952215194702 0.27219054102897644 0.5488154888153076
0.40334057807922363 0.26543328166007996 0.46015772223472595
0.3710206151008606 0.27174168825149536 0.4867907762527466
0.4599766433238983 0.2654055058956146 0.5999902486801147
0.4693681597709656 0.29937225580215454 0.46266302466392517
0.441588431596756 0.3293752074241638 0.49585139751434326
0.39940500259399414 0.25894129276275635 0.5593973994255066
0.5131900906562805 0.3113390803337097 0.5709502696990967
0.46148985624313354 0.29039645195007324 0.4159380793571472
0.46792784333229065 0.22727324068546295 0.6032013297080994
0.47675827145576477 0.2893943190574646 0.5450727939605713
0.4996059238910675 0.3077830672264099 0.5730202794075012
0.44091886281967163 0.2882399260997772 0.5457484722137451
0.43646448850631714 0.2865042984485626 0.44384586811065674
0.48907405138015747 0.2424630969762802 0.466490238904953
0.38500604033470154 0.28526216745376587 0.5089370012283325
0.4367521405220032 0.35505232214927673 0.49716585874557495
0.4579547941684723 0.30649328231811523 0.5577559471130371
0.4497658610343933 0.16397324204444885 0.4428618550300598
0.5577613115310669 0.22761471569538116 0.4249538481235504
0.3904625475406647 0.24484187364578247 0.42645901441574097
0.5388224720954895 0.2087431401014328 0.5389500260353088
0.4618012309074402 0.25787848234176636 0.5619766116142273
0.44084712862968445 0.3355782926082611 0.6220359206199646
0.43561145663261414 0.1598677635192871 0.43267586827278137
0.43531662225723267 0.19171728193759918 0.4657233953475952
0.5558112859725952 0.2676253318786621 0.5209592580795288
0.5266197919845581 0.2963464558124542 0.5261948704719543
0.4270987808704376 0.15992768108844757 0.4405355155467987
0.4441509246826172 0.35072365403175354 0.44548162817955017
0.4408562183380127 0.3208170235157013 0.4891825020313263
0.5331817865371704 0.1916579008102417 0.424104243516922
0.34276896715164185 0.21914315223693848 0.42638978362083435
0.4365127384662628 0.3230096399784088 0.586124062538147
0.3889034390449524 0.23684675991535187 0.5724734663963318
0.504588782787323 0.3310614824295044 0.45288094878196716
0.39154982566833496 0.18416252732276917 0.47289660573005676
0.48123592138290405 0.2702503502368927 0.6098199486732483
0.48744386434555054 0.24502094089984894 0.565430223941803
0.5115330815315247 0.31974950432777405 0.5318999290466309
0.4545374810695648 0.12360143661499023 0.550824761390686
0.5198903679847717 0.19241049885749817 0.5677369832992554
0.4839422404766083 0.17194414138793945 0.6015986800193787
0.4203519821166992 0.29867982864379883 0.6018882989883423
0.5436730980873108 0.2535325586795807 0.4947393536567688
0.5618916153907776 0.24097345769405365 0.4532134234905243
0.4232333302497864 0.2234974354505539 0.48170527815818787
0.5263442993164062 0.2043304443359375 0.46248677372932434
0.5233973264694214 0.24372833967208862 0.5807746648788452
0.5505445599555969 0.2757622301578522 0.5836033821105957
0.4843447506427765 0.1733824610710144 0.5732415914535522
0.42711636424064636 0.207590252161026 0.5353986620903015
0.4553346335887909 0.2686328589916229 0.5195125341415405
0.4537724256515503 0.3629789352416992 0.5314963459968567
0.37190258502960205 0.21576988697052002 0.5598657131195068
0.5321483016014099 0.2608312666416168 0.4460862874984741
0.4308526813983917 0.14975278079509735 0.5977619290351868
0.4934028685092926 0.31016334891319275 0.484111487865448
0.5606089234352112 0.23277239501476288 0.5026589035987854
0.5446296334266663 0.2222321778535843 0.4181627631187439
0.4953838288784027 0.14980201423168182 0.48357078433036804
0.3953722417354584 0.2592557668685913 0.45701053738594055
0.47347864508628845 0.25677090883255005 0.45173946022987366
0.3860463798046112 0.22968348860740662 0.4206906259059906
0.4748796820640564 0.12188274413347244 0.463693767786026
0.5258266925811768 0.19358399510383606 0.532054603099823
0.48262256383895874 0.13126495480537415 0.460935115814209
0.4747101366519928 0.12450575828552246 0.5518006086349487
0.46602901816368103 0.2221236526966095 0.6059892177581787
0.4666675627231598 0.2615201771259308 0.4739084243774414
0.4147787094116211 0.23765648901462555 0.4246676564216614
0.48673805594444275 0.2397640496492386 0.4351678490638733
0.4166211187839508 0.190529465675354 0.5204698443412781
0.37406685948371887 0.2494930475950241 0.42439258098602295
0.49557507038116455 0.2426261603832245 0.4766503572463989
0.4825310707092285 0.3073132336139679 0.6107764840126038
0.5249279141426086 0.28286999464035034 0.5404728651046753
0.39435312151908875 0.20704343914985657 0.5016036629676819
0.41792115569114685 0.33828678727149963 0.6044307947158813
0.45468756556510925 0.1370726376771927 0.46914881467819214
0.5376457571983337 0.19704405963420868 0.49303150177001953
0.40899837017059326 0.3131784200668335 0.5019022822380066
0.4563700556755066 0.15305902063846588 0.4835546016693115
0.44252264499664307 0.2545952796936035 0.47818103432655334
0.5674203634262085 0.2609280049800873 0.5363377928733826
0.4519718885421753 0.1319343000650406 0.4481658935546875
0.4422399699687958 0.14254607260227203 0.42453062534332275
0.4527282118797302 0.13593102991580963 0.42183324694633484
0.42775022983551025 0.3274516761302948 0.43176719546318054
0.4276120960712433 0.16343460977077484 0.5725076198577881
0.44147202372550964 0.3841765522956848 0.47604721784591675
0.4300388991832733 0.34248706698417664 0.5215569138526917
0.5067180395126343 0.17080058157444 0.4853726923465729
0.3893161118030548 0.19348587095737457 0.44398942589759827
0.4078145921230316 0.2017163634300232 0.47593215107917786
0.41268080472946167 0.1743689626455307 0.42445385456085205
0.4087710678577423 0.30934154987335205 0.5035027861595154
0.3983379006385803 0.25812989473342896 0.5355647802352905
0.482964426279068 0.2030748873949051 0.5892245173454285
0.38226473331451416 0.24356529116630554 0.5569122433662415
0.37197110056877136 0.24615652859210968 0.41700202226638794
0.45191869139671326 0.182831272482872 0.47969841957092285
0.4421270787715912 0.1960514485836029 0.43139103055000305
0.41707998514175415 0.16710136830806732 0.428970605134964
0.4839422404766083 0.17194414138793945 0.6015986800193787
0.4203519821166992 0.29867982864379883 0.6018882989883423
0.4317476451396942 0.2473493367433548 0.5238338112831116
0.465715229511261 0.14220888912677765 0.5492669343948364
0.4365975558757782 0.1795196831226349 0.4536427855491638
0.4204990267753601 0.3199424147605896 0.5110130906105042
0.46417132019996643 0.24747757613658905 0.4127132296562195
0.38141629099845886 0.22822357714176178 0.5728575587272644
0.47661447525024414 0.14559681713581085 0.4387875497341156
0.40944868326187134 0.24810807406902313 0.4411461651325226
0.4166211187839508 0.190529465675354 0.5204698443412781
0.37406685948371887 0.2494930475950241 0.42439258098602295
0.49557507038116455 0.2426261603832245 0.4766503572463989
0.4825310707092285 0.3073132336139679 0.6107764840126038
0.5249279141426086 0.28286999464035034 0.5404728651046753
0.39435312151908875 0.20704343914985657 0.5016036629676819
0.41792115569114685 0.33828678727149963 0.6044307947158813
0.45468756556510925 0.1370726376771927 0.46914881467819214
0.5376457571983337 0.19704405963420868 0.49303150177001953
0.5618187189102173 0.25446340441703796 0.442038893699646
0.47866544127464294 0.19427312910556793 0.6048719882965088
0.37807852029800415 0.22808142006397247 0.4387679100036621
0.3981148302555084 0.3133329153060913 0.5526584982872009
0.43385741114616394 0.29509198665618896 0.48700734972953796
0.4555594325065613 0.20679901540279388 0.45446059107780457
0.4818226099014282 0.24518901109695435 0.5964147448539734
0.40999507904052734 0.2043018639087677 0.42087891697883606
0.5203391313552856 0.2670605182647705 0.5688421130180359
0.4927217960357666 0.24266572296619415 0.5408207178115845
0.5536509156227112 0.2642853558063507 0.6132867932319641
0.4704108238220215 0.1873093843460083 0.5765385031700134
0.3963390588760376 0.15378306806087494 0.5724801421165466
0.48123592138290405 0.2702503502368927 0.6098199486732483
0.4704538881778717 0.18300196528434753 0.49697309732437134
0.48117852210998535 0.13309933245182037 0.4400003254413605
0.45707350969314575 0.13264130055904388 0.492607980966568
0.4096750319004059 0.22227077186107635 0.5296682119369507
0.4095166325569153 0.3081603944301605 0.4820207953453064
0.47655922174453735 0.24849066138267517 0.4405495524406433
0.4890502989292145 0.15901324152946472 0.40130728483200073
0.46045711636543274 0.11547806113958359 0.5895060896873474
0.4202011823654175 0.338666707277298 0.5016664266586304
0.429597407579422 0.1844034045934677 0.5163480043411255
0.4675576686859131 0.36155644059181213 0.45188525319099426
0.42725062370300293 0.3064696788787842 0.4398576319217682
0.39737528562545776 0.3060188293457031 0.45996251702308655
0.37990856170654297 0.2430894821882248 0.5266891717910767
0.37110796570777893 0.23186177015304565 0.5012524724006653
0.4720977246761322 0.26305893063545227 0.4894683063030243
0.5391525030136108 0.21832871437072754 0.5624931454658508
0.4915880858898163 0.1618182361125946 0.5961195826530457
0.4718985855579376 0.31039321422576904 0.43323296308517456
0.3740408420562744 0.22209681570529938 0.4854222238063812
0.40637513995170593 0.2876530885696411 0.48536908626556396
0.48317617177963257 0.2908320128917694 0.554379403591156
0.47640424966812134 0.26686155796051025 0.4912951588630676
0.3640342652797699 0.22671575844287872 0.4693511128425598
0.5048628449440002 0.24985848367214203 0.4236413836479187
0.4771382212638855 0.2866845726966858 0.5215471982955933
0.4847378134727478 0.27279824018478394 0.4548279643058777
0.4013722836971283 0.23353877663612366 0.4367057979106903
0.48218488693237305 0.3330986499786377 0.5906574726104736
0.462974488735199 0.3047603368759155 0.5771520137786865
0.44203054904937744 0.26865559816360474 0.5491664409637451
0.5025423169136047 0.2140415757894516 0.5871084332466125
0.3528161346912384 0.2089700847864151 0.4548832178115845
0.4608147442340851 0.22683271765708923 0.49023735523223877
0.38559067249298096 0.2869076430797577 0.43068167567253113
0.45647895336151123 0.2294756919145584 0.4661652445793152
0.5126429200172424 0.298698753118515 0.4826962351799011
0.40426576137542725 0.26282361149787903 0.5278599262237549
0.47903430461883545 0.2302258312702179 0.4282070994377136
0.36481115221977234 0.2567795515060425 0.5244619250297546
0.42918336391448975 0.2526116371154785 0.500496506690979
0.4704108238220215 0.1873093843460083 0.5765385031700134
0.36163461208343506 0.24896934628486633 0.5787734985351562
0.412659615278244 0.18513594567775726 0.4500245451927185
0.5065884590148926 0.2675817012786865 0.4152596890926361
0.532882571220398 0.2749691903591156 0.5988613963127136
0.5026364326477051 0.3010869026184082 0.43281587958335876
0.5008846521377563 0.2885422110557556 0.510846734046936
0.5336251854896545 0.2641747295856476 0.5395156145095825
0.4670570492744446 0.11971666663885117 0.5314843058586121
0.5083505511283875 0.13787372410297394 0.4947171211242676
0.4205033481121063 0.17568224668502808 0.5151476860046387
0.5042425990104675 0.18992379307746887 0.5151848196983337
0.38870853185653687 0.27584993839263916 0.5761705636978149
0.3866373300552368 0.26136288046836853 0.47120997309684753
0.5146597623825073 0.2015947699546814 0.5430929064750671
0.4320959746837616 0.3694731891155243 0.5297984480857849
0.4415997564792633 0.12410292774438858 0.5855128765106201
0.4303726851940155 0.16200058162212372 0.4471152722835541
0.44254156947135925 0.16378505527973175 0.49901050329208374
0.4258391559123993 0.1815175712108612 0.4892384707927704
0.5109255313873291 0.2242102026939392 0.5035675168037415
0.5065895915031433 0.15123938024044037 0.4065660238265991
0.49747636914253235 0.2500663101673126 0.6054019331932068
0.47943446040153503 0.2956031560897827 0.5253790616989136
0.4312880337238312 0.14647459983825684 0.5492438673973083
0.42583557963371277 0.3277483582496643 0.5647728443145752
0.4574575424194336 0.14408951997756958 0.505549430847168
0.5607488751411438 0.27302730083465576 0.45304080843925476
0.43428894877433777 0.2568952739238739 0.4967027008533478
0.499161034822464 0.28096988797187805 0.579810619354248
0.45055872201919556 0.3444301187992096 0.482717365026474
0.489970326423645 0.3011910915374756 0.4676104485988617
0.5566686391830444 0.2717219889163971 0.5191528797149658
0.4389505684375763 0.2025456577539444 0.5549830198287964
0.412659615278244 0.18513594567775726 0.4500245451927185
0.3719289302825928 0.2682081460952759 0.44454365968704224
0.4749535918235779 0.31384265422821045 0.5189076662063599
0.43542012572288513 0.23573392629623413 0.5659592151641846
0.4127228558063507 0.19203558564186096 0.522055447101593
0.3938988447189331 0.31751006841659546 0.5280188918113708
0.5336251854896545 0.2641747295856476 0.5395156145095825
0.40637513995170593 0.2876530885696411 0.48536908626556396
0.48317617177963257 0.2908320128917694 0.554379403591156
0.47640424966812134 0.26686155796051025 0.4912951588630676
0.3640342652797699 0.22671575844287872 0.4693511128425598
0.5048628449440002 0.24985848367214203 0.4236413836479187
0.4771382212638855 0.2866845726966858 0.5215471982955933
0.4847378134727478 0.27279824018478394 0.4548279643058777
0.46103811264038086 0.2223157286643982 0.42705515027046204
0.48218488693237305 0.3330986499786377 0.5906574726104736
0.42643171548843384 0.33183029294013977 0.5811812281608582
0.5109255313873291 0.2242102026939392 0.5035675168037415
0.4560873508453369 0.18999655544757843 0.5486030578613281
0.5003299713134766 0.17312845587730408 0.5969730615615845
0.5306663513183594 0.20243577659130096 0.4672496020793915
0.5020463466644287 0.2111467570066452 0.5118989944458008
0.5145080089569092 0.2125716358423233 0.43537768721580505
0.38021135330200195 0.190034881234169 0.5602402091026306
0.4970540702342987 0.22901353240013123 0.5606909990310669
0.46468642354011536 0.32194674015045166 0.47283935546875
0.4590529501438141 0.15149588882923126 0.5490465760231018
0.5447396039962769 0.2768823504447937 0.5720912218093872
0.4134685695171356 0.16877348721027374 0.5148364901542664
0.4318014979362488 0.35819119215011597 0.5451722145080566
0.4501815438270569 0.19391027092933655 0.4454018771648407
0.5296906232833862 0.2432679980993271 0.47685664892196655
0.43170541524887085 0.3579956889152527 0.5896062254905701
0.368251234292984 0.25266483426094055 0.4696497321128845
0.5150834321975708 0.25376245379447937 0.43247461318969727
0.45782074332237244 0.18003180623054504 0.4824378788471222
0.5004028677940369 0.23258690536022186 0.5852957367897034
0.4217798411846161 0.1724824160337448 0.5976532101631165
0.5353623628616333 0.2536444365978241 0.4236834943294525
0.49493226408958435 0.19347046315670013 0.6029605269432068
0.4159592390060425 0.25099867582321167 0.5824800729751587
0.4515377879142761 0.3005392253398895 0.47434014081954956
0.49287718534469604 0.20237120985984802 0.5371699929237366
0.4665118157863617 0.12862665951251984 0.44040027260780334
0.368086576461792 0.21654409170150757 0.4345536231994629
0.4519992470741272 0.29773199558258057 0.44330477714538574
0.45027193427085876 0.24880369007587433 0.5090083479881287
0.3582140803337097 0.2166128307580948 0.5885251760482788
0.4116988480091095 0.2464796006679535 0.5160321593284607
0.4649057984352112 0.12613822519779205 0.4340897798538208
0.5004803538322449 0.1400550752878189 0.5909685492515564
0.49747636914253235 0.2500663101673126 0.6054019331932068
0.4501815438270569 0.19391027092933655 0.4454018771648407
0.5296906232833862 0.2432679980993271 0.47685664892196655
0.43170541524887085 0.3579956889152527 0.5896062254905701
0.368251234292984 0.25266483426094055 0.4696497321128845
0.368251234292984 0.25266483426094055 0.4696497321128845
0.5150834321975708 0.25376245379447937 0.43247461318969727
0.5150834321975708 0.25376245379447937 0.43247461318969727
0.45782074332237244 0.18003180623054504 0.4824378788471222
0.5004028677940369 0.23258690536022186 0.5852957367897034
0.4217798411846161 0.1724824160337448 0.5976532101631165
0.5353623628616333 0.2536444365978241 0.4236834943294525
0.49493226408958435 0.19347046315670013 0.6029605269432068
0.4159592390060425 0.25099867582321167 0.5824800729751587
0.45457568764686584 0.26618850231170654 0.4560127258300781
0.4407725930213928 0.13529878854751587 0.53165203332901
0.4665118157863617 0.12862665951251984 0.44040027260780334
0.368086576461792 0.21654409170150757 0.4345536231994629
0.4310745298862457 0.27774304151535034 0.42146036028862
0.3969169557094574 0.21045725047588348 0.45958390831947327
0.4467916488647461 0.15567922592163086 0.47624728083610535
0.3582140803337097 0.2166128307580948 0.5885251760482788
0.4116988480091095 0.2464796006679535 0.5160321593284607
0.4649057984352112 0.12613822519779205 0.4340897798538208
0.5004803538322449 0.1400550752878189 0.5909685492515564
0.5443052649497986 0.19461876153945923 0.507447361946106
0.4614885449409485 0.21940678358078003 0.40967273712158203
0.4614885449409485 0.21940678358078003 0.40967273712158203
0.5090093612670898 0.27293160557746887 0.4792577028274536
0.49736133217811584 0.22717876732349396 0.4607079327106476
0.4228082299232483 0.2323993593454361 0.5857370495796204
0.4902277886867523 0.11890769004821777 0.5001921653747559
0.47943446040153503 0.2956031560897827 0.5253790616989136
0.48199930787086487 0.17072860896587372 0.5229529142379761
0.431547075510025 0.32775333523750305 0.47101083397865295
0.37640905380249023 0.23034442961215973 0.5028153657913208
0.382218599319458 0.27403584122657776 0.6058170795440674
0.45431071519851685 0.22451205551624298 0.47466933727264404
0.40911900997161865 0.29615673422813416 0.5135260820388794
0.4042470157146454 0.29761072993278503 0.5745707154273987
0.4263838231563568 0.2550889849662781 0.558885395526886
0.5056479573249817 0.1555432677268982 0.5058062672615051
0.45071956515312195 0.25769928097724915 0.5653520226478577
0.4533824324607849 0.30728083848953247 0.5270551443099976
0.4523332417011261 0.22452425956726074 0.5783907175064087
0.5389916896820068 0.2778703570365906 0.4332929253578186
0.4195815920829773 0.2695348262786865 0.5029109716415405
0.49148041009902954 0.2283082753419876 0.5829025506973267
0.5614641308784485 0.2617000937461853 0.599303662776947
0.48068979382514954 0.3121994733810425 0.5180703997612
0.4666399657726288 0.3344225287437439 0.5474110245704651
0.475777804851532 0.26987138390541077 0.5520432591438293
0.3623935282230377 0.19963867962360382 0.46422770619392395
0.3623935282230377 0.19963867962360382 0.46422770619392395
0.5448406934738159 0.20506206154823303 0.4302155673503876
0.36681079864501953 0.21669909358024597 0.48009535670280457
0.4485216438770294 0.20629513263702393 0.42239680886268616
0.42788928747177124 0.24002686142921448 0.4226207733154297
0.4147079288959503 0.25527429580688477 0.4562996029853821
0.4680597186088562 0.22898343205451965 0.5027068257331848
0.46631330251693726 0.3633679747581482 0.48174604773521423
0.3734080195426941 0.20113441348075867 0.44414275884628296
0.48236513137817383 0.3227277100086212 0.5987027883529663
0.431297242641449 0.29761403799057007 0.4628211259841919
0.5127248167991638 0.21113790571689606 0.520934522151947
0.45431071519851685 0.22451205551624298 0.47466933727264404
0.40911900997161865 0.29615673422813416 0.5135260820388794
0.4042470157146454 0.29761072993278503 0.5745707154273987
0.4263838231563568 0.2550889849662781 0.558885395526886
0.5056479573249817 0.1555432677268982 0.5058062672615051
0.45071956515312195 0.25769928097724915 0.5653520226478577
0.4533824324607849 0.30728083848953247 0.5270551443099976
0.4523332417011261 0.22452425956726074 0.5783907175064087
0.5389916896820068 0.2778703570365906 0.4332929253578186
0.36913877725601196 0.22290673851966858 0.507051944732666
0.5614641308784485 0.2617000937461853 0.599303662776947
0.48068979382514954 0.3121994733810425 0.5180703997612
0.4666399657726288 0.3344225287437439 0.5474110245704651
0.475777804851532 0.26987138390541077 0.5520432591438293
0.3623935282230377 0.19963867962360382 0.46422770619392395
0.5448406934738159 0.20506206154823303 0.4302155673503876
0.3625169098377228 0.2395765781402588 0.4420764446258545
0.48854148387908936 0.16195224225521088 0.48981958627700806
0.46810483932495117 0.29208600521087646 0.6014798879623413
0.4525260627269745 0.25080054998397827 0.6117287278175354
0.5465173721313477 0.24174733459949493 0.43867719173431396
0.4668082594871521 0.2647888660430908 0.4255618453025818
0.43308722972869873 0.22038988769054413 0.4504892826080322
0.4222003221511841 0.26807618141174316 0.544212281703949
0.5090195536613464 0.3217464089393616 0.5097113251686096
0.5306397676467896 0.2312009036540985 0.41003909707069397
0.36622354388237 0.2010389268398285 0.48328688740730286
0.411152184009552 0.29645124077796936 0.5787442326545715
0.4590529501438141 0.15149588882923126 0.5490465760231018
0.5447396039962769 0.2768823504447937 0.5720912218093872
0.45477229356765747 0.16299551725387573 0.4824688732624054
0.4295358657836914 0.1746177077293396 0.40535080432891846
0.40251123905181885 0.2853817641735077 0.4312976896762848
0.427420973777771 0.28105664253234863 0.5318965315818787
0.4076102077960968 0.3052538335323334 0.5779572129249573
0.4863816797733307 0.19989381730556488 0.458487868309021
0.3949682116508484 0.24875950813293457 0.4144185185432434
0.45438143610954285 0.20589596033096313 0.5812529921531677
0.5376383066177368 0.270195335149765 0.481662780046463
0.4026973247528076 0.2302546352148056 0.5773184299468994
0.4744100570678711 0.17873844504356384 0.45098379254341125
0.5172290802001953 0.24456177651882172 0.41169753670692444
0.5630367994308472 0.2423478066921234 0.4633668065071106
0.49336081743240356 0.26604264974594116 0.47578758001327515
0.5145354866981506 0.2945253849029541 0.5035681128501892
0.5076467394828796 0.2468385249376297 0.4765014052391052
0.5062340497970581 0.1626567393541336 0.5708897113800049
0.43624770641326904 0.33985525369644165 0.5857897400856018
0.40967023372650146 0.2358872890472412 0.43535175919532776
0.39031943678855896 0.2241123914718628 0.4045534133911133
0.5002692937850952 0.23822106420993805 0.5676463842391968
0.49748489260673523 0.30279985070228577 0.5150189995765686
0.5644198656082153 0.26017045974731445 0.4444393813610077
0.38550400733947754 0.22205419838428497 0.4219042658805847
0.5526052713394165 0.22999007999897003 0.5751994252204895
0.4759174883365631 0.27437469363212585 0.4369073212146759
0.5093224048614502 0.32440513372421265 0.5250787734985352
0.4679340720176697 0.20260374248027802 0.5435315370559692
0.49603819847106934 0.28792646527290344 0.5398989915847778
0.5225984454154968 0.2801315188407898 0.4777132272720337
0.483724445104599 0.1471681445837021 0.5971977710723877
0.5587986707687378 0.22351223230361938 0.5959244966506958
0.4304916560649872 0.21410831809043884 0.42805126309394836
0.5306663513183594 0.20243577659130096 0.4672496020793915
0.5634029507637024 0.2513889670372009 0.5436949133872986
0.5181440114974976 0.23195317387580872 0.4416285753250122
0.39201125502586365 0.19497817754745483 0.5996784567832947
0.512767493724823 0.1589365154504776 0.40685784816741943
0.45234057307243347 0.2583274245262146 0.5631518959999084
0.3683570325374603 0.21407367289066315 0.5737209916114807
0.4359095096588135 0.13390898704528809 0.5733939409255981
0.4045134484767914 0.3117277920246124 0.6037319302558899
0.543752133846283 0.23239798843860626 0.42065688967704773
0.43166062235832214 0.1430644989013672 0.5794357657432556
0.4195815920829773 0.2695348262786865 0.5029109716415405
0.41042399406433105 0.2193487137556076 0.4781770408153534
0.5524657368659973 0.2572598159313202 0.5718797445297241
0.3603076636791229 0.2559139132499695 0.5683177709579468
0.42396247386932373 0.28606706857681274 0.42088109254837036
0.4841446876525879 0.2826510965824127 0.5359043478965759
0.49790331721305847 0.22104720771312714 0.5888447761535645
0.4467681646347046 0.313697874546051 0.5616229772567749
0.42788928747177124 0.24002686142921448 0.4226207733154297
0.46619248390197754 0.19221271574497223 0.43219056725502014
0.40535807609558105 0.23808972537517548 0.6039862036705017
0.37092337012290955 0.24132102727890015 0.5165222883224487
