ply
format ascii 1.0
element vertex 826
property float x
property float y
property float z
end_header
0.5036245584487915 0.1937938630580902 0.4770297408103943
0.4549722373485565 0.3461380898952484 0.47835618257522583
0.46156033873558044 0.3362348675727844 0.5048123598098755
0.4387499988079071 0.34632551670074463 0.4556073844432831
0.4626314043998718 0.21377591788768768 0.4737016558647156
0.5024638175964355 0.2582601010799408 0.5857452750205994
0.4900917708873749 0.1750488430261612 0.5718060731887817
0.48420172929763794 0.1941048949956894 0.5877324938774109
0.47714388370513916 0.3144497871398926 0.5702129602432251
0.5676512122154236 0.25809213519096375 0.6134909391403198
0.47530028223991394 0.3277364671230316 0.44671693444252014
0.4010637402534485 0.28803959488868713 0.5760043859481812
0.43577566742897034 0.2775411903858185 0.562520444393158
0.39951494336128235 0.25339603424072266 0.43500640988349915
0.38892343640327454 0.25236865878105164 0.42372485995292664
0.5354469418525696 0.21467852592468262 0.5479744076728821
0.41722339391708374 0.1607602834701538 0.41928279399871826
0.46287965774536133 0.3413211703300476 0.4881752133369446
0.3521175682544708 0.21432726085186005 0.41279783844947815
0.34666743874549866 0.2790193259716034 0.4214620888233185
0.41322922706604004 0.1844579130411148 0.5530409216880798
0.5347715616226196 0.24187883734703064 0.5371174812316895
0.4274308979511261 0.18306131660938263 0.5119267702102661
0.37952136993408203 0.3248745799064636 0.510789155960083
0.37232616543769836 0.201558455824852 0.4166531264781952
0.4045146405696869 0.36297860741615295 0.4847509562969208
0.48703664541244507 0.23157167434692383 0.4131060242652893
0.46935778856277466 0.1724722981452942 0.5262705087661743
0.4719366133213043 0.12481008470058441 0.5064826607704163
0.5133814215660095 0.3084312677383423 0.419562965631485
0.41350623965263367 0.23876962065696716 0.603990912437439
0.4646073579788208 0.20988117158412933 0.4708706736564636
0.510071337223053 0.273723840713501 0.5854601860046387
0.4579020142555237 0.2312408834695816 0.5336914658546448
0.5524195432662964 0.2827475368976593 0.49280351400375366
0.3380384147167206 0.24169990420341492 0.5010955929756165
0.3683316707611084 0.23309457302093506 0.6040331721305847
0.4622017741203308 0.2721409499645233 0.559971272945404
0.4263685941696167 0.21772930026054382 0.46257221698760986
0.34514087438583374 0.2653924226760864 0.5821377635002136
0.5369378328323364 0.23598197102546692 0.471134752035141
0.5157468914985657 0.17449674010276794 0.5884241461753845
0.45879125595092773 0.3018018305301666 0.4908619821071625
0.47236600518226624 0.3085203766822815 0.4848566949367523
0.5126615762710571 0.1535254567861557 0.5866124629974365
0.5543805956840515 0.2774978280067444 0.4386885166168213
0.3299446105957031 0.23715370893478394 0.6005898118019104
0.4928642213344574 0.2350388616323471 0.49576863646507263
0.48355281352996826 0.1283225566148758 0.4890594184398651
0.4504248797893524 0.20267008244991302 0.42596662044525146
0.41006234288215637 0.17609849572181702 0.592178225517273
0.46923312544822693 0.3536056876182556 0.46959662437438965
0.525769054889679 0.19369132816791534 0.5659657716751099
0.4460547864437103 0.3701249063014984 0.5054457187652588
0.4877050518989563 0.25355514883995056 0.41393810510635376
0.3817841410636902 0.19447433948516846 0.4350789189338684
0.45993146300315857 0.2008330374956131 0.5359599590301514
0.513304591178894 0.3049655258655548 0.484164834022522
0.44925183057785034 0.2688392102718353 0.48707315325737
0.40391403436660767 0.27974146604537964 0.44094011187553406
0.4737359285354614 0.28972697257995605 0.5480702519416809
0.5609062910079956 0.2825413942337036 0.4299725294113159
0.4710208475589752 0.17022503912448883 0.47235971689224243
0.470126211643219 0.2637278437614441 0.412474662065506
0.4040791690349579 0.32339203357696533 0.5514156818389893
0.48817792534828186 0.11690466850996017 0.5629063844680786
0.38260650634765625 0.32799032330513 0.4860922396183014
0.3408045172691345 0.2187201827764511 0.46439477801322937
0.4987216293811798 0.2473999261856079 0.47211185097694397
0.4429420828819275 0.30562853813171387 0.46131426095962524
0.48377537727355957 0.2690020203590393 0.5758145451545715
0.47157007455825806 0.19955557584762573 0.41405820846557617
0.45167243480682373 0.2360484004020691 0.48562780022621155
0.45096340775489807 0.24373675882816315 0.49772408604621887
0.35704007744789124 0.23687756061553955 0.5962522625923157
0.3785828649997711 0.20425927639007568 0.5799676179885864
0.4529271125793457 0.3540492355823517 0.4653990566730499
0.49070069193840027 0.15264782309532166 0.5040067434310913
0.4463158845901489 0.35869601368904114 0.4268835186958313
0.43955743312835693 0.25492948293685913 0.4156031012535095
0.5354886054992676 0.20878754556179047 0.4626113176345825
0.4093095660209656 0.23591244220733643 0.5974969863891602
0.4808659851551056 0.3138901889324188 0.42906150221824646
0.45930424332618713 0.21308550238609314 0.574091374874115
0.3941107392311096 0.2565782368183136 0.5881446003913879
0.3986383378505707 0.25730881094932556 0.5221866965293884
0.3914288878440857 0.30413779616355896 0.5447760224342346
0.4238490164279938 0.19016265869140625 0.4144206941127777
0.41086435317993164 0.2548941671848297 0.5438231825828552
0.47351953387260437 0.17768587172031403 0.40234366059303284
0.4730364978313446 0.30499598383903503 0.5613672733306885
0.4680589437484741 0.18194615840911865 0.44500458240509033
0.41147348284721375 0.3009352684020996 0.5774149298667908
0.4287108778953552 0.24906843900680542 0.4662794768810272
0.3495994806289673 0.2589987516403198 0.5028360486030579
0.4672801196575165 0.1606113314628601 0.46260419487953186
0.3555624485015869 0.27266305685043335 0.43368226289749146
0.4301002621650696 0.35409754514694214 0.525079607963562
0.4686453640460968 0.3293023705482483 0.5193008780479431
0.38485708832740784 0.31390172243118286 0.6034234762191772
0.3243618905544281 0.24133841693401337 0.4106631278991699
0.45933249592781067 0.32534804940223694 0.5338807106018066
0.49935415387153625 0.17256970703601837 0.5261639952659607
0.38717928528785706 0.18723000586032867 0.4577130675315857
0.48491978645324707 0.3386157751083374 0.42247962951660156
0.45113474130630493 0.1889975219964981 0.4177680015563965
0.41444164514541626 0.36089709401130676 0.504658043384552
0.48997288942337036 0.15997274219989777 0.5133469700813293
0.36505556106567383 0.2243446558713913 0.5736302733421326
0.45057961344718933 0.20221561193466187 0.5407297015190125
0.46567344665527344 0.15863296389579773 0.5625240206718445
0.46245715022087097 0.29866302013397217 0.4455138146877289
0.4343143105506897 0.32588186860084534 0.5539892315864563
0.42285704612731934 0.33420005440711975 0.4778977930545807
0.33360984921455383 0.23570497334003448 0.5977558493614197
0.5285892486572266 0.30623629689216614 0.43341436982154846
0.38452380895614624 0.18806931376457214 0.5104658603668213
0.43188247084617615 0.17825397849082947 0.5872386693954468
0.4309471845626831 0.24743634462356567 0.49543195962905884
0.31145018339157104 0.22247743606567383 0.49602651596069336
0.4018918573856354 0.3030012547969818 0.546777069568634
0.40510404109954834 0.23845094442367554 0.5179453492164612
0.39729735255241394 0.23209655284881592 0.4112207889556885
0.31623154878616333 0.22521831095218658 0.4422074258327484
0.38050422072410583 0.26356229186058044 0.6068564057350159
0.49913254380226135 0.21300743520259857 0.5716792941093445
0.37521037459373474 0.2700752019882202 0.5015409588813782
0.5074666142463684 0.2196035385131836 0.5869871377944946
0.38013553619384766 0.32839468121528625 0.4688449203968048
0.42356064915657043 0.1952625811100006 0.5035874843597412
0.4336913526058197 0.20844566822052002 0.5810406804084778
0.48509305715560913 0.1910390853881836 0.46355530619621277
0.4759654998779297 0.20395033061504364 0.41918811202049255
0.5262280702590942 0.2049688696861267 0.4473938047885895
0.43450653553009033 0.2420874685049057 0.4219178259372711
0.42281827330589294 0.23545825481414795 0.43256303668022156
0.5341251492500305 0.19995838403701782 0.5468565225601196
0.31794214248657227 0.227306067943573 0.4350903630256653
0.325676292181015 0.24301466345787048 0.4197756052017212
0.3910199999809265 0.21165843307971954 0.5169767141342163
0.5102260112762451 0.25134414434432983 0.48258572816848755
0.4889998137950897 0.2707839608192444 0.43652111291885376
0.3476600646972656 0.22199112176895142 0.41091594099998474
0.46198418736457825 0.3508340120315552 0.4808048605918884
0.4515601098537445 0.19144314527511597 0.4114021956920624
0.32963770627975464 0.20959457755088806 0.5563981533050537
0.4215351939201355 0.3729560971260071 0.4494529366493225
0.5224979519844055 0.24594824016094208 0.4556708335876465
0.4270433187484741 0.2126072198152542 0.5138446092605591
0.40787625312805176 0.23333215713500977 0.5529153347015381
0.416220486164093 0.2676068842411041 0.5406889915466309
0.34794121980667114 0.2747850716114044 0.4542087912559509
0.40002351999282837 0.28750962018966675 0.5836741328239441
0.45176419615745544 0.23995928466320038 0.5059669017791748
0.5205994844436646 0.2304096817970276 0.5331567525863647
0.4532289206981659 0.19980044662952423 0.4165385961532593
0.4483949840068817 0.24037835001945496 0.5920071601867676
0.4604531526565552 0.3457369804382324 0.5306519865989685
0.43703341484069824 0.2942907214164734 0.42214128375053406
0.5074666142463684 0.2196035385131836 0.5869871377944946
0.38013553619384766 0.32839468121528625 0.4688449203968048
0.42356064915657043 0.1952625811100006 0.5035874843597412
0.4336913526058197 0.20844566822052002 0.5810406804084778
0.48509305715560913 0.1910390853881836 0.46355530619621277
0.4759654998779297 0.20395033061504364 0.41918811202049255
0.5262280702590942 0.2049688696861267 0.4473938047885895
0.4592304527759552 0.20224237442016602 0.4872993528842926
0.551652729511261 0.23196862637996674 0.61162930727005
0.47969040274620056 0.20905975997447968 0.4440290331840515
0.48016098141670227 0.1462826132774353 0.520050048828125
0.5041847825050354 0.15695814788341522 0.512287974357605
0.4635504484176636 0.3499324321746826 0.4966239035129547
0.39354249835014343 0.3127008080482483 0.42437800765037537
0.5446836948394775 0.2646152675151825 0.45218414068222046
0.38839617371559143 0.2903687655925751 0.5077587366104126
0.3669353127479553 0.2132134735584259 0.4322824776172638
0.4881322979927063 0.12659208476543427 0.5770390629768372
0.418498158454895 0.3380829989910126 0.4656120538711548
0.37879258394241333 0.3097667396068573 0.4235473871231079
0.43042242527008057 0.33709973096847534 0.42005831003189087
0.40446385741233826 0.2715824246406555 0.5634784698486328
0.34432733058929443 0.24983547627925873 0.5530102252960205
0.38050422072410583 0.26356229186058044 0.6068564057350159
0.49913254380226135 0.21300743520259857 0.5716792941093445
0.37521037459373474 0.2700752019882202 0.5015409588813782
0.5074666142463684 0.2196035385131836 0.5869871377944946
0.38013553619384766 0.32839468121528625 0.4688449203968048
0.42356064915657043 0.1952625811100006 0.5035874843597412
0.4336913526058197 0.20844566822052002 0.5810406804084778
0.48509305715560913 0.1910390853881836 0.46355530619621277
0.4759654998779297 0.20395033061504364 0.41918811202049255
0.5262280702590942 0.2049688696861267 0.4473938047885895
0.4995235800743103 0.2034643143415451 0.5801297426223755
0.5463114380836487 0.22197191417217255 0.569730281829834
0.5018199682235718 0.3269689977169037 0.5258054137229919
0.47762414813041687 0.3143622577190399 0.4416073262691498
0.4525585174560547 0.1570114940404892 0.5833532810211182
0.4344364404678345 0.15106724202632904 0.4057290554046631
0.34459057450294495 0.22790709137916565 0.569616973400116
0.43955743312835693 0.25492948293685913 0.4156031012535095
0.5354886054992676 0.20878754556179047 0.4626113176345825
0.4093095660209656 0.23591244220733643 0.5974969863891602
0.4266059398651123 0.19771063327789307 0.5064589977264404
0.4983125925064087 0.3232945501804352 0.57016921043396
0.3310554027557373 0.24722230434417725 0.5448009967803955
0.49755939841270447 0.21550624072551727 0.5101292729377747
0.45210787653923035 0.3363305330276489 0.6163598299026489
0.46041226387023926 0.21815143525600433 0.6042252779006958
0.4268656373023987 0.14336660504341125 0.47783052921295166
0.41906362771987915 0.19887061417102814 0.5611271858215332
0.46114304661750793 0.34582045674324036 0.5673173069953918
0.438547819852829 0.1435220092535019 0.40851661562919617
0.4996051788330078 0.17292557656764984 0.4302983582019806
0.3807283639907837 0.23365461826324463 0.5581181049346924
0.3338280916213989 0.24553899466991425 0.5163112878799438
0.33533236384391785 0.26864999532699585 0.44217783212661743
0.41915374994277954 0.38125884532928467 0.4802618622779846
0.40443968772888184 0.2592669725418091 0.4816787540912628
0.47887277603149414 0.18840761482715607 0.602804958820343
0.35156166553497314 0.19333983957767487 0.48639097809791565
0.4080345034599304 0.2262575328350067 0.5089483261108398
0.4608038663864136 0.2597869336605072 0.5166500210762024
0.4036899507045746 0.2407790571451187 0.5250881314277649
0.439371258020401 0.3278011679649353 0.4235236942768097
0.4880714416503906 0.31019866466522217 0.46944698691368103
0.4344673752784729 0.24035939574241638 0.4613969922065735
0.4757729768753052 0.11893664300441742 0.5339470505714417
0.36790069937705994 0.22273504734039307 0.6034843325614929
0.5228962302207947 0.20090419054031372 0.5664951205253601
0.3577370047569275 0.23917126655578613 0.5382814407348633
0.45167243480682373 0.2360484004020691 0.48562780022621155
0.38269609212875366 0.3157213032245636 0.6093596816062927
0.4467307925224304 0.13511040806770325 0.545899510383606
0.4158996343612671 0.1866466999053955 0.5789964199066162
0.4657984972000122 0.3121827244758606 0.5152261853218079
0.469512939453125 0.30098360776901245 0.4755423367023468
0.4811001718044281 0.250005304813385 0.49874651432037354
0.3972088694572449 0.21883930265903473 0.41756367683410645
0.4927949905395508 0.18091896176338196 0.5663744211196899
0.4701986312866211 0.32984375953674316 0.5089427828788757
0.4872717261314392 0.34117215871810913 0.4474349319934845
0.4892165958881378 0.17250016331672668 0.5034208297729492
0.4980122745037079 0.22759762406349182 0.5021384358406067
0.45603489875793457 0.15305854380130768 0.5814809799194336
0.4733273386955261 0.28572162985801697 0.46991869807243347
0.360310435295105 0.17544782161712646 0.5946566462516785
0.38050422072410583 0.26356229186058044 0.6068564057350159
0.49913254380226135 0.21300743520259857 0.5716792941093445
0.37521037459373474 0.2700752019882202 0.5015409588813782
0.5074666142463684 0.2196035385131836 0.5869871377944946
0.38013553619384766 0.32839468121528625 0.4688449203968048
0.42356064915657043 0.1952625811100006 0.5035874843597412
0.45736780762672424 0.29563668370246887 0.5024344325065613
0.5367305874824524 0.28313395380973816 0.4821142852306366
0.40444448590278625 0.3329228460788727 0.4994443953037262
0.49504774808883667 0.1734144687652588 0.43758487701416016
0.48831698298454285 0.23261798918247223 0.4936544597148895
0.5467401742935181 0.27822259068489075 0.6038958430290222
0.45873525738716125 0.3179405629634857 0.4810813367366791
0.36291804909706116 0.1957649141550064 0.4051840901374817
0.4343363642692566 0.14077264070510864 0.5574416518211365
0.47562432289123535 0.24779924750328064 0.5056419968605042
0.4828267991542816 0.1503843516111374 0.5709728002548218
0.49820786714553833 0.1458515226840973 0.6015235781669617
0.4024946093559265 0.34432125091552734 0.5705211758613586
0.4808659851551056 0.3138901889324188 0.42906150221824646
0.45930424332618713 0.21308550238609314 0.574091374874115
0.3941107392311096 0.2565782368183136 0.5881446003913879
0.3986383378505707 0.25730881094932556 0.5221866965293884
0.3914288878440857 0.30413779616355896 0.5447760224342346
0.4238490164279938 0.19016265869140625 0.4144206941127777
0.41086435317993164 0.2548941671848297 0.5438231825828552
0.38893237709999084 0.18874219059944153 0.49839144945144653
0.4808417856693268 0.2128533273935318 0.4389258325099945
0.47984710335731506 0.18113592267036438 0.5580341815948486
0.3334191143512726 0.23481012880802155 0.44357529282569885
0.3705700933933258 0.24959295988082886 0.5248427391052246
0.48907825350761414 0.16953544318675995 0.5209349393844604
0.3894997537136078 0.24193920195102692 0.601743221282959
0.42467665672302246 0.16989080607891083 0.43770691752433777
0.4664596915245056 0.1310480833053589 0.5092725157737732
0.4843587875366211 0.24299129843711853 0.44545915722846985
0.5239856243133545 0.266669899225235 0.4860779941082001
0.3933950662612915 0.1787492334842682 0.5499716997146606
0.5394192337989807 0.2688489258289337 0.41218915581703186
0.4107169210910797 0.2993736267089844 0.582003653049469
0.46429264545440674 0.12305659800767899 0.5704967379570007
0.33954256772994995 0.24471081793308258 0.5439069271087646
0.5481133460998535 0.24943996965885162 0.45363160967826843
0.40538403391838074 0.28381699323654175 0.591351330280304
0.44747743010520935 0.298104852437973 0.5835912823677063
0.4600756764411926 0.22000524401664734 0.5407053232192993
0.5146057605743408 0.2733127772808075 0.5774922966957092
0.4572415351867676 0.30757758021354675 0.6153682470321655
0.41587331891059875 0.37698110938072205 0.43361422419548035
0.5299766063690186 0.24381010234355927 0.41698113083839417
0.4749055504798889 0.20260371267795563 0.5028126835823059
0.5460048913955688 0.24625913798809052 0.45610731840133667
0.4934954345226288 0.273237943649292 0.42410749197006226
0.48698338866233826 0.255308598279953 0.4743734300136566
0.4981625974178314 0.20114929974079132 0.4545924663543701
0.542908251285553 0.2544068992137909 0.5920140147209167
0.4836820960044861 0.1350128948688507 0.43585145473480225
0.42240241169929504 0.189301535487175 0.5291001796722412
0.535695493221283 0.30179518461227417 0.43010589480400085
0.5172469019889832 0.24366547167301178 0.5921134352684021
0.5342760682106018 0.27266931533813477 0.43012455105781555
0.5136414766311646 0.25797387957572937 0.5147426724433899
0.4294361174106598 0.22929586470127106 0.4281131327152252
0.4402972459793091 0.22436319291591644 0.5593252182006836
0.5560641884803772 0.24058246612548828 0.5208734273910522
0.4433678686618805 0.21697670221328735 0.4772207736968994
0.4556487500667572 0.21310807764530182 0.547118604183197
0.4405997097492218 0.1591915339231491 0.4235159456729889
0.5022536516189575 0.18290716409683228 0.5568267107009888
0.4043278396129608 0.3012971878051758 0.604034423828125
0.5090296268463135 0.23436878621578217 0.45480290055274963
0.4011029899120331 0.1975640505552292 0.525019109249115
0.35802778601646423 0.24908684194087982 0.45978686213493347
0.4863339066505432 0.20900318026542664 0.4377690255641937
0.48399341106414795 0.25110265612602234 0.6039461493492126
0.47741639614105225 0.24900341033935547 0.6081132292747498
0.450793594121933 0.14616908133029938 0.5903242826461792
0.3964805603027344 0.1809619516134262 0.4993705153465271
0.5622761249542236 0.2627754509449005 0.573380172252655
0.45997190475463867 0.25164347887039185 0.5456501841545105
0.3817841410636902 0.19447433948516846 0.4350789189338684
0.4177611768245697 0.27735790610313416 0.6137226819992065
0.43054327368736267 0.32293087244033813 0.599992036819458
0.40001407265663147 0.24338398873806 0.505180835723877
0.4322448670864105 0.34802180528640747 0.45844024419784546
0.36365649104118347 0.28099939227104187 0.5723925232887268
0.4219725728034973 0.16846369206905365 0.564249575138092
0.5396277904510498 0.2505788207054138 0.579131543636322
0.48247212171554565 0.12375619262456894 0.5319038033485413
0.4448685348033905 0.26343294978141785 0.5075993537902832
0.4069652557373047 0.17852306365966797 0.5271806716918945
0.3948250412940979 0.17418496310710907 0.591403603553772
0.4070361256599426 0.3509836792945862 0.6157289147377014
0.41390055418014526 0.24746042490005493 0.462699830532074
0.45937907695770264 0.2256951481103897 0.5651622414588928
0.38301464915275574 0.2558395266532898 0.4512656033039093
0.471321165561676 0.13150566816329956 0.4401435852050781
0.515705406665802 0.31207406520843506 0.42931658029556274
0.44243139028549194 0.20876489579677582 0.5198108553886414
0.516777515411377 0.20008516311645508 0.5686262845993042
0.4484986662864685 0.3620799779891968 0.508298397064209
0.43891167640686035 0.2324831485748291 0.46851226687431335
0.4884510040283203 0.21708348393440247 0.5935195684432983
0.45131105184555054 0.23025141656398773 0.4357534945011139
0.48628681898117065 0.12876854836940765 0.46015825867652893
0.40208700299263 0.22994405031204224 0.4586397409439087
0.5063030123710632 0.2301909625530243 0.5698099136352539
0.42077791690826416 0.2710227966308594 0.4382377862930298
0.49248966574668884 0.27166759967803955 0.4399847388267517
0.48714515566825867 0.24243035912513733 0.41441383957862854
0.386940062046051 0.16994233429431915 0.5054311156272888
0.4295196831226349 0.31350627541542053 0.4828283190727234
0.4524138271808624 0.2387014776468277 0.4736723005771637
0.3683316707611084 0.23309457302093506 0.6040331721305847
0.450602650642395 0.3545597791671753 0.4624432325363159
0.42059338092803955 0.19035203754901886 0.5348667502403259
0.43294787406921387 0.219804584980011 0.44987595081329346
0.47918322682380676 0.11756987124681473 0.5346165895462036
0.46374252438545227 0.28871914744377136 0.49523353576660156
0.4200970232486725 0.1675296127796173 0.5311999917030334
0.4789249897003174 0.2952958345413208 0.5817607641220093
0.4416927397251129 0.26162484288215637 0.6056079864501953
0.5615715384483337 0.2607630789279938 0.5049588680267334
0.5347529053688049 0.24768468737602234 0.6004844903945923
0.496285080909729 0.2206563651561737 0.4824984073638916
0.3324025869369507 0.19942788779735565 0.5628330111503601
0.49399155378341675 0.28028422594070435 0.5971201062202454
0.5405719876289368 0.2616906762123108 0.4114428758621216
0.44828927516937256 0.2673625946044922 0.527122974395752
0.3473965525627136 0.20233340561389923 0.543175220489502
0.4735812544822693 0.1319744735956192 0.570906937122345
0.4736082851886749 0.1539602428674698 0.4363212287425995
0.4522517919540405 0.1693868190050125 0.46114394068717957
0.4660020172595978 0.2541576325893402 0.5190742015838623
0.33522093296051025 0.26805171370506287 0.43510350584983826
0.4276455342769623 0.230215921998024 0.47801774740219116
0.4188680648803711 0.2753438651561737 0.48494523763656616
0.48008063435554504 0.20466658473014832 0.5298015475273132
0.4832398295402527 0.28474268317222595 0.4782259464263916
0.511045515537262 0.21695248782634735 0.4372737407684326
0.33464929461479187 0.22916816174983978 0.5230721831321716
0.47545865178108215 0.33264052867889404 0.4511812627315521
0.49935266375541687 0.23912587761878967 0.5575140714645386
0.4681846499443054 0.13417072594165802 0.4011193811893463
0.441066712141037 0.3619675934314728 0.5413405299186707
0.3784359097480774 0.22474455833435059 0.42551541328430176
0.4058012068271637 0.237913116812706 0.5936712622642517
0.42130884528160095 0.20456841588020325 0.4694065749645233
0.3957749009132385 0.1713872253894806 0.44224852323532104
0.5678108930587769 0.259850412607193 0.5650820732116699
0.3265586793422699 0.23812930285930634 0.4668947458267212
0.42246055603027344 0.30744338035583496 0.44530242681503296
0.5079496502876282 0.260935515165329 0.5510536432266235
0.5031954646110535 0.23614051938056946 0.5921834707260132
0.4643232822418213 0.3285198509693146 0.5400428771972656
0.4408375918865204 0.12905491888523102 0.5485906600952148
0.33699992299079895 0.22341588139533997 0.4850941598415375
0.4289439022541046 0.3434567153453827 0.4517110288143158
0.5191920399665833 0.2904142141342163 0.4142586290836334
0.4875490069389343 0.1875726282596588 0.49551817774772644
0.38359534740448 0.32317137718200684 0.4238286018371582
0.4532783031463623 0.232527956366539 0.5447167158126831
0.4327317178249359 0.2870107591152191 0.5664292573928833
0.39616644382476807 0.33124464750289917 0.5768768787384033
0.5579493641853333 0.22808757424354553 0.5590384602546692
0.4723997712135315 0.1918799728155136 0.5966062545776367
0.46984341740608215 0.2892306447029114 0.45457369089126587
0.4945547580718994 0.20038384199142456 0.43517711758613586
0.36798083782196045 0.24255914986133575 0.4110521674156189
0.48646610975265503 0.20368096232414246 0.59957355260849
0.35398659110069275 0.2861466407775879 0.4681040048599243
0.42985397577285767 0.3335714340209961 0.476701945066452
0.3548486828804016 0.19344942271709442 0.48638075590133667
0.4998791515827179 0.24641619622707367 0.5271501541137695
0.5570651292800903 0.25488969683647156 0.4954187273979187
0.3726552128791809 0.2792413532733917 0.4326300621032715
0.48907825350761414 0.16953544318675995 0.5209349393844604
0.5228887796401978 0.21145491302013397 0.40991660952568054
0.4099709689617157 0.21819345653057098 0.5459640026092529
0.5590071082115173 0.2619067430496216 0.47737258672714233
0.46429264545440674 0.12305659800767899 0.5704967379570007
0.33954256772994995 0.24471081793308258 0.5439069271087646
0.5481133460998535 0.24943996965885162 0.45363160967826843
0.40538403391838074 0.28381699323654175 0.591351330280304
0.44747743010520935 0.298104852437973 0.5835912823677063
0.4600756764411926 0.22000524401664734 0.5407053232192993
0.5146057605743408 0.2733127772808075 0.5774922966957092
0.4572415351867676 0.30757758021354675 0.6153682470321655
0.45104724168777466 0.2466135174036026 0.5268725156784058
0.5337472558021545 0.2910539209842682 0.47425132989883423
0.4974474608898163 0.2612488567829132 0.5705971717834473
0.4263835549354553 0.37548789381980896 0.5397798418998718
0.4464719891548157 0.16651234030723572 0.44139307737350464
0.3646261990070343 0.20704522728919983 0.4681498408317566
0.4480002224445343 0.3750883936882019 0.43277668952941895
0.5425420999526978 0.2655264735221863 0.5576942563056946
0.38476523756980896 0.27282676100730896 0.5837404727935791
0.4316349923610687 0.3056659698486328 0.4706004559993744
0.45568519830703735 0.3224296569824219 0.558958888053894
0.4694809317588806 0.18352022767066956 0.5948909521102905
0.40455490350723267 0.22168183326721191 0.489479660987854
0.350096732378006 0.21344450116157532 0.5140106081962585
0.46122556924819946 0.2309078425168991 0.4882168471813202
0.4026499092578888 0.2524489164352417 0.6033895611763
0.5513498187065125 0.2333558350801468 0.47886309027671814
0.4410378932952881 0.2364559769630432 0.4422757625579834
0.4126026928424835 0.24547751247882843 0.5374175310134888
0.4505588412284851 0.2927294373512268 0.5259588360786438
0.5266258716583252 0.2804294228553772 0.44454067945480347
0.36291804909706116 0.1957649141550064 0.4051840901374817
0.4343363642692566 0.14077264070510864 0.5574416518211365
0.5046226382255554 0.2548908293247223 0.47969090938568115
0.41072607040405273 0.15853171050548553 0.5805140137672424
0.48045164346694946 0.15628628432750702 0.5407418012619019
0.41817548871040344 0.3251310884952545 0.5033197402954102
0.40336883068084717 0.26201266050338745 0.6076094508171082
0.5195318460464478 0.30473196506500244 0.5609304904937744
0.534001886844635 0.29026612639427185 0.4312766194343567
0.540235161781311 0.2625363767147064 0.4861740469932556
0.49865618348121643 0.22605493664741516 0.47138282656669617
0.3988880515098572 0.20606443285942078 0.5959311723709106
0.38132911920547485 0.22597844898700714 0.5340955257415771
0.33627742528915405 0.22935901582241058 0.5241615772247314
0.33934634923934937 0.20704947412014008 0.4708649218082428
0.5591396689414978 0.2726575434207916 0.4919516146183014
0.47705721855163574 0.256619930267334 0.4552494287490845
0.3984972834587097 0.15226201713085175 0.5966338515281677
0.39616644382476807 0.33124464750289917 0.5768768787384033
0.5579493641853333 0.22808757424354553 0.5590384602546692
0.4723997712135315 0.1918799728155136 0.5966062545776367
0.46984341740608215 0.2892306447029114 0.45457369089126587
0.4945547580718994 0.20038384199142456 0.43517711758613586
0.36798083782196045 0.24255914986133575 0.4110521674156189
0.48646610975265503 0.20368096232414246 0.59957355260849
0.35398659110069275 0.2861466407775879 0.4681040048599243
0.42985397577285767 0.3335714340209961 0.476701945066452
0.3548486828804016 0.19344942271709442 0.48638075590133667
0.4998791515827179 0.24641619622707367 0.5271501541137695
0.5570651292800903 0.25488969683647156 0.4954187273979187
0.3726552128791809 0.2792413532733917 0.4326300621032715
0.5297014713287354 0.25327354669570923 0.4612995386123657
0.4854847490787506 0.15550003945827484 0.5671101808547974
0.40531837940216064 0.344937264919281 0.6201107501983643
0.33928757905960083 0.22546516358852386 0.5830047726631165
0.47055700421333313 0.31078040599823 0.5075023174285889
0.5424566864967346 0.24103857576847076 0.4660866856575012
0.38120871782302856 0.19300289452075958 0.4713800549507141
0.4414431154727936 0.3653298020362854 0.4552491307258606
0.4255157709121704 0.23013529181480408 0.5484020113945007
0.470485121011734 0.295584112405777 0.5996994972229004
0.4037168323993683 0.2347431480884552 0.4726327955722809
0.475432813167572 0.2809307277202606 0.601026177406311
0.38461312651634216 0.23908443748950958 0.5170727372169495
0.5143638253211975 0.21095234155654907 0.5194539427757263
0.4430292844772339 0.35454660654067993 0.4691429138183594
0.39616644382476807 0.33124464750289917 0.5768768787384033
0.5579493641853333 0.22808757424354553 0.5590384602546692
0.4723997712135315 0.1918799728155136 0.5966062545776367
0.46984341740608215 0.2892306447029114 0.45457369089126587
0.4945547580718994 0.20038384199142456 0.43517711758613586
0.36798083782196045 0.24255914986133575 0.4110521674156189
0.48646610975265503 0.20368096232414246 0.59957355260849
0.35398659110069275 0.2861466407775879 0.4681040048599243
0.42985397577285767 0.3335714340209961 0.476701945066452
0.3548486828804016 0.19344942271709442 0.48638075590133667
0.4998791515827179 0.24641619622707367 0.5271501541137695
0.5570651292800903 0.25488969683647156 0.4954187273979187
0.3726552128791809 0.2792413532733917 0.4326300621032715
0.4429786801338196 0.23942403495311737 0.44250261783599854
0.5184891819953918 0.19994504749774933 0.4993704557418823
0.350730836391449 0.21607400476932526 0.574855625629425
0.5570244193077087 0.25652968883514404 0.47023752331733704
0.4186001718044281 0.37821710109710693 0.47460365295410156
0.516777515411377 0.20008516311645508 0.5686262845993042
0.4484986662864685 0.3620799779891968 0.508298397064209
0.43891167640686035 0.2324831485748291 0.46851226687431335
0.4884510040283203 0.21708348393440247 0.5935195684432983
0.45131105184555054 0.23025141656398773 0.4357534945011139
0.48628681898117065 0.12876854836940765 0.46015825867652893
0.40208700299263 0.22994405031204224 0.4586397409439087
0.48597902059555054 0.3107154965400696 0.5569164156913757
0.32235661149024963 0.21904198825359344 0.4703463017940521
0.40933701395988464 0.18853671848773956 0.5271169543266296
0.47806060314178467 0.1676701009273529 0.525137722492218
0.46056902408599854 0.1228659525513649 0.5184938907623291
0.4658232033252716 0.23598086833953857 0.4502193331718445
0.5395072102546692 0.26366356015205383 0.451924204826355
0.5563890933990479 0.24610021710395813 0.43896737694740295
0.4603348970413208 0.3185279071331024 0.4547266364097595
0.4527494013309479 0.24283470213413239 0.5546090006828308
0.44904235005378723 0.29252636432647705 0.43270090222358704
0.35812607407569885 0.26574674248695374 0.5665908455848694
0.41800275444984436 0.3720588982105255 0.5527034997940063
0.47088029980659485 0.1315266638994217 0.4261336028575897
0.5082307457923889 0.26283925771713257 0.6059570908546448
0.39188286662101746 0.3325316607952118 0.46273767948150635
0.4821561574935913 0.1892663836479187 0.4637843668460846
0.3753136694431305 0.2593498229980469 0.5650412440299988
0.45255187153816223 0.22187861800193787 0.4949911832809448
0.38740453124046326 0.21570459008216858 0.4614996612071991
0.4685465693473816 0.28476276993751526 0.41903090476989746
0.5157719254493713 0.3050834834575653 0.5842989087104797
0.41702350974082947 0.2889730632305145 0.5080215930938721
0.44623038172721863 0.2592299282550812 0.46718698740005493
0.33954256772994995 0.24471081793308258 0.5439069271087646
0.5022536516189575 0.18290716409683228 0.5568267107009888
0.4043278396129608 0.3012971878051758 0.604034423828125
0.5090296268463135 0.23436878621578217 0.45480290055274963
0.4011029899120331 0.1975640505552292 0.525019109249115
0.35802778601646423 0.24908684194087982 0.45978686213493347
0.4863339066505432 0.20900318026542664 0.4377690255641937
0.48399341106414795 0.25110265612602234 0.6039461493492126
0.47741639614105225 0.24900341033935547 0.6081132292747498
0.5622761249542236 0.2627754509449005 0.573380172252655
0.3762226700782776 0.26747018098831177 0.47486189007759094
0.35681965947151184 0.21431203186511993 0.5921750068664551
0.5049769282341003 0.15306788682937622 0.5893166661262512
0.4500439763069153 0.26230430603027344 0.5380380153656006
0.532291054725647 0.28349918127059937 0.47048813104629517
0.5628321766853333 0.2710490822792053 0.5366928577423096
0.48928385972976685 0.16671891510486603 0.4779687821865082
0.3193126618862152 0.2385784089565277 0.47169968485832214
0.47088029980659485 0.1315266638994217 0.4261336028575897
0.5082307457923889 0.26283925771713257 0.6059570908546448
0.39188286662101746 0.3325316607952118 0.46273767948150635
0.4336933493614197 0.182383731007576 0.4465714693069458
0.3833966851234436 0.19075162708759308 0.5086521506309509
0.5537224411964417 0.2565789520740509 0.48633459210395813
0.3671177327632904 0.2616855204105377 0.5404137969017029
0.4809008538722992 0.29253724217414856 0.47764313220977783
0.4706043004989624 0.17797967791557312 0.487966388463974
0.5385061502456665 0.1976805031299591 0.6053579449653625
0.44623038172721863 0.2592299282550812 0.46718698740005493
0.41028955578804016 0.16556356847286224 0.5467185378074646
0.48423799872398376 0.2825359106063843 0.5106096267700195
0.4218822419643402 0.27622243762016296 0.5125337839126587
0.5481133460998535 0.24943996965885162 0.45363160967826843
0.4043278396129608 0.3012971878051758 0.604034423828125
0.5090296268463135 0.23436878621578217 0.45480290055274963
0.4011029899120331 0.1975640505552292 0.525019109249115
0.35802778601646423 0.24908684194087982 0.45978686213493347
0.4863339066505432 0.20900318026542664 0.4377690255641937
0.48399341106414795 0.25110265612602234 0.6039461493492126
0.3456076681613922 0.2209499329328537 0.43424373865127563
0.3762226700782776 0.26747018098831177 0.47486189007759094
0.35681965947151184 0.21431203186511993 0.5921750068664551
0.5049769282341003 0.15306788682937622 0.5893166661262512
0.35549449920654297 0.20302250981330872 0.5503199696540833
0.3985656201839447 0.2381850928068161 0.4443431496620178
0.3369181156158447 0.2121949940919876 0.5845372080802917
0.47088029980659485 0.1315266638994217 0.4261336028575897
0.5082307457923889 0.26283925771713257 0.6059570908546448
0.39188286662101746 0.3325316607952118 0.46273767948150635
0.4821561574935913 0.1892663836479187 0.4637843668460846
0.4821562170982361 0.18926632404327393 0.46378448605537415
0.5537224411964417 0.2565789520740509 0.48633459210395813
0.3671177327632904 0.2616855204105377 0.5404137969017029
0.4809008538722992 0.29253724217414856 0.47764313220977783
0.38919201493263245 0.30436840653419495 0.5558827519416809
0.5157719254493713 0.3050834834575653 0.5842989087104797
0.5385061502456665 0.1976805031299591 0.6053579449653625
0.3638167977333069 0.18153774738311768 0.5403972864151001
0.41028955578804016 0.16556356847286224 0.5467185378074646
0.4218822419643402 0.27622243762016296 0.5125337839126587
0.5002204775810242 0.18294130265712738 0.4533494710922241
0.41974568367004395 0.24465134739875793 0.44823169708251953
0.5078402757644653 0.20681045949459076 0.43232491612434387
0.469797283411026 0.35093429684638977 0.48411890864372253
0.5337472558021545 0.2910539209842682 0.47425132989883423
0.5175095796585083 0.28977489471435547 0.5189944505691528
0.476250022649765 0.29907527565956116 0.5333989262580872
0.47204095125198364 0.2565252184867859 0.5526827573776245
0.3784373700618744 0.3051034212112427 0.5155240893363953
0.3882095515727997 0.32859504222869873 0.45038026571273804
0.4528038799762726 0.26518765091896057 0.586826503276825
0.48525020480155945 0.3250297009944916 0.5613735318183899
0.511787474155426 0.19939427077770233 0.4316660463809967
0.43335455656051636 0.36712646484375 0.4456734359264374
0.3438819944858551 0.22157813608646393 0.4607183337211609
0.38587042689323425 0.29194435477256775 0.4938165843486786
0.5080917477607727 0.18162710964679718 0.4808149039745331
0.4779766798019409 0.21987757086753845 0.48688167333602905
0.4879149794578552 0.13232538104057312 0.5329660177230835
0.49413129687309265 0.24560628831386566 0.6018733382225037
0.39250436425209045 0.2697019577026367 0.5199193358421326
0.3737224340438843 0.2973823845386505 0.4711495041847229
0.40562933683395386 0.16119657456874847 0.5406900644302368
0.4532288610935211 0.16329188644886017 0.5073100924491882
0.3673844635486603 0.2153964638710022 0.5817763209342957
0.44998523592948914 0.17246289551258087 0.4283192753791809
0.4386069178581238 0.21464861929416656 0.558737576007843
0.5193549394607544 0.29701220989227295 0.5319422483444214
0.4660983979701996 0.12061533331871033 0.4528762698173523
0.3886171579360962 0.19976364076137543 0.5213611125946045
0.371425598859787 0.22943854331970215 0.4822615087032318
0.41228312253952026 0.17399916052818298 0.5961472988128662
0.5166578888893127 0.24448268115520477 0.5946716070175171
0.3758049011230469 0.24541205167770386 0.5318930745124817
0.44967779517173767 0.35894307494163513 0.5449956059455872
0.36677396297454834 0.20870237052440643 0.5868710875511169
0.4043278396129608 0.3012971878051758 0.604034423828125
0.33172616362571716 0.23468109965324402 0.5002020597457886
0.42047426104545593 0.27326104044914246 0.4372556209564209
0.36727094650268555 0.1931283175945282 0.4895133376121521
0.427900493144989 0.38562363386154175 0.4312519133090973
0.4303837716579437 0.2739960551261902 0.44348475337028503
0.4630202651023865 0.24140824377536774 0.4829108417034149
0.4877094328403473 0.16912591457366943 0.4738481342792511
0.4795568287372589 0.13554823398590088 0.47216030955314636
0.4593675136566162 0.3081018328666687 0.5558038949966431
0.5002942085266113 0.2575511038303375 0.5065431594848633
0.4094850420951843 0.2990899384021759 0.5248081684112549
0.5010505318641663 0.16109737753868103 0.4029785096645355
0.41140249371528625 0.16189460456371307 0.5225653052330017
0.4209798574447632 0.18115055561065674 0.5971336364746094
0.48829665780067444 0.2797281742095947 0.5110369920730591
0.5457040667533875 0.24082420766353607 0.5707165598869324
0.4048773944377899 0.2089904099702835 0.4982072114944458
0.46461671590805054 0.16419148445129395 0.48882797360420227
0.34626758098602295 0.26505935192108154 0.5177256464958191
0.46395251154899597 0.3398530185222626 0.5976460576057434
0.4812339246273041 0.2527123987674713 0.4564638137817383
0.5209000706672668 0.20848195254802704 0.573588490486145
0.4664667844772339 0.29529285430908203 0.601207435131073
0.3940223157405853 0.3339628577232361 0.49745041131973267
0.477417528629303 0.15860699117183685 0.5933554768562317
0.4481618106365204 0.3564132750034332 0.5540951490402222
0.49691441655158997 0.22653071582317352 0.595160722732544
0.5041545033454895 0.23688097298145294 0.50709068775177
0.42044955492019653 0.3212493658065796 0.4541504383087158
0.40306082367897034 0.3090284466743469 0.5719878077507019
0.5127879977226257 0.24820776283740997 0.5652668476104736
0.5184891819953918 0.19994504749774933 0.4993704557418823
0.5145015716552734 0.20183828473091125 0.5097023844718933
0.41291436553001404 0.21173037588596344 0.5659781098365784
0.5175095796585083 0.28977489471435547 0.5189944505691528
0.476250022649765 0.29907527565956116 0.5333989262580872
0.47204095125198364 0.2565252184867859 0.5526827573776245
0.3784373700618744 0.3051034212112427 0.5155240893363953
0.3882095515727997 0.32859504222869873 0.45038026571273804
0.4528038799762726 0.26518765091896057 0.586826503276825
0.48525020480155945 0.3250297009944916 0.5613735318183899
0.511787474155426 0.19939427077770233 0.4316660463809967
0.43335455656051636 0.36712646484375 0.4456734359264374
0.3438819944858551 0.22157813608646393 0.4607183337211609
0.38587042689323425 0.29194435477256775 0.4938165843486786
0.5080917477607727 0.18162710964679718 0.4808149039745331
0.4714249074459076 0.19322893023490906 0.5892331600189209
0.5383457541465759 0.22415360808372498 0.548936128616333
0.3655399978160858 0.21759453415870667 0.6037130951881409
0.45000576972961426 0.16999976336956024 0.513452410697937
0.34553927183151245 0.22013619542121887 0.41240885853767395
0.4363763630390167 0.36620044708251953 0.5375444889068604
0.4639596939086914 0.13139323890209198 0.421592116355896
0.4472852945327759 0.2895497977733612 0.46747052669525146
0.49070438742637634 0.21128597855567932 0.566208004951477
0.48282670974731445 0.2450532764196396 0.40978798270225525
0.41321173310279846 0.3127110004425049 0.5838483572006226
0.4449453353881836 0.3806841969490051 0.432596892118454
0.4291280508041382 0.3277217745780945 0.5751789808273315
0.4783656597137451 0.1288779377937317 0.4462924897670746
0.35357430577278137 0.24303124845027924 0.4173036217689514
0.4355624318122864 0.3070595860481262 0.5912558436393738
0.4382385015487671 0.18572288751602173 0.5176653265953064
0.350730836391449 0.21607400476932526 0.574855625629425
0.4877094328403473 0.16912591457366943 0.4738481342792511
0.4795568287372589 0.13554823398590088 0.47216030955314636
0.4593675136566162 0.3081018328666687 0.5558038949966431
0.5002942085266113 0.2575511038303375 0.5065431594848633
0.4094850420951843 0.2990899384021759 0.5248081684112549
0.5010505318641663 0.16109737753868103 0.4029785096645355
0.41140249371528625 0.16189460456371307 0.5225653052330017
0.4209798574447632 0.18115055561065674 0.5971336364746094
0.48829665780067444 0.2797281742095947 0.5110369920730591
0.49285826086997986 0.27743956446647644 0.4584459662437439
0.5457515716552734 0.24112416803836823 0.5704766511917114
0.38441506028175354 0.17776021361351013 0.49537885189056396
0.5008311867713928 0.13348422944545746 0.5984130501747131
0.4702034890651703 0.22505711019039154 0.51380854845047
0.4462624490261078 0.3358743488788605 0.48376497626304626
0.43789488077163696 0.36154240369796753 0.46246543526649475
0.35469383001327515 0.21842923760414124 0.5258956551551819
0.5209000706672668 0.20848195254802704 0.573588490486145
0.4664667844772339 0.29529285430908203 0.601207435131073
0.3940223157405853 0.3339628577232361 0.49745041131973267
0.477417528629303 0.15860699117183685 0.5933554768562317
0.4481618106365204 0.3564132750034332 0.5540951490402222
0.49691441655158997 0.22653071582317352 0.595160722732544
0.5041545033454895 0.23688097298145294 0.50709068775177
0.44264352321624756 0.16838741302490234 0.5417417883872986
0.40121522545814514 0.2783885598182678 0.5874043703079224
0.40306082367897034 0.3090284466743469 0.5719878077507019
0.5127879977226257 0.24820776283740997 0.5652668476104736
0.3732215166091919 0.22791193425655365 0.5887576341629028
0.41405704617500305 0.3507634401321411 0.6190068125724792
0.35799217224121094 0.28954407572746277 0.5039584636688232
0.5570651292800903 0.25488969683647156 0.4954187273979187
0.4877094328403473 0.16912591457366943 0.4738481342792511
0.5002942085266113 0.2575511038303375 0.5065431594848633
0.4094850420951843 0.2990899384021759 0.5248081684112549
0.5010505318641663 0.16109737753868103 0.4029785096645355
0.41140249371528625 0.16189460456371307 0.5225653052330017
0.4209798574447632 0.18115055561065674 0.5971336364746094
0.49285826086997986 0.27743956446647644 0.4584459662437439
0.5457515716552734 0.24112416803836823 0.5704766511917114
0.38441506028175354 0.17776021361351013 0.49537885189056396
0.5008311867713928 0.13348422944545746 0.5984130501747131
0.4702034890651703 0.22505711019039154 0.51380854845047
0.4462624490261078 0.3358743488788605 0.48376497626304626
0.43789488077163696 0.36154240369796753 0.46246543526649475
0.35469383001327515 0.21842923760414124 0.5258956551551819
0.5198552012443542 0.22286438941955566 0.4899870753288269
0.38549935817718506 0.3182274103164673 0.5145075917243958
0.38785243034362793 0.17999589443206787 0.598220705986023
0.4464363753795624 0.1983332633972168 0.532454252243042
0.33793357014656067 0.20664241909980774 0.48975008726119995
0.41360825300216675 0.27439743280410767 0.5511255264282227
0.5243507623672485 0.2047610580921173 0.5842841863632202
0.4383150041103363 0.25789907574653625 0.5110983848571777
0.5404463410377502 0.21614967286586761 0.46968671679496765
0.40306082367897034 0.3090284466743469 0.5719878077507019
0.5127879977226257 0.24820776283740997 0.5652668476104736
0.3732215166091919 0.22791193425655365 0.5887576341629028
0.41405704617500305 0.3507634401321411 0.6190068125724792
0.35799217224121094 0.28954407572746277 0.5039584636688232
0.4994339942932129 0.26230770349502563 0.4600275754928589
0.49148064851760864 0.13503088057041168 0.47933271527290344
0.4519255757331848 0.22895410656929016 0.5947093367576599
0.34644266963005066 0.2629733085632324 0.4139226973056793
0.48525020480155945 0.3250297009944916 0.5613735318183899
0.511787474155426 0.19939427077770233 0.4316660463809967
0.43335455656051636 0.36712646484375 0.4456734359264374
0.3438819944858551 0.22157813608646393 0.4607183337211609
0.38587042689323425 0.29194435477256775 0.4938165843486786
0.5080917477607727 0.18162710964679718 0.4808149039745331
0.4779766798019409 0.21987757086753845 0.48688167333602905
0.4879149794578552 0.13232538104057312 0.5329660177230835
0.49413129687309265 0.24560628831386566 0.6018733382225037
0.459193617105484 0.16053320467472076 0.45304176211357117
0.4233381152153015 0.3005281090736389 0.5770254731178284
0.5074926018714905 0.19470010697841644 0.5665804147720337
0.44962507486343384 0.18368315696716309 0.4218790829181671
0.41821029782295227 0.1527787446975708 0.4756847023963928
0.36277300119400024 0.2807907462120056 0.4346061646938324
0.3745325803756714 0.24427244067192078 0.4297705590724945
0.40033769607543945 0.23296575248241425 0.5623626708984375
0.51214998960495 0.20598062872886658 0.4972642660140991
0.4947234094142914 0.24761812388896942 0.4646436274051666
0.4643231928348541 0.34517988562583923 0.5232143402099609
0.46001139283180237 0.27675503492355347 0.4745163023471832
0.43992799520492554 0.26570019125938416 0.46492475271224976
0.5149582624435425 0.2533458173274994 0.43952676653862
0.383802592754364 0.1787141114473343 0.5276354551315308
0.5104445815086365 0.26033201813697815 0.4884827733039856
0.430012971162796 0.3661937415599823 0.4527548849582672
0.3095310628414154 0.20766471326351166 0.5992728471755981
0.46709051728248596 0.16739575564861298 0.5932996869087219
0.5368843674659729 0.24652615189552307 0.5430528521537781
0.4474569261074066 0.15697167813777924 0.5803889632225037
0.3674495816230774 0.2621218264102936 0.5410083532333374
0.4429786801338196 0.23942403495311737 0.44250261783599854
0.4779766798019409 0.21987757086753845 0.48688167333602905
0.4879149794578552 0.13232538104057312 0.5329660177230835
0.49413129687309265 0.24560628831386566 0.6018733382225037
0.39250436425209045 0.2697019577026367 0.5199193358421326
0.3737224340438843 0.2973823845386505 0.4711495041847229
0.40562933683395386 0.16119657456874847 0.5406900644302368
0.4532288610935211 0.16329188644886017 0.5073100924491882
0.3673844635486603 0.2153964638710022 0.5817763209342957
0.44998523592948914 0.17246289551258087 0.4283192753791809
0.4386069178581238 0.21464861929416656 0.558737576007843
0.5193549394607544 0.29701220989227295 0.5319422483444214
0.4660983979701996 0.12061533331871033 0.4528762698173523
0.3886171579360962 0.19976364076137543 0.5213611125946045
0.371425598859787 0.22943854331970215 0.4822615087032318
0.41354337334632874 0.1823439747095108 0.5212599039077759
0.4483610689640045 0.34637781977653503 0.4340309500694275
0.4235461950302124 0.3400701582431793 0.5834831595420837
0.47212669253349304 0.17756298184394836 0.46893075108528137
0.45036551356315613 0.35057535767555237 0.4852510988712311
