ply
format ascii 1.0
element vertex 826
property float x
property float y
property float z
end_header
0.42343345284461975 0.34748512506484985 0.5832866430282593
0.42713361978530884 0.24093960225582123 0.4332802891731262
0.41840457916259766 0.22166848182678223 0.5721138119697571
0.41132211685180664 0.22928597033023834 0.5945165753364563
0.44767138361930847 0.33904072642326355 0.5890196561813354
0.4660956561565399 0.32080045342445374 0.5370482802391052
0.5072258114814758 0.20063233375549316 0.5843753814697266
0.4645766615867615 0.24308642745018005 0.5869526267051697
0.38529983162879944 0.267505019903183 0.48021191358566284
0.42075133323669434 0.15212702751159668 0.5856114625930786
0.4621008336544037 0.286869615316391 0.5118444561958313
0.3703952729701996 0.20615777373313904 0.5295087695121765
0.49273982644081116 0.21024386584758759 0.6056767106056213
0.5124762654304504 0.2770247459411621 0.47280266880989075
0.410454124212265 0.31675538420677185 0.45075562596321106
0.3571045398712158 0.27211952209472656 0.533163845539093
0.4704075753688812 0.15693698823451996 0.46413418650627136
0.3722425699234009 0.22803159058094025 0.5961884260177612
0.4826304316520691 0.19493065774440765 0.5892490744590759
0.38657546043395996 0.2667161524295807 0.5480666756629944
0.43027281761169434 0.26319554448127747 0.60173499584198
0.30120179057121277 0.22454433143138885 0.5076990127563477
0.41574588418006897 0.20982958376407623 0.5024071335792542
0.4953165054321289 0.24777968227863312 0.49083253741264343
0.4145115613937378 0.33258700370788574 0.4489401876926422
0.39572474360466003 0.36451956629753113 0.4256764054298401
0.3888610601425171 0.21504181623458862 0.4310031235218048
0.5241390466690063 0.2468220442533493 0.4279595613479614
0.4730176031589508 0.19563525915145874 0.517935574054718
0.40055978298187256 0.1698613315820694 0.5992225408554077
0.329973042011261 0.24041743576526642 0.44729843735694885
0.43474891781806946 0.26089537143707275 0.5018818378448486
0.518123209476471 0.24208414554595947 0.4576101005077362
0.37341180443763733 0.23438382148742676 0.5942538380622864
0.3890027701854706 0.15898944437503815 0.4666788876056671
0.3402762711048126 0.25085943937301636 0.43544232845306396
0.4767100512981415 0.29809626936912537 0.4471646547317505
0.40729033946990967 0.2794262766838074 0.4166436791419983
0.35223880410194397 0.24239586293697357 0.5505315661430359
0.4782208502292633 0.3209104537963867 0.5117243528366089
0.5073670148849487 0.2759131193161011 0.4450599253177643
0.3063877522945404 0.206919863820076 0.5700864791870117
0.3972722291946411 0.2759104371070862 0.515305757522583
0.48818379640579224 0.1859973967075348 0.48502421379089355
0.4567968249320984 0.22391147911548615 0.4904240667819977
0.464586466550827 0.13681964576244354 0.5364404320716858
0.464586466550827 0.13681964576244354 0.5364404320716858
0.47495386004447937 0.25463035702705383 0.6015313267707825
0.36776992678642273 0.2681383192539215 0.5233140587806702
0.34549394249916077 0.21595625579357147 0.5867114067077637
0.4295729696750641 0.17442549765110016 0.4334806501865387
0.4167402386665344 0.21921665966510773 0.5617539882659912
0.498269647359848 0.3060609996318817 0.531248927116394
0.498269647359848 0.3060609996318817 0.531248927116394
0.4458318054676056 0.12322448939085007 0.45715901255607605
0.3670881390571594 0.1991378515958786 0.5268864631652832
0.43230894207954407 0.32422682642936707 0.5572018623352051
0.40112733840942383 0.1784960925579071 0.5852182507514954
0.34162837266921997 0.22353404760360718 0.599972128868103
0.37337708473205566 0.29392245411872864 0.4791727066040039
0.45476168394088745 0.3229414224624634 0.5234752297401428
0.4645024538040161 0.15768912434577942 0.506347119808197
0.4263400435447693 0.30004996061325073 0.473541796207428
0.442465603351593 0.1380227953195572 0.5297967195510864
0.5574438571929932 0.2865353524684906 0.4685787260532379
0.49681079387664795 0.18952946364879608 0.4184401333332062
0.3978825509548187 0.34887656569480896 0.6019107103347778
0.40073883533477783 0.2525528371334076 0.4616435766220093
0.35998380184173584 0.17151515185832977 0.5926533937454224
0.3402762711048126 0.25085943937301636 0.43544232845306396
0.4767100512981415 0.29809626936912537 0.4471646547317505
0.40729033946990967 0.2794262766838074 0.4166436791419983
0.35223880410194397 0.24239586293697357 0.5505315661430359
0.4782208502292633 0.3209104537963867 0.5117243528366089
0.467071533203125 0.17267873883247375 0.4781728982925415
0.3873734474182129 0.21873775124549866 0.5726633667945862
0.43118929862976074 0.1247689425945282 0.5501318573951721
0.3633790612220764 0.26436474919319153 0.42481380701065063
0.409436970949173 0.3489481806755066 0.5419421195983887
0.31350165605545044 0.20597712695598602 0.43232619762420654
0.459814190864563 0.214591845870018 0.49976423382759094
0.41829928755760193 0.16955657303333282 0.5688463449478149
0.5346182584762573 0.25275006890296936 0.4522349238395691
0.38755300641059875 0.2244117707014084 0.5355005264282227
0.4043996334075928 0.20423319935798645 0.5880810618400574
0.5051733255386353 0.20582729578018188 0.5936338901519775
0.44170060753822327 0.2190566509962082 0.5231136083602905
0.3558585047721863 0.2031654566526413 0.4597431719303131
0.41120585799217224 0.22536127269268036 0.4472198486328125
0.3654150664806366 0.17083029448986053 0.5242279767990112
0.389621764421463 0.22777874767780304 0.5143105983734131
0.3415698707103729 0.2382238805294037 0.48072075843811035
0.4632001221179962 0.17386294901371002 0.6037688851356506
0.5027349591255188 0.19482256472110748 0.5088256597518921
0.5286121368408203 0.2547433376312256 0.5645464658737183
0.5058898329734802 0.29317906498908997 0.5181025862693787
0.4021250009536743 0.18502476811408997 0.5817246437072754
0.36435389518737793 0.2947414517402649 0.5385729074478149
0.4303708076477051 0.2834857106208801 0.4706633985042572
0.4303708076477051 0.2834857106208801 0.4706633985042572
0.47301390767097473 0.29776981472969055 0.5469174385070801
0.4351124167442322 0.30411192774772644 0.5069084763526917
0.43349945545196533 0.2329232096672058 0.49064332246780396
0.30650705099105835 0.25398555397987366 0.4427240788936615
0.3989889919757843 0.25885456800460815 0.5543897151947021
0.5227866768836975 0.3049861192703247 0.4531871974468231
0.3871377408504486 0.35589584708213806 0.6158877015113831
0.36435389518737793 0.2947414517402649 0.5385729074478149
0.4303708076477051 0.2834857106208801 0.4706633985042572
0.47301390767097473 0.29776981472969055 0.5469174385070801
0.4351124167442322 0.30411192774772644 0.5069084763526917
0.43349945545196533 0.2329232096672058 0.49064332246780396
0.30650705099105835 0.25398555397987366 0.4427240788936615
0.3989889919757843 0.25885456800460815 0.5543897151947021
0.5227866768836975 0.3049861192703247 0.4531871974468231
0.46323269605636597 0.22274436056613922 0.4478926956653595
0.35027876496315 0.2721230387687683 0.5258529186248779
0.39337867498397827 0.25225821137428284 0.43765148520469666
0.5199560523033142 0.2151215821504593 0.5496183037757874
0.3573192358016968 0.2345021814107895 0.49543315172195435
0.4679790735244751 0.15056543052196503 0.5185964107513428
0.47149595618247986 0.19178897142410278 0.4438202381134033
0.4847383499145508 0.2539695203304291 0.5799394845962524
0.4072616398334503 0.3457300662994385 0.4888699948787689
0.42264991998672485 0.15633034706115723 0.5898255705833435
0.4788263738155365 0.2873212695121765 0.5615394115447998
0.30982887744903564 0.2518252730369568 0.4691922068595886
0.5506774187088013 0.28989624977111816 0.44222307205200195
0.4350152909755707 0.3163304030895233 0.5647992491722107
0.30766358971595764 0.21626701951026917 0.5188171863555908
0.5068045854568481 0.231912299990654 0.4775718152523041
0.34126365184783936 0.2180102914571762 0.5203186273574829
0.3493809401988983 0.22823244333267212 0.4913839101791382
0.40734612941741943 0.1649199277162552 0.45278844237327576
0.40457552671432495 0.34522125124931335 0.5746631622314453
0.4503714144229889 0.3146476745605469 0.5180444121360779
0.3743697702884674 0.24736467003822327 0.5830904245376587
0.30911022424697876 0.2374178171157837 0.5351046323776245
0.4437227249145508 0.3273698687553406 0.5548712611198425
0.43349945545196533 0.2329232096672058 0.49064332246780396
0.30650705099105835 0.25398555397987366 0.4427240788936615
0.3989889919757843 0.25885456800460815 0.5543897151947021
0.5227866768836975 0.3049861192703247 0.4531871974468231
0.34821805357933044 0.230587899684906 0.4772258996963501
0.3658265471458435 0.17527858912944794 0.444868266582489
0.39908289909362793 0.21123893558979034 0.6094533801078796
0.3010031580924988 0.21023614704608917 0.4808293879032135
0.42670971155166626 0.14193540811538696 0.4541333019733429
0.44099003076553345 0.29181334376335144 0.6122530698776245
0.43145298957824707 0.12538862228393555 0.5692026019096375
0.45981907844543457 0.15028712153434753 0.47370007634162903
0.5176982283592224 0.27235105633735657 0.5276354551315308
0.3779853880405426 0.23423020541667938 0.5021361708641052
0.49454817175865173 0.20776265859603882 0.5127381682395935
0.39092108607292175 0.2148616462945938 0.5699488520622253
0.4967769682407379 0.29844263195991516 0.5189911723136902
0.45229312777519226 0.30303871631622314 0.5335564613342285
0.45018720626831055 0.2617698609828949 0.5538358092308044
0.3517782986164093 0.30195528268814087 0.5172699689865112
0.4788263738155365 0.2873212695121765 0.5615394115447998
0.30982887744903564 0.2518252730369568 0.4691922068595886
0.5506774187088013 0.28989624977111816 0.44222307205200195
0.4350152909755707 0.3163304030895233 0.5647992491722107
0.30766358971595764 0.21626701951026917 0.5188171863555908
0.5068045854568481 0.231912299990654 0.4775718152523041
0.34126365184783936 0.2180102914571762 0.5203186273574829
0.3493809401988983 0.22823244333267212 0.4913839101791382
0.40734612941741943 0.1649199277162552 0.45278844237327576
0.40457552671432495 0.34522125124931335 0.5746631622314453
0.37737417221069336 0.32012468576431274 0.5088592767715454
0.4525267481803894 0.16548800468444824 0.5118511915206909
0.35027876496315 0.2721230387687683 0.5258529186248779
0.48249223828315735 0.26138949394226074 0.574114978313446
0.4818175435066223 0.16492332518100739 0.5526934862136841
0.47054511308670044 0.29097968339920044 0.5623493790626526
0.5482907295227051 0.2720127999782562 0.43549031019210815
0.37825387716293335 0.19037507474422455 0.5195529460906982
0.4931795001029968 0.3213992118835449 0.42841044068336487
0.4073740243911743 0.2561933398246765 0.5472608208656311
0.4970644414424896 0.3040648400783539 0.48285195231437683
0.3347324728965759 0.21161852777004242 0.4638388454914093
0.3444684147834778 0.28431713581085205 0.4538322687149048
0.5486946105957031 0.27769047021865845 0.4625883400440216
0.3580612540245056 0.17739982903003693 0.4723503589630127
0.3681822419166565 0.25629517436027527 0.5754449367523193
0.47665199637413025 0.28110620379447937 0.5166539549827576
0.4193681478500366 0.22833354771137238 0.5943343043327332
0.5226917266845703 0.2939489483833313 0.5127615332603455
0.43528470396995544 0.2766072750091553 0.5263777375221252
0.4301638901233673 0.29751676321029663 0.6056742668151855
0.40736138820648193 0.2840581238269806 0.5490490198135376
0.3207702934741974 0.2576984763145447 0.4524453282356262
0.3735402822494507 0.26819512248039246 0.5037341117858887
0.42343345284461975 0.34748512506484985 0.5832866430282593
0.4439404308795929 0.17914409935474396 0.5841524600982666
0.3659897446632385 0.31057074666023254 0.48226529359817505
0.5226666331291199 0.28541088104248047 0.5768576264381409
0.4690035283565521 0.20632295310497284 0.5979786515235901
0.3885709345340729 0.21366167068481445 0.4878980815410614
0.290399968624115 0.2133302092552185 0.5572549700737
0.34796634316444397 0.26691699028015137 0.5415551662445068
0.5346049666404724 0.2347165197134018 0.5462250113487244
0.44099003076553345 0.29181334376335144 0.6122530698776245
0.3670881390571594 0.1991378515958786 0.5268864631652832
0.43230894207954407 0.32422682642936707 0.5572018623352051
0.40112733840942383 0.1784960925579071 0.5852182507514954
0.34162837266921997 0.22353404760360718 0.599972128868103
0.37337708473205566 0.29392245411872864 0.4791727066040039
0.4517597556114197 0.34530720114707947 0.5333664417266846
0.4645024538040161 0.15768912434577942 0.506347119808197
0.42640751600265503 0.29969069361686707 0.4737377166748047
0.4090801477432251 0.2770008444786072 0.6128920316696167
0.41917893290519714 0.3630081117153168 0.534156084060669
0.48078662157058716 0.32704970240592957 0.48140576481819153
0.34090858697891235 0.19515720009803772 0.5789560675621033
0.39602965116500854 0.21231263875961304 0.5963860750198364
0.48995646834373474 0.3204217553138733 0.43623751401901245
0.4767100512981415 0.29809626936912537 0.4471646547317505
0.4416669011116028 0.2914098799228668 0.44726553559303284
0.4782208502292633 0.3209104537963867 0.5117243528366089
0.46810346841812134 0.16204231977462769 0.546520471572876
0.4027232825756073 0.2088574916124344 0.4767684042453766
0.4163103401660919 0.34524834156036377 0.531362771987915
0.3336383104324341 0.2060786634683609 0.42721232771873474
0.4206947088241577 0.2754015028476715 0.48967915773391724
0.4666393995285034 0.2937675416469574 0.4419330656528473
0.4736841320991516 0.26290297508239746 0.6016952991485596
0.39877480268478394 0.23155298829078674 0.48013943433761597
0.48690468072891235 0.3048960268497467 0.5768277645111084
0.3873056173324585 0.2532724440097809 0.5569431185722351
0.46399930119514465 0.20098526775836945 0.5898218750953674
0.46991947293281555 0.3027634024620056 0.504776656627655
0.43387407064437866 0.21706917881965637 0.6085566282272339
0.31001201272010803 0.21821139752864838 0.4223538637161255
0.30911022424697876 0.2374178171157837 0.5351046323776245
0.3916330933570862 0.29644688963890076 0.5931007862091064
0.4293128252029419 0.35389000177383423 0.5440225005149841
0.5263608694076538 0.2723936140537262 0.5441137552261353
0.5120956897735596 0.2713509798049927 0.5526843070983887
0.44803479313850403 0.1936577707529068 0.520081639289856
0.4331985116004944 0.19877058267593384 0.5112500786781311
0.4182271659374237 0.33135563135147095 0.434638649225235
0.445843368768692 0.26558464765548706 0.4894290566444397
0.4550293982028961 0.19009022414684296 0.5461639761924744
0.4874860644340515 0.29735398292541504 0.41664209961891174
0.39521223306655884 0.27864301204681396 0.46769577264785767
0.5310680866241455 0.2815611958503723 0.5372914671897888
0.35648271441459656 0.26587924361228943 0.4897521138191223
0.47779718041419983 0.25123292207717896 0.5193382501602173
0.32147857546806335 0.239812433719635 0.5308800339698792
0.4288668930530548 0.17157292366027832 0.5692177414894104
0.3555485010147095 0.25500157475471497 0.4230257272720337
0.42264899611473083 0.17887109518051147 0.42968469858169556
0.4221577048301697 0.26180458068847656 0.47958895564079285
0.3781808614730835 0.18169625103473663 0.47856682538986206
0.40421634912490845 0.3412005603313446 0.525002658367157
0.3233647048473358 0.2768925726413727 0.43596363067626953
0.5007544159889221 0.23323412239551544 0.4816216230392456
0.4960271418094635 0.18309400975704193 0.48469656705856323
0.37184375524520874 0.184520423412323 0.4633365869522095
0.43602049350738525 0.19822753965854645 0.5133383870124817
0.4358106553554535 0.3242093324661255 0.555582582950592
0.33422908186912537 0.24139924347400665 0.4160371720790863
0.3289879560470581 0.27608007192611694 0.5802291035652161
0.3867221176624298 0.31622856855392456 0.43020936846733093
0.3057258725166321 0.23511184751987457 0.492439329624176
0.4126119017601013 0.3194464147090912 0.5609984993934631
0.5329499840736389 0.29019248485565186 0.5651179552078247
0.3384360373020172 0.22128471732139587 0.44074687361717224
0.4906999468803406 0.21588125824928284 0.5000195503234863
0.5259819030761719 0.28846579790115356 0.49025124311447144
0.39403608441352844 0.3260433077812195 0.5824528336524963
0.43551480770111084 0.17955371737480164 0.5513252019882202
0.3733000159263611 0.31775498390197754 0.46142569184303284
0.5009477138519287 0.19417260587215424 0.6026979684829712
0.45416298508644104 0.2501746118068695 0.5940987467765808
0.38912150263786316 0.24895240366458893 0.4869198203086853
0.4791967272758484 0.25082874298095703 0.5192407965660095
0.41787970066070557 0.1470785140991211 0.5440607070922852
0.36766287684440613 0.18337513506412506 0.503362774848938
0.30986788868904114 0.22826406359672546 0.5164150595664978
0.4722979664802551 0.30770087242126465 0.48292818665504456
0.404896080493927 0.26543286442756653 0.5303042531013489
0.37996906042099 0.18298617005348206 0.49513500928878784
0.3605805039405823 0.25350797176361084 0.43469661474227905
0.4146788716316223 0.2591898441314697 0.5687292814254761
0.33420053124427795 0.2707672715187073 0.4351574778556824
0.5345048904418945 0.2877480387687683 0.4342310428619385
0.502743661403656 0.30677545070648193 0.47314324975013733
0.37598806619644165 0.3030143678188324 0.5456966161727905
0.490479975938797 0.27134156227111816 0.5899999141693115
0.47568389773368835 0.32865387201309204 0.5908221006393433
0.4648670554161072 0.169525608420372 0.5872225165367126
0.392002671957016 0.283244788646698 0.5701160430908203
0.48535576462745667 0.2243010550737381 0.4488053619861603
0.4303232729434967 0.2994351387023926 0.5237451791763306
0.4703749716281891 0.2759942412376404 0.5627425312995911
0.41377705335617065 0.2983420491218567 0.47530996799468994
0.45577847957611084 0.21818791329860687 0.47513410449028015
0.46810346841812134 0.16204231977462769 0.546520471572876
0.4027232825756073 0.2088574916124344 0.4767684042453766
0.5299249291419983 0.23582516610622406 0.4459402561187744
0.4630608856678009 0.2753850817680359 0.4251001179218292
0.4617166221141815 0.2564331591129303 0.5019463896751404
0.46721747517585754 0.16664862632751465 0.41464945673942566
0.3670707643032074 0.21910656988620758 0.516231894493103
0.3601551055908203 0.24300099909305573 0.5870922803878784
0.483376145362854 0.29387620091438293 0.5435384511947632
0.4129044711589813 0.2125282883644104 0.510027289390564
0.48709240555763245 0.3028365969657898 0.532952606678009
0.5210071802139282 0.23511192202568054 0.5772321820259094
0.35616108775138855 0.23118826746940613 0.43985167145729065
0.45877403020858765 0.2608446776866913 0.5586540699005127
0.3886564075946808 0.24763886630535126 0.5059316754341125
0.3394586443901062 0.1834612488746643 0.4869738221168518
0.4855343699455261 0.29429057240486145 0.5397483110427856
0.3976689577102661 0.2974526584148407 0.518315851688385
0.49996018409729004 0.2227872759103775 0.5269253253936768
0.4512602686882019 0.20615065097808838 0.5112422704696655
0.3831683397293091 0.36358633637428284 0.47134414315223694
0.4563208222389221 0.19219446182250977 0.5844834446907043
0.4807451367378235 0.17394192516803741 0.4408153295516968
0.3286082446575165 0.19207832217216492 0.604782223701477
0.3833179771900177 0.3264719843864441 0.4266880750656128
0.3336620628833771 0.2048860490322113 0.5245664715766907
0.371646523475647 0.1876155138015747 0.4620714485645294
0.39230868220329285 0.2469903826713562 0.5842342972755432
0.469206303358078 0.1733989417552948 0.4819827079772949
0.33931607007980347 0.2364221215248108 0.5731021761894226
0.47297802567481995 0.20425879955291748 0.5806869864463806
0.442465603351593 0.1380227953195572 0.5297967195510864
0.43141353130340576 0.18655800819396973 0.5108261108398438
0.38024911284446716 0.2503259479999542 0.6101126074790955
0.49461957812309265 0.2011992335319519 0.5994690656661987
0.39877480268478394 0.23155298829078674 0.48013943433761597
0.48690468072891235 0.3048960268497467 0.5768277645111084
0.3873056173324585 0.2532724440097809 0.5569431185722351
0.374639093875885 0.30182579159736633 0.46620529890060425
0.46399930119514465 0.20098526775836945 0.5898218750953674
0.46991947293281555 0.3027634024620056 0.504776656627655
0.43387407064437866 0.21706917881965637 0.6085566282272339
0.31001201272010803 0.21821139752864838 0.4223538637161255
0.421621710062027 0.21382024884223938 0.4479295611381531
0.49844205379486084 0.23936672508716583 0.5013542771339417
0.3150270879268646 0.2601042091846466 0.4656502306461334
0.5433752536773682 0.2929415702819824 0.5528326034545898
0.4272264838218689 0.34578317403793335 0.45898449420928955
0.4752824604511261 0.16540294885635376 0.43207889795303345
0.3769940435886383 0.16948004066944122 0.4818136394023895
0.451941579580307 0.2101854681968689 0.5198113322257996
0.3631482422351837 0.24214185774326324 0.5609242916107178
0.4077494144439697 0.34321582317352295 0.4236309230327606
0.5547480583190918 0.2716839611530304 0.5833531618118286
0.4737454950809479 0.18276192247867584 0.5186028480529785
0.5410860180854797 0.2560081481933594 0.5571967363357544
0.3286082446575165 0.19207832217216492 0.604782223701477
0.3833179771900177 0.3264719843864441 0.4266880750656128
0.3336620628833771 0.2048860490322113 0.5245664715766907
0.371646523475647 0.1876155138015747 0.4620714485645294
0.39230868220329285 0.2469903826713562 0.5842342972755432
0.469206303358078 0.1733989417552948 0.4819827079772949
0.33931607007980347 0.2364221215248108 0.5731021761894226
0.329973042011261 0.24041743576526642 0.44729843735694885
0.3772597312927246 0.2005995512008667 0.47678110003471375
0.38986048102378845 0.19167517125606537 0.501852810382843
0.4911780059337616 0.19632311165332794 0.5760728716850281
0.46894922852516174 0.25884905457496643 0.4862852692604065
0.34687405824661255 0.24295412003993988 0.4974650740623474
0.4062846899032593 0.252216637134552 0.5467895865440369
0.3048335909843445 0.24207188189029694 0.4850112199783325
0.38873645663261414 0.3718035817146301 0.5388463139533997
0.34871089458465576 0.1906297653913498 0.4875553250312805
0.3569004535675049 0.23234811425209045 0.4521143138408661
0.451941579580307 0.2101854681968689 0.5198113322257996
0.3631482422351837 0.24214185774326324 0.5609242916107178
0.4077494144439697 0.34321582317352295 0.4236309230327606
0.5547480583190918 0.2716839611530304 0.5833531618118286
0.4737454950809479 0.18276192247867584 0.5186028480529785
0.5410860180854797 0.2560081481933594 0.5571967363357544
0.3286082446575165 0.19207832217216492 0.604782223701477
0.3833179771900177 0.3264719843864441 0.4266880750656128
0.3336620628833771 0.2048860490322113 0.5245664715766907
0.371646523475647 0.1876155138015747 0.4620714485645294
0.39230868220329285 0.2469903826713562 0.5842342972755432
0.469206303358078 0.1733989417552948 0.4819827079772949
0.33931607007980347 0.2364221215248108 0.5731021761894226
0.47297802567481995 0.20425879955291748 0.5806869864463806
0.46411609649658203 0.2241683304309845 0.5508500933647156
0.4640621840953827 0.2993481755256653 0.5699923634529114
0.4140898287296295 0.30770251154899597 0.5648612380027771
0.46122467517852783 0.17343536019325256 0.42667874693870544
0.533990740776062 0.2536105811595917 0.6076624393463135
0.4698823392391205 0.1628589630126953 0.4047192931175232
0.40584132075309753 0.3549545705318451 0.4448831081390381
0.329973042011261 0.24041743576526642 0.44729843735694885
0.49839067459106445 0.21176783740520477 0.5754674077033997
0.47909632325172424 0.22245711088180542 0.578970193862915
0.33903640508651733 0.29634320735931396 0.5446391105651855
0.4206947088241577 0.2754015028476715 0.48967915773391724
0.37642180919647217 0.207911416888237 0.575006902217865
0.49493181705474854 0.24243132770061493 0.5215480923652649
0.5185663104057312 0.2969118356704712 0.5021292567253113
0.47867023944854736 0.16267074644565582 0.42384153604507446
0.46411609649658203 0.2241683304309845 0.5508500933647156
0.4640621840953827 0.2993481755256653 0.5699923634529114
0.4594499468803406 0.20178955793380737 0.48787471652030945
0.4181106388568878 0.2842828631401062 0.4210382103919983
0.4044681191444397 0.3000950217247009 0.4847981333732605
0.3405837416648865 0.26103970408439636 0.5505329966545105
0.42492589354515076 0.3353390693664551 0.47641751170158386
0.44782936573028564 0.19833143055438995 0.46476611495018005
0.3777516186237335 0.17435646057128906 0.45388415455818176
0.35666120052337646 0.25668659806251526 0.44764965772628784
0.39615732431411743 0.34596964716911316 0.5567380785942078
0.43098968267440796 0.2541855573654175 0.4266263544559479
0.4615364372730255 0.15550927817821503 0.5642732381820679
0.38677462935447693 0.2322472780942917 0.5252090692520142
0.48680293560028076 0.32283931970596313 0.5041708946228027
0.4143383502960205 0.2986402213573456 0.5698849558830261
0.4943208396434784 0.26693591475486755 0.5475464463233948
0.33934712409973145 0.29710695147514343 0.5379446148872375
0.4298829734325409 0.3124677240848541 0.5583087205886841
0.431789368391037 0.2547060251235962 0.5165463089942932
0.4485413134098053 0.2827116549015045 0.5311612486839294
0.4454385042190552 0.268045037984848 0.5820772051811218
0.36699846386909485 0.3269082009792328 0.4237598180770874
0.46810346841812134 0.16204231977462769 0.546520471572876
0.47370561957359314 0.22441448271274567 0.4466817080974579
0.39222437143325806 0.31514695286750793 0.5551701188087463
0.3879111409187317 0.23397859930992126 0.5315602421760559
0.5084368586540222 0.22891797125339508 0.604254961013794
0.511559247970581 0.284599632024765 0.5421877503395081
0.4546869397163391 0.27419376373291016 0.4709882438182831
0.47722938656806946 0.174611434340477 0.44598278403282166
0.4278804063796997 0.25982582569122314 0.5329327583312988
0.44179263710975647 0.13649703562259674 0.5694034099578857
0.46280616521835327 0.1922553926706314 0.5976653099060059
0.3936993181705475 0.2082534283399582 0.573611319065094
0.39228931069374084 0.3703799843788147 0.452642023563385
0.3714866042137146 0.2453707605600357 0.5531435608863831
0.4240175485610962 0.33130988478660583 0.47387412190437317
0.5490169525146484 0.2688242793083191 0.4646535813808441
0.3797082304954529 0.2331894040107727 0.4969625771045685
0.5382964611053467 0.27736058831214905 0.5766915678977966
0.35786205530166626 0.20041362941265106 0.4688737392425537
0.5322924852371216 0.291030615568161 0.48631489276885986
0.3852614760398865 0.334890216588974 0.5905588269233704
0.4401923418045044 0.16936810314655304 0.4121708571910858
0.3867626190185547 0.24796752631664276 0.5063506960868835
0.40230098366737366 0.2819422483444214 0.5208515524864197
0.3902871310710907 0.24402359127998352 0.5553345680236816
0.454129695892334 0.1663990616798401 0.48716044425964355
0.5103079676628113 0.3005821406841278 0.4481039047241211
0.39158886671066284 0.2402433604001999 0.6082004308700562
0.5023840665817261 0.29727792739868164 0.46911340951919556
0.35128846764564514 0.29565978050231934 0.5865534543991089
0.5271362066268921 0.28890466690063477 0.49712446331977844
0.5473023653030396 0.2770238518714905 0.5750720500946045
0.49839067459106445 0.21176783740520477 0.5754674077033997
0.5300920605659485 0.23704996705055237 0.4879085421562195
0.3864031434059143 0.33476167917251587 0.5455232262611389
0.3970698118209839 0.33251485228538513 0.5605282187461853
0.4134872257709503 0.18847912549972534 0.45767030119895935
0.416868656873703 0.21350055932998657 0.42957714200019836
0.48039382696151733 0.22754603624343872 0.5287908315658569
0.32488882541656494 0.26969918608665466 0.5613299608230591
0.48017066717147827 0.1712896227836609 0.5992584824562073
0.3049493432044983 0.223653182387352 0.43983688950538635
0.4594499468803406 0.20178955793380737 0.48787471652030945
0.4181106388568878 0.2842828631401062 0.4210382103919983
0.4044681191444397 0.3000950217247009 0.4847981333732605
0.3405837416648865 0.26103970408439636 0.5505329966545105
0.47370561957359314 0.22441448271274567 0.4466817080974579
0.417000949382782 0.1804756373167038 0.5360812544822693
0.37481507658958435 0.2326868325471878 0.5420190095901489
0.36121276021003723 0.18679571151733398 0.4258163273334503
0.384458988904953 0.29461684823036194 0.5274921655654907
0.4614551365375519 0.21355436742305756 0.5842806100845337
0.4031018018722534 0.32462266087532043 0.5530051589012146
0.4641319215297699 0.2065565139055252 0.4346449077129364
0.4895733892917633 0.22219623625278473 0.44643065333366394
0.5308476686477661 0.27056095004081726 0.5326358079910278
0.38238030672073364 0.27994075417518616 0.43079492449760437
0.46482932567596436 0.14042507112026215 0.43929824233055115
0.5126112103462219 0.2826952338218689 0.42803195118904114
0.47439613938331604 0.19275657832622528 0.4148174822330475
0.4092278480529785 0.18398517370224 0.5599889159202576
0.47798049449920654 0.22964976727962494 0.5980498194694519
0.4168439209461212 0.3623701333999634 0.5860267877578735
0.4071851372718811 0.21820977330207825 0.605720579624176
0.3013254702091217 0.22862717509269714 0.4206588864326477
0.4487455487251282 0.3095250129699707 0.44662031531333923
0.4140903055667877 0.157577246427536 0.5152323842048645
0.36366698145866394 0.21443437039852142 0.479740172624588
0.4405350089073181 0.15715013444423676 0.5553992986679077
0.44630885124206543 0.30205586552619934 0.5821669101715088
0.4495379626750946 0.1779116541147232 0.5799781680107117
0.5301717519760132 0.2960471510887146 0.4333098232746124
0.3213028311729431 0.21070127189159393 0.4792465269565582
0.41867128014564514 0.20926158130168915 0.442962646484375
0.3880784511566162 0.2131403386592865 0.4842934012413025
0.3935311734676361 0.19813786447048187 0.4723741412162781
0.49062737822532654 0.22357310354709625 0.4168494939804077
0.3785853981971741 0.36781686544418335 0.465451180934906
0.47169777750968933 0.2746531069278717 0.5679012537002563
0.358601838350296 0.27784717082977295 0.5432927012443542
0.35841044783592224 0.3073079586029053 0.4569222629070282
0.3516288995742798 0.3114917576313019 0.44140470027923584
0.449919730424881 0.13031797111034393 0.4626716673374176
0.37481534481048584 0.22540557384490967 0.5051285028457642
0.36415550112724304 0.32659557461738586 0.4523009657859802
0.43081921339035034 0.17397892475128174 0.44525575637817383
0.4216645658016205 0.2385130226612091 0.5018032789230347
0.36052775382995605 0.27657270431518555 0.5302290320396423
0.3565863072872162 0.25366687774658203 0.4694448709487915
0.3723277747631073 0.258267879486084 0.5460300445556641
0.4055623710155487 0.2966868579387665 0.5865207314491272
0.45689845085144043 0.17443110048770905 0.5397568345069885
0.3405837416648865 0.26103970408439636 0.5505329966545105
0.47370561957359314 0.22441448271274567 0.4466817080974579
0.417000949382782 0.1804756373167038 0.5360812544822693
0.37481507658958435 0.2326868325471878 0.5420190095901489
0.3817838430404663 0.16224586963653564 0.5101073384284973
0.44782936573028564 0.19833143055438995 0.46476611495018005
0.45172926783561707 0.31509077548980713 0.5837368965148926
0.43430519104003906 0.2713507413864136 0.49080392718315125
0.4050901532173157 0.17398884892463684 0.6030187606811523
0.48098450899124146 0.25003746151924133 0.4196615219116211
0.42490261793136597 0.20874860882759094 0.6066334247589111
0.4408285319805145 0.2721914052963257 0.5916939973831177
0.3654693067073822 0.26206260919570923 0.4952876567840576
0.35666394233703613 0.23437799513339996 0.5524226427078247
0.43683141469955444 0.2387954592704773 0.5350762009620667
0.4819001853466034 0.21095092594623566 0.5060201287269592
0.32165175676345825 0.24041485786437988 0.4235456585884094
0.482632040977478 0.15454374253749847 0.5326136350631714
0.41307923197746277 0.34956470131874084 0.4683816432952881
0.431618869304657 0.20643244683742523 0.5566313862800598
0.44386860728263855 0.2400808483362198 0.4967622458934784
0.44452452659606934 0.12061754614114761 0.5816747546195984
0.4592532813549042 0.30432361364364624 0.45866578817367554
0.3759779930114746 0.3575688600540161 0.4530353248119354
0.3293139934539795 0.2121700793504715 0.4888108968734741
0.36446094512939453 0.19063331186771393 0.5692658424377441
0.3507678806781769 0.22113734483718872 0.45745357871055603
0.4549463391304016 0.33519595861434937 0.5808635950088501
0.42915669083595276 0.23954087495803833 0.5657684803009033
0.37391796708106995 0.34637904167175293 0.5409348607063293
0.33764198422431946 0.2529858350753784 0.4874700605869293
0.454129695892334 0.1663990616798401 0.48716044425964355
0.5103079676628113 0.3005821406841278 0.4481039047241211
0.39158886671066284 0.2402433604001999 0.6082004308700562
0.5023840665817261 0.29727792739868164 0.46911340951919556
0.35128846764564514 0.29565978050231934 0.5865534543991089
0.4206947088241577 0.2754015028476715 0.48967915773391724
0.4254104495048523 0.30328869819641113 0.6135879158973694
0.5085009336471558 0.2680225074291229 0.43210119009017944
0.39491668343544006 0.38254910707473755 0.44091495871543884
0.39702343940734863 0.18520501255989075 0.5038318634033203
0.453509658575058 0.11561788618564606 0.48921599984169006
0.507927656173706 0.267287015914917 0.5220634341239929
0.4532566964626312 0.18523633480072021 0.5903289914131165
0.3255877196788788 0.2602449655532837 0.4292275905609131
0.36112192273139954 0.27958136796951294 0.5861561298370361
0.41063740849494934 0.2649398148059845 0.5686057209968567
0.39922407269477844 0.1672075092792511 0.42177724838256836
0.3420286774635315 0.2664903998374939 0.5757867693901062
0.4655781686306 0.1542726308107376 0.5537654161453247
0.4985275864601135 0.24186785519123077 0.5891734957695007
0.4194154441356659 0.2959362268447876 0.5050798654556274
0.3775959610939026 0.1591637134552002 0.5153305530548096
0.46360334753990173 0.16449898481369019 0.427242249250412
0.3579484522342682 0.2017531394958496 0.5332075953483582
0.4873254895210266 0.18281370401382446 0.5789505243301392
0.3196667432785034 0.19768336415290833 0.4664364159107208
0.37192457914352417 0.1893792748451233 0.5344733595848083
0.41443488001823425 0.30610594153404236 0.4464133083820343
0.48235857486724854 0.324066162109375 0.5042875409126282
0.45188063383102417 0.28241342306137085 0.49074995517730713
0.43490737676620483 0.23523268103599548 0.48622921109199524
0.49006620049476624 0.17998485267162323 0.410075306892395
0.309530645608902 0.236189603805542 0.5917300581932068
0.43678727746009827 0.261127769947052 0.5956138968467712
0.39982789754867554 0.3329296410083771 0.4399258494377136
0.5195547938346863 0.31113022565841675 0.44104933738708496
0.42436012625694275 0.32079848647117615 0.5371432304382324
0.5201294422149658 0.24967795610427856 0.4257972538471222
0.48134079575538635 0.239275723695755 0.419002503156662
0.5449754595756531 0.25434690713882446 0.5721831917762756
0.48415860533714294 0.2101711481809616 0.45050048828125
0.3428967595100403 0.3045933246612549 0.4213169813156128
0.40999120473861694 0.35124102234840393 0.4657075107097626
0.44267159700393677 0.2053239494562149 0.41248416900634766
0.45131850242614746 0.27466416358947754 0.5695227980613708
0.4393201768398285 0.17686189711093903 0.45780113339424133
0.434374064207077 0.3218629062175751 0.5644339323043823
0.47057560086250305 0.24644696712493896 0.4464688301086426
0.37421509623527527 0.3416191637516022 0.4856840968132019
0.3865698277950287 0.2838873863220215 0.5147613883018494
0.3761744201183319 0.23973354697227478 0.4894123077392578
0.45929455757141113 0.3255041539669037 0.602028489112854
0.2916751503944397 0.20857664942741394 0.6040515899658203
0.5300920605659485 0.23704996705055237 0.4879085421562195
0.3864031434059143 0.33476167917251587 0.5455232262611389
0.3970698118209839 0.33251485228538513 0.5605282187461853
0.4134872257709503 0.18847912549972534 0.45767030119895935
0.416868656873703 0.21350055932998657 0.42957714200019836
0.48039382696151733 0.22754603624343872 0.5287908315658569
0.32488882541656494 0.26969918608665466 0.5613299608230591
0.48017066717147827 0.1712896227836609 0.5992584824562073
0.3049493432044983 0.223653182387352 0.43983688950538635
0.4594499468803406 0.20178955793380737 0.48787471652030945
0.4181106388568878 0.2842828631401062 0.4210382103919983
0.4044681191444397 0.3000950217247009 0.4847981333732605
0.3405837416648865 0.26103970408439636 0.5505329966545105
0.47370561957359314 0.22441448271274567 0.4466817080974579
0.417000949382782 0.1804756373167038 0.5360812544822693
0.37481507658958435 0.2326868325471878 0.5420190095901489
0.31001201272010803 0.21821139752864838 0.4223538637161255
0.32488882541656494 0.26969918608665466 0.5613299608230591
0.48017066717147827 0.1712896227836609 0.5992584824562073
0.3049493432044983 0.223653182387352 0.43983688950538635
0.4594499468803406 0.20178955793380737 0.48787471652030945
0.4181106388568878 0.2842828631401062 0.4210382103919983
0.4044681191444397 0.3000950217247009 0.4847981333732605
0.3405837416648865 0.26103970408439636 0.5505329966545105
0.47370561957359314 0.22441448271274567 0.4466817080974579
0.417000949382782 0.1804756373167038 0.5360812544822693
0.37481507658958435 0.2326868325471878 0.5420190095901489
0.3879111409187317 0.23397859930992126 0.5315602421760559
0.5084368586540222 0.22891797125339508 0.604254961013794
0.511559247970581 0.284599632024765 0.5421877503395081
0.47722938656806946 0.174611434340477 0.44598278403282166
0.4278804063796997 0.25982582569122314 0.5329327583312988
0.44179263710975647 0.13649703562259674 0.5694034099578857
0.453207403421402 0.306905061006546 0.47321879863739014
0.34228911995887756 0.18600216507911682 0.48656272888183594
0.3714866042137146 0.2453707605600357 0.5531435608863831
0.4240175485610962 0.33130988478660583 0.47387412190437317
0.37703850865364075 0.22767631709575653 0.4563678503036499
0.4018459618091583 0.15420123934745789 0.5235992670059204
0.3642013669013977 0.30232807993888855 0.535709798336029
0.47906213998794556 0.23094318807125092 0.4182911217212677
0.41398781538009644 0.29347264766693115 0.5912076830863953
0.4040609300136566 0.1985732614994049 0.5139514803886414
0.3908184766769409 0.2806479334831238 0.44520798325538635
0.44614991545677185 0.19303405284881592 0.5429508090019226
0.40117719769477844 0.3752169907093048 0.43807119131088257
0.4550117254257202 0.2563488781452179 0.604428231716156
0.5103079676628113 0.3005821406841278 0.4481039047241211
0.421621710062027 0.21382024884223938 0.4479295611381531
0.3970698118209839 0.33251485228538513 0.5605282187461853
0.4134872257709503 0.18847912549972534 0.45767030119895935
0.416868656873703 0.21350055932998657 0.42957714200019836
0.48039382696151733 0.22754603624343872 0.5287908315658569
0.32488882541656494 0.26969918608665466 0.5613299608230591
0.48017066717147827 0.1712896227836609 0.5992584824562073
0.3049493432044983 0.223653182387352 0.43983688950538635
0.4594499468803406 0.20178955793380737 0.48787471652030945
0.39812445640563965 0.3486078679561615 0.5965532660484314
0.46973103284835815 0.16788655519485474 0.6031627058982849
0.4223831593990326 0.2075885534286499 0.48042282462120056
0.44794660806655884 0.3343838155269623 0.4875260293483734
0.45740100741386414 0.1490585207939148 0.5639324188232422
0.36380457878112793 0.3273365795612335 0.4474865794181824
0.3915589451789856 0.1729145497083664 0.5470162034034729
0.5506301522254944 0.26004230976104736 0.5165906548500061
0.5084368586540222 0.22891797125339508 0.604254961013794
0.511559247970581 0.284599632024765 0.5421877503395081
0.4546869397163391 0.27419376373291016 0.4709882438182831
0.47722938656806946 0.174611434340477 0.44598278403282166
0.4278804063796997 0.25982582569122314 0.5329327583312988
0.44179263710975647 0.13649703562259674 0.5694034099578857
0.46280616521835327 0.1922553926706314 0.5976653099060059
0.3936993181705475 0.2082534283399582 0.573611319065094
0.39228931069374084 0.3703799843788147 0.452642023563385
0.4938119351863861 0.3255530893802643 0.42908772826194763
0.405974805355072 0.344463586807251 0.592711865901947
0.4254104495048523 0.30328869819641113 0.6135879158973694
0.5085009336471558 0.2680225074291229 0.43210119009017944
0.4511074721813202 0.11782770603895187 0.5888274312019348
0.4411279857158661 0.3089051842689514 0.5390663146972656
0.33931607007980347 0.2364221215248108 0.5731021761894226
0.511559247970581 0.284599632024765 0.5421877503395081
0.4546869397163391 0.27419376373291016 0.4709882438182831
0.47722938656806946 0.174611434340477 0.44598278403282166
0.4278804063796997 0.25982582569122314 0.5329327583312988
0.44179263710975647 0.13649703562259674 0.5694034099578857
0.46280616521835327 0.1922553926706314 0.5976653099060059
0.3936993181705475 0.2082534283399582 0.573611319065094
0.39228931069374084 0.3703799843788147 0.452642023563385
0.4938119351863861 0.3255530893802643 0.42908772826194763
0.405974805355072 0.344463586807251 0.592711865901947
0.4254104495048523 0.30328869819641113 0.6135879158973694
0.5085009336471558 0.2680225074291229 0.43210119009017944
0.4511074721813202 0.11782770603895187 0.5888274312019348
0.4411279857158661 0.3089051842689514 0.5390663146972656
0.43776950240135193 0.12984813749790192 0.467972993850708
0.3750157356262207 0.23161393404006958 0.544413685798645
0.3820469379425049 0.25931039452552795 0.49439913034439087
0.38227665424346924 0.27889564633369446 0.5191876888275146
0.4872134327888489 0.2852863371372223 0.4846678674221039
0.4059305787086487 0.2889355421066284 0.58247971534729
0.45499762892723083 0.2940496802330017 0.5772096514701843
0.4380769729614258 0.27128270268440247 0.5922598242759705
0.4087216854095459 0.27525389194488525 0.4973745346069336
0.40828216075897217 0.16736648976802826 0.4568091630935669
0.33202478289604187 0.27209413051605225 0.42114052176475525
0.38073164224624634 0.2849823236465454 0.42272111773490906
0.4651569724082947 0.3315676152706146 0.5973499417304993
0.44408920407295227 0.30332598090171814 0.4180888533592224
0.5200332403182983 0.24900387227535248 0.4147625267505646
0.3825582265853882 0.3564807176589966 0.4778360426425934
0.45034170150756836 0.2878383994102478 0.4445670545101166
0.4640621840953827 0.2993481755256653 0.5699923634529114
0.5129243731498718 0.21048280596733093 0.5868805050849915
0.45040595531463623 0.32239699363708496 0.4742888808250427
0.46265363693237305 0.22480301558971405 0.5355986952781677
0.37896448373794556 0.21910563111305237 0.504502534866333
0.43221908807754517 0.27175480127334595 0.43979158997535706
0.5174185037612915 0.2828601896762848 0.46090900897979736
0.47218698263168335 0.13855332136154175 0.4947296679019928
0.4075443744659424 0.19964350759983063 0.5495828986167908
0.36851274967193604 0.2180032581090927 0.5046084523200989
0.39500412344932556 0.3711218237876892 0.4298200011253357
0.41484612226486206 0.27471068501472473 0.46909040212631226
0.3977510333061218 0.3177686631679535 0.4273711144924164
0.4551234543323517 0.1278829276561737 0.4931616485118866
0.44626879692077637 0.23725122213363647 0.5424628853797913
0.4656004011631012 0.21320730447769165 0.4281674921512604
0.46356767416000366 0.217649906873703 0.4965943694114685
0.45084869861602783 0.1174759492278099 0.4907797873020172
0.34085115790367126 0.24260948598384857 0.45558440685272217
0.3748461902141571 0.16017508506774902 0.5825942754745483
0.41133543848991394 0.3328792154788971 0.5610936284065247
0.32149267196655273 0.24142952263355255 0.5715586543083191
0.3563537001609802 0.2271624356508255 0.5838103294372559
0.44983163475990295 0.12780342996120453 0.5954195857048035
0.4258115887641907 0.1608327180147171 0.5444021821022034
0.4740787446498871 0.25222453474998474 0.5769575238227844
0.4092561900615692 0.23970623314380646 0.4500124156475067
0.45929455757141113 0.3255041539669037 0.602028489112854
0.2916751503944397 0.20857664942741394 0.6040515899658203
0.5300920605659485 0.23704996705055237 0.4879085421562195
0.3864031434059143 0.33476167917251587 0.5455232262611389
0.3970698118209839 0.33251485228538513 0.5605282187461853
0.4037797451019287 0.1950538456439972 0.5266983509063721
0.47798049449920654 0.22964976727962494 0.5980498194694519
0.4168439209461212 0.3623701333999634 0.5860267877578735
0.4071851372718811 0.21820977330207825 0.605720579624176
0.47859832644462585 0.17474429309368134 0.4060405492782593
0.4451955258846283 0.23561795055866241 0.5749933123588562
0.40718597173690796 0.2957504689693451 0.48012375831604004
0.40983861684799194 0.3174593150615692 0.5410032868385315
0.4727495014667511 0.3181251585483551 0.42045050859451294
0.38504359126091003 0.1819307655096054 0.5642610192298889
0.36860400438308716 0.2895490229129791 0.5514445900917053
0.43342286348342896 0.22975458204746246 0.42402172088623047
0.4600411355495453 0.2411545366048813 0.5293436646461487
0.4094145596027374 0.34869474172592163 0.498444139957428
0.34928008913993835 0.19203253090381622 0.5316286683082581
0.44578567147254944 0.23385757207870483 0.4296827018260956
0.36550718545913696 0.3145397901535034 0.5447974801063538
0.5271362066268921 0.28890466690063477 0.49712446331977844
0.5473023653030396 0.2770238518714905 0.5750720500946045
0.5159072875976562 0.24185451865196228 0.48629143834114075
0.39233794808387756 0.21393877267837524 0.48345935344696045
0.370071679353714 0.209187313914299 0.5420458912849426
0.37475427985191345 0.25179043412208557 0.46708133816719055
0.4154195189476013 0.2643495798110962 0.5506343841552734
0.4970252811908722 0.23202170431613922 0.4551345705986023
0.43583226203918457 0.29566508531570435 0.4691871702671051
0.39633214473724365 0.2913987338542938 0.6134774088859558
0.4734433591365814 0.2616008520126343 0.5086464285850525
0.5042937994003296 0.28686437010765076 0.5622135996818542
0.44890880584716797 0.3488280773162842 0.43181857466697693
0.39860567450523376 0.1639777272939682 0.4711005389690399
0.4533044397830963 0.31814277172088623 0.49700960516929626
0.44782936573028564 0.19833143055438995 0.46476611495018005
0.32955795526504517 0.23795832693576813 0.5667411684989929
0.38352927565574646 0.183672234416008 0.5308114290237427
0.3708837628364563 0.2291499376296997 0.43508416414260864
0.36244258284568787 0.31301969289779663 0.5220259428024292
0.42456287145614624 0.2215622365474701 0.4377812445163727
0.41838791966438293 0.3581531345844269 0.46257999539375305
0.37979573011398315 0.2161249965429306 0.5851306319236755
0.501232385635376 0.2695572078227997 0.48897668719291687
0.29443106055259705 0.21712136268615723 0.5044786930084229
0.44147390127182007 0.22704878449440002 0.5502923727035522
0.48524245619773865 0.1547957807779312 0.5982445478439331
0.41140034794807434 0.32277828454971313 0.5071188807487488
0.494240403175354 0.2152538001537323 0.422216534614563
0.432003378868103 0.3497250974178314 0.42795735597610474
0.39305755496025085 0.16623319685459137 0.41079893708229065
0.4125191569328308 0.24219132959842682 0.42516660690307617
0.3362641930580139 0.23722027242183685 0.4232434928417206
0.5132091045379639 0.30205264687538147 0.42647841572761536
0.4169692099094391 0.14309202134609222 0.4083326458930969
0.41997119784355164 0.3584343194961548 0.4835336208343506
0.3373248875141144 0.19303619861602783 0.5297247767448425
0.3728177547454834 0.20559509098529816 0.5673352479934692
0.4450431168079376 0.2474183589220047 0.4452657997608185
0.4091612994670868 0.19264155626296997 0.5045285820960999
0.42819640040397644 0.28337761759757996 0.42767009139060974
0.44982537627220154 0.3407181203365326 0.5397740602493286
0.4498770534992218 0.18160150945186615 0.4305782914161682
0.48975837230682373 0.1830010563135147 0.44837310910224915
0.3993440568447113 0.27664458751678467 0.5172633528709412
0.38812094926834106 0.20386268198490143 0.4699495732784271
0.45812153816223145 0.1511019468307495 0.5552816987037659
0.5506301522254944 0.26004230976104736 0.5165906548500061
0.39228931069374084 0.3703799843788147 0.452642023563385
0.4938119351863861 0.3255530893802643 0.42908772826194763
0.405974805355072 0.344463586807251 0.592711865901947
0.4254104495048523 0.30328869819641113 0.6135879158973694
0.5085009336471558 0.2680225074291229 0.43210119009017944
0.4511074721813202 0.11782770603895187 0.5888274312019348
0.4411279857158661 0.3089051842689514 0.5390663146972656
0.38118699193000793 0.3626156449317932 0.4809982478618622
0.3373796045780182 0.22479777038097382 0.5980672836303711
0.5106407403945923 0.2370721697807312 0.411391019821167
0.46749064326286316 0.1730598360300064 0.486436665058136
0.494385302066803 0.21181249618530273 0.4824766516685486
0.48407071828842163 0.18603216111660004 0.42005500197410583
0.4803510904312134 0.17615404725074768 0.5476741194725037
0.40468737483024597 0.2222665399312973 0.43785253167152405
