ply
format ascii 1.0
element vertex 832
property float x
property float y
property float z
end_header
0.7898163795471191 0.33025723695755005 0.4277592897415161
0.7084400653839111 0.36104074120521545 0.4910784363746643
0.7176001667976379 0.2275376319885254 0.3916184604167938
0.7094947099685669 0.3510943055152893 0.4298524558544159
0.744907796382904 0.3512265384197235 0.4783332943916321
0.7288650274276733 0.29988905787467957 0.49050307273864746
0.6662936210632324 0.1931062489748001 0.4099901020526886
0.6337558627128601 0.20357413589954376 0.4727380871772766
0.6882664561271667 0.29375264048576355 0.40976303815841675
0.6795541644096375 0.26156488060951233 0.5294475555419922
0.6021744608879089 0.28434574604034424 0.41732457280158997
0.7698225975036621 0.3507739007472992 0.5768009424209595
0.7459462285041809 0.20611423254013062 0.560023844242096
0.6844173073768616 0.22796133160591125 0.4018867015838623
0.7704038023948669 0.33398953080177307 0.5304465293884277
0.7236127257347107 0.33436331152915955 0.47275516390800476
0.773849606513977 0.31432288885116577 0.578818678855896
0.7087795734405518 0.20568332076072693 0.3956456184387207
0.7266967296600342 0.3652709424495697 0.4549105167388916
0.8160713911056519 0.2217516452074051 0.5120609998703003
0.6540336608886719 0.25044378638267517 0.44130173325538635
0.7423132061958313 0.22933724522590637 0.5503840446472168
0.7280812859535217 0.3401797413825989 0.5821078419685364
0.72954261302948 0.2962245047092438 0.5545313358306885
0.7452872395515442 0.38878798484802246 0.5826522707939148
0.7929126024246216 0.23497939109802246 0.47350865602493286
0.753873884677887 0.3612847924232483 0.4282152056694031
0.7309550046920776 0.29657217860221863 0.41006118059158325
0.7820133566856384 0.31540152430534363 0.5045154094696045
0.6453138589859009 0.31990182399749756 0.5030009150505066
0.7663396000862122 0.40560194849967957 0.497120201587677
0.6270790100097656 0.3362520635128021 0.4211307168006897
0.7403409481048584 0.3535405695438385 0.5458880066871643
0.7298291921615601 0.3817650377750397 0.5054779648780823
0.7418708205223083 0.31231486797332764 0.5356036424636841
0.6356493830680847 0.2783227562904358 0.4208698868751526
0.6865898370742798 0.31849968433380127 0.49065718054771423
0.5978651642799377 0.31172502040863037 0.47250398993492126
0.71616530418396 0.28475815057754517 0.45867079496383667
0.8002592325210571 0.3267943859100342 0.5097419619560242
0.740852952003479 0.32619547843933105 0.5325609445571899
0.7648969292640686 0.3381519019603729 0.3838132619857788
0.6597012281417847 0.2688438296318054 0.5001872777938843
0.7467177510261536 0.2764371931552887 0.43423590064048767
0.6712820529937744 0.3754847049713135 0.5109517574310303
0.7574526071548462 0.3015340268611908 0.39359068870544434
0.6852567195892334 0.19078320264816284 0.4580700993537903
0.6405763030052185 0.2250312864780426 0.39392855763435364
0.822165846824646 0.26379603147506714 0.5598757863044739
0.7830909490585327 0.23006604611873627 0.5204626321792603
0.6232170462608337 0.30147790908813477 0.48824188113212585
0.6385717988014221 0.3294623792171478 0.5913101434707642
0.7778640389442444 0.2681819796562195 0.48967796564102173
0.6582197546958923 0.3442775309085846 0.46374809741973877
0.6523566842079163 0.3490414023399353 0.5631349682807922
0.6674472093582153 0.2910196781158447 0.4313790202140808
0.681887149810791 0.26352909207344055 0.45409470796585083
0.7062386274337769 0.30957067012786865 0.4219364523887634
0.7255433201789856 0.38157525658607483 0.40661826729774475
0.7531698942184448 0.20000746846199036 0.47165247797966003
0.7530269622802734 0.28604722023010254 0.4232889711856842
0.7529985308647156 0.21159625053405762 0.44778549671173096
0.6809418797492981 0.32203352451324463 0.46819230914115906
0.6854873299598694 0.3628849685192108 0.5502287745475769
0.6282084584236145 0.3397849500179291 0.5853836536407471
0.7417329549789429 0.2135765105485916 0.5634124279022217
0.8406389951705933 0.2350083589553833 0.5591511130332947
0.7973307371139526 0.33797791600227356 0.4822794497013092
0.6288710832595825 0.2976762652397156 0.5514066815376282
0.8018237352371216 0.26370969414711 0.46662524342536926
0.7152342200279236 0.30075475573539734 0.46885403990745544
0.7398163080215454 0.22000384330749512 0.5299624800682068
0.7511298060417175 0.3149517774581909 0.5233567357063293
0.828342854976654 0.23727373778820038 0.5613105297088623
0.7073355913162231 0.2116021066904068 0.5643408894538879
0.7712875008583069 0.3283567726612091 0.557973325252533
0.7213424444198608 0.2790452539920807 0.38262900710105896
0.7058996558189392 0.24542178213596344 0.4950859248638153
0.735264778137207 0.3076314330101013 0.5420400500297546
0.7330941557884216 0.2742132842540741 0.5527507662773132
0.7542299628257751 0.37032240629196167 0.46161457896232605
0.7819638848304749 0.36290186643600464 0.4465968608856201
0.6967225074768066 0.24168723821640015 0.5481831431388855
0.6643762588500977 0.24270696938037872 0.5217394828796387
0.7276106476783752 0.21673141419887543 0.4417729079723358
0.7306342124938965 0.33329376578330994 0.5129407644271851
0.6453363299369812 0.32031598687171936 0.5195873975753784
0.7996209859848022 0.2586211860179901 0.39998582005500793
0.7402966618537903 0.39306023716926575 0.4335929751396179
0.7321544885635376 0.2398795485496521 0.5681565403938293
0.6692644953727722 0.36953824758529663 0.471233069896698
0.8049138188362122 0.266351580619812 0.45537135004997253
0.7824304103851318 0.2996220290660858 0.4367963969707489
0.7889317274093628 0.20707547664642334 0.4969964921474457
0.7068212032318115 0.1924237757921219 0.5316430926322937
0.7116227746009827 0.2840811014175415 0.4222235083580017
0.7589964270591736 0.35208991169929504 0.5711104869842529
0.6972054243087769 0.24038094282150269 0.523614764213562
0.7061478495597839 0.26924335956573486 0.4720945954322815
0.7028893232345581 0.20981469750404358 0.5747877955436707
0.6728388667106628 0.24694348871707916 0.39991703629493713
0.7944654226303101 0.27943578362464905 0.3901386260986328
0.6546076536178589 0.21381916105747223 0.42425939440727234
0.7393767237663269 0.2972477078437805 0.5806631445884705
0.7140479683876038 0.34028151631355286 0.4603166878223419
0.7530574798583984 0.37794506549835205 0.46580252051353455
0.8359053730964661 0.2314693033695221 0.4676518440246582
0.661066472530365 0.284650057554245 0.5118716359138489
0.8027151226997375 0.22718578577041626 0.3805895745754242
0.6801450848579407 0.24892058968544006 0.5255232453346252
0.7480981945991516 0.35209548473358154 0.46468013525009155
0.7791329026222229 0.35821670293807983 0.5261157155036926
0.7519897222518921 0.3016638159751892 0.44308626651763916
0.6282427906990051 0.325251966714859 0.5859212875366211
0.6199963092803955 0.30642205476760864 0.5819940567016602
0.602333128452301 0.2924984097480774 0.46253862977027893
0.6090408563613892 0.32344815135002136 0.479310542345047
0.6484913229942322 0.2885883152484894 0.5545992255210876
0.6533717513084412 0.26484283804893494 0.5365488529205322
0.7686095237731934 0.32737311720848083 0.4059969186782837
0.6422135829925537 0.2290855497121811 0.5059242248535156
0.8009735345840454 0.2162611186504364 0.4430602490901947
0.7326973080635071 0.2389964908361435 0.5136029720306396
0.8260422945022583 0.22937166690826416 0.48724809288978577
0.6626431345939636 0.2611895799636841 0.4823398292064667
0.7264270186424255 0.23235119879245758 0.37538695335388184
0.8165449500083923 0.2596192955970764 0.4836985468864441
0.6022966504096985 0.31385669112205505 0.5008186101913452
0.7635412216186523 0.21804790198802948 0.553585946559906
0.7290539741516113 0.3850998878479004 0.40205705165863037
0.777173638343811 0.30897706747055054 0.4899923801422119
0.7687644958496094 0.3976304829120636 0.5826115608215332
0.6166936159133911 0.35088297724723816 0.4083818197250366
0.7395742535591125 0.3420701026916504 0.4536113142967224
0.6427901983261108 0.35366567969322205 0.5507290363311768
0.8104511499404907 0.2362065315246582 0.38226553797721863
0.7786965370178223 0.2799905240535736 0.4035705327987671
0.7113597393035889 0.28454554080963135 0.5480673313140869
0.788266658782959 0.3321712613105774 0.5077467560768127
0.7093124389648438 0.24391388893127441 0.5282848477363586
0.6275975108146667 0.29693901538848877 0.524604082107544
0.8226746916770935 0.28379589319229126 0.5119338035583496
0.7919993996620178 0.32819265127182007 0.5334680080413818
0.6433021426200867 0.27933067083358765 0.49830523133277893
0.7711725234985352 0.28599587082862854 0.4702359139919281
0.7974679470062256 0.35450881719589233 0.5737574696540833
0.6510807871818542 0.3525311350822449 0.5556829571723938
0.7333922982215881 0.3202691078186035 0.5292487144470215
0.6886128187179565 0.1665688008069992 0.5736801028251648
0.6897196173667908 0.34392914175987244 0.5474751591682434
0.7494816184043884 0.2652443051338196 0.40189334750175476
0.6519801616668701 0.2724103629589081 0.5597079396247864
0.6975270509719849 0.2275734692811966 0.5542373061180115
0.6560841798782349 0.350314736366272 0.5132268667221069
0.8043661117553711 0.2503927946090698 0.39105311036109924
0.6880630254745483 0.20372450351715088 0.40991416573524475
0.7424153089523315 0.2775900065898895 0.4878653585910797
0.7016870379447937 0.2765640914440155 0.5851971507072449
0.6936176419258118 0.2109963446855545 0.5812283754348755
0.7811757922172546 0.3252224922180176 0.4583280086517334
0.674932062625885 0.3229857087135315 0.45685312151908875
0.5990439057350159 0.343470960855484 0.4128589928150177
0.6329262852668762 0.23531825840473175 0.41359150409698486
0.6460704207420349 0.3315918743610382 0.45293760299682617
0.660652220249176 0.26003125309944153 0.5202820301055908
0.7395358681678772 0.41176167130470276 0.39574819803237915
0.6615150570869446 0.1891256421804428 0.5194235444068909
0.693425178527832 0.27979612350463867 0.5564002990722656
0.6668112277984619 0.312991201877594 0.3968532979488373
0.7400904297828674 0.3133150041103363 0.4913378655910492
0.6902956366539001 0.19220006465911865 0.5399376153945923
0.6726274490356445 0.36968275904655457 0.4346092939376831
0.7443549036979675 0.38645800948143005 0.5495893955230713
0.6860193014144897 0.22001853585243225 0.5394328832626343
0.7599330544471741 0.38294562697410583 0.5694498419761658
0.6901953220367432 0.34310370683670044 0.5730827450752258
0.6493556499481201 0.20110292732715607 0.5145711898803711
0.8039844632148743 0.3245345950126648 0.4978215992450714
0.604193925857544 0.30842119455337524 0.5732568502426147
0.6873986124992371 0.3215761184692383 0.4295336902141571
0.7117290496826172 0.32350340485572815 0.517937183380127
0.6696255803108215 0.2484787255525589 0.5174432396888733
0.6228564381599426 0.329693466424942 0.5430902242660522
0.700534462928772 0.21947814524173737 0.5001775026321411
0.7239131927490234 0.33316341042518616 0.543762743473053
0.6075864434242249 0.3417869210243225 0.5805432200431824
0.7398163080215454 0.22000384330749512 0.5299624800682068
0.7511298060417175 0.3149517774581909 0.5233567357063293
0.828342854976654 0.23727373778820038 0.5613105297088623
0.7073355913162231 0.2116021066904068 0.5643408894538879
0.7275066375732422 0.19497165083885193 0.5459286570549011
0.7481428980827332 0.3456870913505554 0.4418703019618988
0.7949694991111755 0.34335532784461975 0.4687444269657135
0.6653113961219788 0.180395245552063 0.5391502380371094
0.7411757707595825 0.27385446429252625 0.5014293193817139
0.6233012080192566 0.3409257233142853 0.468045175075531
0.7066704034805298 0.24928529560565948 0.5328868627548218
0.7813048958778381 0.37697991728782654 0.5347926616668701
0.6923836469650269 0.3360046446323395 0.49312424659729004
0.7441484928131104 0.36419814825057983 0.41678386926651
0.7690756916999817 0.354753702878952 0.4412391781806946
0.7431685924530029 0.24370403587818146 0.4402103126049042
0.7778902053833008 0.35530683398246765 0.49731022119522095
0.6152661442756653 0.3389461040496826 0.5395656228065491
0.8039844632148743 0.3245345950126648 0.4978215992450714
0.604193925857544 0.30842119455337524 0.5732568502426147
0.6873986124992371 0.3215761184692383 0.4295336902141571
0.7117290496826172 0.32350340485572815 0.517937183380127
0.6696255803108215 0.2484787255525589 0.5174432396888733
0.6228564381599426 0.329693466424942 0.5430902242660522
0.700534462928772 0.21947814524173737 0.5001775026321411
0.7439661622047424 0.37307387590408325 0.5106289982795715
0.7398163080215454 0.22000384330749512 0.5299624800682068
0.7511298060417175 0.3149517774581909 0.5233567357063293
0.828342854976654 0.23727373778820038 0.5613105297088623
0.7073355913162231 0.2116021066904068 0.5643408894538879
0.7712875008583069 0.3283567726612091 0.557973325252533
0.7673313617706299 0.3101891875267029 0.47057271003723145
0.7310556173324585 0.3182879388332367 0.4947411119937897
0.7369067668914795 0.22654716670513153 0.46550455689430237
0.75413578748703 0.26590898633003235 0.5095368027687073
0.6233012080192566 0.3409257233142853 0.468045175075531
0.7066704034805298 0.24928529560565948 0.5328868627548218
0.7813048958778381 0.37697991728782654 0.5347926616668701
0.6923836469650269 0.3360046446323395 0.49312424659729004
0.7441484928131104 0.36419814825057983 0.41678386926651
0.7690756916999817 0.354753702878952 0.4412391781806946
0.801410973072052 0.27686643600463867 0.40051716566085815
0.6416436433792114 0.3092397153377533 0.5099474191665649
0.7741250395774841 0.35952869057655334 0.4299370348453522
0.7456954717636108 0.24205860495567322 0.4410671591758728
0.7982091307640076 0.29182395339012146 0.5213955044746399
0.6524131298065186 0.2328033596277237 0.5109297633171082
0.7983899116516113 0.34372249245643616 0.485934317111969
0.6428272724151611 0.2296144962310791 0.5616635680198669
0.8256564736366272 0.23157799243927002 0.4157024919986725
0.635552167892456 0.24771879613399506 0.5928460955619812
0.8002592325210571 0.3267943859100342 0.5097419619560242
0.740852952003479 0.32619547843933105 0.5325609445571899
0.7648969292640686 0.3381519019603729 0.3838132619857788
0.6597012281417847 0.2688438296318054 0.5001872777938843
0.7467177510261536 0.2764371931552887 0.43423590064048767
0.6436871886253357 0.25236889719963074 0.5557757019996643
0.6943791508674622 0.17021067440509796 0.5570428371429443
0.7547900080680847 0.22740618884563446 0.5338143110275269
0.7909005880355835 0.3638589084148407 0.5335896611213684
0.6747473478317261 0.30374544858932495 0.406714528799057
0.7448298335075378 0.3125542402267456 0.5325772166252136
0.7304848432540894 0.23214192688465118 0.41233572363853455
0.646697461605072 0.3010433614253998 0.4506828188896179
0.5852814316749573 0.3429615795612335 0.5054032802581787
0.7672987580299377 0.3317287862300873 0.4234340786933899
0.7275430560112 0.21412250399589539 0.4651446044445038
0.6967564225196838 0.361795574426651 0.5587847828865051
0.6689077615737915 0.29776254296302795 0.46612194180488586
0.7001897692680359 0.280693382024765 0.5062627196311951
0.7623924016952515 0.27637696266174316 0.578458845615387
0.6963210701942444 0.24418583512306213 0.5023088455200195
0.8028474450111389 0.3252800405025482 0.48588088154792786
0.7171554565429688 0.3539084196090698 0.5127002000808716
0.7749128937721252 0.31676945090293884 0.4393264353275299
0.6686282157897949 0.2698836922645569 0.4087238609790802
0.7720746397972107 0.320942759513855 0.47114479541778564
0.6879463195800781 0.32825374603271484 0.5762811303138733
0.6600462198257446 0.3795589804649353 0.4124598801136017
0.6962479948997498 0.22315239906311035 0.4962320923805237
0.6255547404289246 0.36145642399787903 0.4594610631465912
0.75740647315979 0.26257336139678955 0.4538310766220093
0.7889317274093628 0.20707547664642334 0.4969964921474457
0.7530574798583984 0.37794506549835205 0.46580252051353455
0.8359053730964661 0.2314693033695221 0.4676518440246582
0.661066472530365 0.284650057554245 0.5118716359138489
0.6786295175552368 0.3110858201980591 0.4001433253288269
0.8143959641456604 0.2637109160423279 0.5088266730308533
0.7757191061973572 0.28830400109291077 0.4680996239185333
0.7177910208702087 0.33816370368003845 0.5153726935386658
0.763523519039154 0.20569196343421936 0.465190589427948
0.7548736333847046 0.3684889078140259 0.4982830286026001
0.7177624702453613 0.21031861007213593 0.5560464262962341
0.696176290512085 0.33271223306655884 0.40350136160850525
0.5885823965072632 0.32056117057800293 0.4237377941608429
0.76114821434021 0.2610682547092438 0.5490841865539551
0.7776841521263123 0.3734878599643707 0.5593606233596802
0.6859616041183472 0.20664241909980774 0.5196035504341125
0.7287343144416809 0.2685379683971405 0.49482885003089905
0.7917443513870239 0.23398615419864655 0.43041062355041504
0.7331786751747131 0.28997743129730225 0.5468724370002747
0.6720693111419678 0.17876330018043518 0.4316155016422272
0.6400228142738342 0.2364765852689743 0.49278056621551514
0.8256564736366272 0.23157799243927002 0.4157024919986725
0.621272087097168 0.2516796290874481 0.4781605303287506
0.6817362308502197 0.2547950744628906 0.47154107689857483
0.6809935569763184 0.32506006956100464 0.524832546710968
0.7768568396568298 0.20753230154514313 0.4719667136669159
0.789915919303894 0.34363579750061035 0.4757290184497833
0.8224371671676636 0.214075967669487 0.5229339003562927
0.6507467031478882 0.3260488510131836 0.48144498467445374
0.8114110827445984 0.2522767186164856 0.48178571462631226
0.6829361319541931 0.36970463395118713 0.5427904725074768
0.6759085655212402 0.3405802249908447 0.4509618282318115
0.7403409481048584 0.3535405695438385 0.5458880066871643
0.8002592325210571 0.3267943859100342 0.5097419619560242
0.740852952003479 0.32619547843933105 0.5325609445571899
0.7648969292640686 0.3381519019603729 0.3838132619857788
0.6597012281417847 0.2688438296318054 0.5001872777938843
0.7467177510261536 0.2764371931552887 0.43423590064048767
0.6436871886253357 0.25236889719963074 0.5557757019996643
0.6943791508674622 0.17021067440509796 0.5570428371429443
0.6883337497711182 0.18012471497058868 0.5719455480575562
0.7732381820678711 0.30801981687545776 0.5720325708389282
0.6319946050643921 0.34573403000831604 0.5347421765327454
0.8185554146766663 0.26708319783210754 0.45091500878334045
0.7779029011726379 0.2144795060157776 0.523066520690918
0.6887240409851074 0.34842097759246826 0.46079301834106445
0.7277129292488098 0.263822466135025 0.4295335114002228
0.7624850869178772 0.24547536671161652 0.46964505314826965
0.7699565291404724 0.3039989769458771 0.41088932752609253
0.7424865961074829 0.23607037961483002 0.3974737524986267
0.7875747680664062 0.20416347682476044 0.5606659650802612
0.6351621747016907 0.26076608896255493 0.5189679861068726
0.7181312441825867 0.31823286414146423 0.45702269673347473
0.6478349566459656 0.18136443197727203 0.4081142842769623
0.7643834352493286 0.29935187101364136 0.5054031610488892
0.7522476315498352 0.23235434293746948 0.5233886241912842
0.6624928116798401 0.23354806005954742 0.4817330241203308
0.7021893858909607 0.39624691009521484 0.41084277629852295
0.6984651684761047 0.19865712523460388 0.53086918592453
0.6084488034248352 0.2594563663005829 0.4282836616039276
0.6525280475616455 0.22465167939662933 0.553545355796814
0.5962156057357788 0.3230462372303009 0.40517011284828186
0.5989570021629333 0.35120320320129395 0.4207281768321991
0.7898615598678589 0.25213730335235596 0.38806477189064026
0.6865898370742798 0.31849968433380127 0.49065718054771423
0.5978651642799377 0.31172502040863037 0.47250398993492126
0.71616530418396 0.28475815057754517 0.45867079496383667
0.8002592325210571 0.3267943859100342 0.5097419619560242
0.740852952003479 0.32619547843933105 0.5325609445571899
0.7648969292640686 0.3381519019603729 0.3838132619857788
0.6597012281417847 0.2688438296318054 0.5001872777938843
0.7467177510261536 0.2764371931552887 0.43423590064048767
0.6436871886253357 0.25236889719963074 0.5557757019996643
0.5996239185333252 0.30058610439300537 0.4851072132587433
0.7199652791023254 0.282899409532547 0.4061603844165802
0.6910381317138672 0.3738556504249573 0.5319546461105347
0.7525482177734375 0.3737786114215851 0.5531692504882812
0.6359192132949829 0.32198038697242737 0.5838857293128967
0.6846990585327148 0.3233668804168701 0.5409655570983887
0.6639121174812317 0.17109297215938568 0.5715574622154236
0.7296810150146484 0.38919126987457275 0.4109877645969391
0.6965124607086182 0.22814613580703735 0.46593979001045227
0.6174885034561157 0.317194402217865 0.4254937171936035
0.7865579128265381 0.21651217341423035 0.5222055912017822
0.6663632392883301 0.17102724313735962 0.5809128880500793
0.7658800482749939 0.2976844608783722 0.5528992414474487
0.757502555847168 0.1928425431251526 0.5420553684234619
0.5923603773117065 0.34733930230140686 0.4697049558162689
0.6566352844238281 0.2184140980243683 0.5188880562782288
0.7111888527870178 0.3177497386932373 0.4188762903213501
0.6237939596176147 0.2525120973587036 0.4048427641391754
0.6660640835762024 0.2889792025089264 0.5420948266983032
0.633436381816864 0.2554299533367157 0.46172380447387695
0.7230995893478394 0.33347955346107483 0.4224066436290741
0.7613723874092102 0.3088597357273102 0.5617489218711853
0.7182937860488892 0.18106770515441895 0.5022537112236023
0.7398163080215454 0.22000384330749512 0.5299624800682068
0.7431685924530029 0.24370403587818146 0.4402103126049042
0.725265383720398 0.34175121784210205 0.5711151957511902
0.6772105097770691 0.2602938711643219 0.3885154724121094
0.772148609161377 0.3646685779094696 0.4549042880535126
0.7960732579231262 0.32662439346313477 0.5536059737205505
0.6524131298065186 0.2328033596277237 0.5109297633171082
0.7037078142166138 0.2860656976699829 0.41753801703453064
0.7193896770477295 0.3534453213214874 0.4912205934524536
0.778022050857544 0.30613550543785095 0.4120858609676361
0.7134776711463928 0.26331332325935364 0.5542088747024536
0.6706622838973999 0.37613365054130554 0.43289506435394287
0.6971811652183533 0.29636430740356445 0.43957775831222534
0.6659510135650635 0.3130339980125427 0.40726879239082336
0.736086905002594 0.23365069925785065 0.567065417766571
0.6580319404602051 0.22436487674713135 0.531708836555481
0.6446192860603333 0.26991531252861023 0.4400354325771332
0.7667108774185181 0.34049272537231445 0.43999776244163513
0.6077876687049866 0.26289692521095276 0.4227156341075897
0.8176982402801514 0.21236681938171387 0.5217509865760803
0.7808182835578918 0.262752503156662 0.3915240168571472
0.7029275298118591 0.3419550061225891 0.47282713651657104
0.6713468432426453 0.23537805676460266 0.5169907212257385
0.6601464748382568 0.31926411390304565 0.5287445187568665
0.6468849182128906 0.3543979525566101 0.5329573154449463
0.7650133967399597 0.21613074839115143 0.5336458086967468
0.5896720290184021 0.3406306207180023 0.4402012526988983
0.697700023651123 0.20112206041812897 0.4353982210159302
0.7394667267799377 0.34530845284461975 0.45230525732040405
0.7118352055549622 0.37519511580467224 0.47222989797592163
0.7017874717712402 0.3612551987171173 0.4591819941997528
0.7241756916046143 0.28505682945251465 0.5157482028007507
0.7395358681678772 0.41176167130470276 0.39574819803237915
0.7673617601394653 0.32320815324783325 0.45006299018859863
0.6931691765785217 0.26875603199005127 0.4446207582950592
0.7256144881248474 0.39800339937210083 0.45543739199638367
0.6488924622535706 0.28694435954093933 0.5802470445632935
0.6731565594673157 0.257527232170105 0.4232783317565918
0.655824601650238 0.2349187284708023 0.4995443522930145
0.7557803988456726 0.28357774019241333 0.5308400392532349
0.6440412998199463 0.18849943578243256 0.43687528371810913
0.6235206723213196 0.22965240478515625 0.4214669466018677
0.7648902535438538 0.24628223478794098 0.5226055383682251
0.717889130115509 0.33103296160697937 0.49867820739746094
0.7306068539619446 0.2332630604505539 0.43638619780540466
0.6908135414123535 0.3121528923511505 0.437820166349411
0.76626056432724 0.37056657671928406 0.5724107027053833
0.7612576484680176 0.3930699825286865 0.4704035222530365
0.7808182835578918 0.262752503156662 0.3915240168571472
0.7029275298118591 0.3419550061225891 0.47282713651657104
0.6713468432426453 0.23537805676460266 0.5169907212257385
0.6601464748382568 0.31926411390304565 0.5287445187568665
0.7650133967399597 0.21613074839115143 0.5336458086967468
0.5896720290184021 0.3406306207180023 0.4402012526988983
0.697700023651123 0.20112206041812897 0.4353982210159302
0.7394667267799377 0.34530845284461975 0.45230525732040405
0.7118352055549622 0.37519511580467224 0.47222989797592163
0.7483081817626953 0.31376156210899353 0.4547666311264038
0.7911112904548645 0.30090320110321045 0.5186071991920471
0.6761370897293091 0.2455058991909027 0.47527724504470825
0.762458860874176 0.19935914874076843 0.49338680505752563
0.7291015386581421 0.3464605510234833 0.4657149910926819
0.7102455496788025 0.3257635533809662 0.4778374135494232
0.7742083072662354 0.3524450957775116 0.5398223400115967
0.774304986000061 0.38435912132263184 0.42530375719070435
0.708868145942688 0.3144785761833191 0.3909400403499603
0.6534973382949829 0.3601282238960266 0.4369637966156006
0.7397083044052124 0.27353566884994507 0.44469770789146423
0.6540468335151672 0.2774379551410675 0.4555787146091461
0.6442604064941406 0.18792445957660675 0.42577922344207764
0.5959717631340027 0.29468852281570435 0.41523855924606323
0.8211458325386047 0.28034305572509766 0.5700507760047913
0.6851207613945007 0.2501140832901001 0.5498220324516296
0.7367642521858215 0.37924686074256897 0.5774897933006287
0.6453784704208374 0.3218904733657837 0.39953070878982544
0.7392544150352478 0.254800409078598 0.5722088813781738
0.6701295971870422 0.35018453001976013 0.4686952531337738
0.7388350367546082 0.35465294122695923 0.48972031474113464
0.7141433954238892 0.22840788960456848 0.48613864183425903
0.741651177406311 0.394193559885025 0.41690635681152344
0.7684987783432007 0.400768518447876 0.5016635656356812
0.6282338500022888 0.32661837339401245 0.5945422649383545
0.7290574908256531 0.3095633387565613 0.5706617832183838
0.6177306771278381 0.34391263127326965 0.5473770499229431
0.6814483404159546 0.29701316356658936 0.5575969815254211
0.6535840630531311 0.2981867790222168 0.4749557077884674
0.796351432800293 0.2614995837211609 0.5417458415031433
0.7498737573623657 0.30604439973831177 0.5249372720718384
0.6929940581321716 0.2544265389442444 0.5781602263450623
0.7000547647476196 0.2723595201969147 0.5726090669631958
0.6509667038917542 0.2645544111728668 0.5737837553024292
0.6575408577919006 0.2064015418291092 0.5018447041511536
0.6910381317138672 0.3738556504249573 0.5319546461105347
0.7525482177734375 0.3737786114215851 0.5531692504882812
0.6359192132949829 0.32198038697242737 0.5838857293128967
0.6846990585327148 0.3233668804168701 0.5409655570983887
0.6943791508674622 0.17021067440509796 0.5570428371429443
0.7641315460205078 0.31247344613075256 0.41434669494628906
0.8099817633628845 0.24378132820129395 0.5575331449508667
0.7377829551696777 0.34734731912612915 0.45371487736701965
0.669532835483551 0.16631364822387695 0.49246498942375183
0.6688721179962158 0.3116172254085541 0.48793596029281616
0.7762535214424133 0.26581475138664246 0.4942527711391449
0.7710347175598145 0.21382459998130798 0.5622215867042542
0.7536613941192627 0.40315908193588257 0.4845792055130005
0.7698256969451904 0.2936917245388031 0.5340222120285034
0.7840166687965393 0.25868716835975647 0.385120689868927
0.7073391675949097 0.31854763627052307 0.514227032661438
0.6928319931030273 0.21401692926883698 0.40098342299461365
0.7654407620429993 0.29946160316467285 0.5184570550918579
0.7254818081855774 0.18733039498329163 0.47789546847343445
0.6456115245819092 0.18612824380397797 0.41990071535110474
0.7366137504577637 0.26525506377220154 0.4565597474575043
0.7197735905647278 0.2208724021911621 0.49843451380729675
0.8088110089302063 0.2922324240207672 0.5101640820503235
0.8067298531532288 0.2766760587692261 0.45276227593421936
0.6001117825508118 0.31226834654808044 0.44806045293807983
0.6849289536476135 0.2094559669494629 0.5652139186859131
0.6398264169692993 0.2936553955078125 0.46712246537208557
0.714112401008606 0.24560560286045074 0.4311831295490265
0.6170130372047424 0.3325031101703644 0.5529984831809998
0.7986847162246704 0.2904178500175476 0.5197294354438782
0.7682631611824036 0.40184250473976135 0.4901942312717438
0.6455593109130859 0.3013710379600525 0.4809078574180603
0.661453127861023 0.3053075671195984 0.42071956396102905
0.7859615683555603 0.27713367342948914 0.4529306888580322
0.6425930857658386 0.24617113173007965 0.5746036767959595
0.7925588488578796 0.24978826940059662 0.5022331476211548
0.6943791508674622 0.17021067440509796 0.5570428371429443
0.791344165802002 0.29917824268341064 0.55242520570755
0.6890779137611389 0.2068602442741394 0.5237363576889038
0.7134838700294495 0.20495478808879852 0.4521167278289795
0.5815549492835999 0.3394913077354431 0.505753219127655
0.7619504332542419 0.3744262158870697 0.41662758588790894
0.7486506700515747 0.288089781999588 0.485480397939682
0.8229630589485168 0.2417430281639099 0.5516539216041565
0.8237047791481018 0.26768022775650024 0.47669708728790283
0.716347873210907 0.19338202476501465 0.5446680784225464
0.7908132672309875 0.3633485734462738 0.5756987929344177
0.7230961322784424 0.26460176706314087 0.520439088344574
0.7229549884796143 0.2836804687976837 0.46114540100097656
0.6210390329360962 0.31702694296836853 0.5665282011032104
0.6421502232551575 0.2116076946258545 0.4882088601589203
0.7516268491744995 0.3087475895881653 0.3885040283203125
0.7808253765106201 0.35966113209724426 0.4259891211986542
0.6514719724655151 0.2044842690229416 0.5249556303024292
0.7804654240608215 0.26443126797676086 0.51906818151474
0.7042920589447021 0.3082086443901062 0.511686384677887
0.6497201323509216 0.34528395533561707 0.5620912313461304
0.650126576423645 0.2581758499145508 0.45899662375450134
0.6250877380371094 0.2535957098007202 0.4943954050540924
0.6609967947006226 0.24879668653011322 0.42514392733573914
0.6654126644134521 0.24308057129383087 0.38830864429473877
0.699730634689331 0.22110587358474731 0.5038709044456482
0.726849377155304 0.22684504091739655 0.4394935369491577
0.6076076626777649 0.28664636611938477 0.4245460629463196
0.7318416833877563 0.25235840678215027 0.5203554630279541
0.7212647795677185 0.2484048306941986 0.46794939041137695
0.7671697735786438 0.21646806597709656 0.43560731410980225
0.6285052299499512 0.3565201163291931 0.43243592977523804
0.6528317332267761 0.2673031985759735 0.5102293491363525
0.7212647795677185 0.2484048306941986 0.46794939041137695
0.7671697735786438 0.21646806597709656 0.43560731410980225
0.6285052299499512 0.3565201163291931 0.43243592977523804
0.7705469131469727 0.3209517300128937 0.5361893177032471
0.6638832092285156 0.18136031925678253 0.4640997350215912
0.6847514510154724 0.34154483675956726 0.47889629006385803
0.789547324180603 0.2221694439649582 0.5625083446502686
0.7747608423233032 0.2032073736190796 0.5056298971176147
0.7296537756919861 0.19000636041164398 0.5464715957641602
0.7825263738632202 0.21438835561275482 0.49249908328056335
0.6730801463127136 0.31279969215393066 0.43526920676231384
0.6830711960792542 0.36588332056999207 0.5374451279640198
0.8233344554901123 0.259757936000824 0.43684422969818115
0.6595086455345154 0.3307282626628876 0.568545401096344
0.7876969575881958 0.25235024094581604 0.44131648540496826
0.750532865524292 0.2056863158941269 0.4606344401836395
0.6464959383010864 0.25568169355392456 0.4431684911251068
0.7554444670677185 0.2474585920572281 0.41122230887413025
0.7172544002532959 0.22759109735488892 0.40948939323425293
0.7342553734779358 0.3869500160217285 0.41005846858024597
0.6836643218994141 0.3404165208339691 0.5807839035987854
0.6923607587814331 0.20966893434524536 0.5356965661048889
0.6982740759849548 0.3399341404438019 0.4026038646697998
0.7226624488830566 0.23960205912590027 0.4731599986553192
0.6304312944412231 0.35596907138824463 0.45950204133987427
0.8016679883003235 0.3259265124797821 0.5261852145195007
0.6294788122177124 0.2316693365573883 0.47314924001693726
0.6541202068328857 0.2779444456100464 0.43452414870262146
0.7151352763175964 0.2729038894176483 0.5205904245376587
0.70828777551651 0.37564006447792053 0.5585964322090149
0.7070402503013611 0.18835356831550598 0.5712962746620178
0.7456954717636108 0.24205860495567322 0.4410671591758728
0.7057709097862244 0.3674214482307434 0.46885547041893005
0.7185095548629761 0.23597870767116547 0.5137845873832703
0.7357863783836365 0.27119821310043335 0.5576218366622925
0.7308100461959839 0.2785629630088806 0.48440638184547424
0.6331427097320557 0.2459256798028946 0.5373439788818359
0.6171860098838806 0.3342304825782776 0.45835667848587036
0.6613139510154724 0.18620869517326355 0.47545191645622253
0.6554895639419556 0.26980969309806824 0.582452118396759
0.694439709186554 0.31292399764060974 0.5567935705184937
0.7324789762496948 0.35205379128456116 0.514799177646637
0.748615026473999 0.3916880190372467 0.4865686595439911
0.7113419771194458 0.2125951051712036 0.42039555311203003
0.7889590859413147 0.35214677453041077 0.5091957449913025
0.6975986361503601 0.35825398564338684 0.44836103916168213
0.6895071268081665 0.26447218656539917 0.43546903133392334
0.6819965839385986 0.28574979305267334 0.5576898455619812
0.7965420484542847 0.3342233896255493 0.4956107437610626
0.8002452254295349 0.30591270327568054 0.3982287347316742
0.7742441296577454 0.2041931450366974 0.49110832810401917
0.7229284644126892 0.20822985470294952 0.5753694176673889
0.7672960758209229 0.2922721207141876 0.5330148339271545
0.7573587894439697 0.24384792149066925 0.562603235244751
0.6200436949729919 0.2405184656381607 0.4676595628261566
0.7170924544334412 0.3349897265434265 0.4721721410751343
0.6983329653739929 0.3674173057079315 0.4242689907550812
0.6824221014976501 0.28215882182121277 0.4474371671676636
0.6965965628623962 0.2158711850643158 0.4767531156539917
0.7066381573677063 0.23036564886569977 0.4288494288921356
0.6778981685638428 0.20237000286579132 0.5698271989822388
0.8080668449401855 0.2891189754009247 0.48585036396980286
0.682597279548645 0.2816307246685028 0.5848677754402161
0.6963210701942444 0.24418583512306213 0.5023088455200195
0.7312760949134827 0.32939717173576355 0.5464988350868225
0.6938029527664185 0.3387611508369446 0.41968396306037903
0.7900996208190918 0.37680700421333313 0.5762046575546265
0.6901414394378662 0.2756900489330292 0.4635584354400635
0.7512012124061584 0.22018074989318848 0.5260127186775208
0.6500869393348694 0.2513233423233032 0.4559116065502167
0.7063820958137512 0.24131366610527039 0.42735591530799866
0.7419540286064148 0.35048139095306396 0.585399329662323
0.6901059150695801 0.2443571388721466 0.55073481798172
0.7856435179710388 0.2705288827419281 0.42082881927490234
0.7641315460205078 0.31247344613075256 0.41434669494628906
0.8099817633628845 0.24378132820129395 0.5575331449508667
0.7377829551696777 0.34734731912612915 0.45371487736701965
0.669532835483551 0.16631364822387695 0.49246498942375183
0.6688721179962158 0.3116172254085541 0.48793596029281616
0.6612105369567871 0.38181307911872864 0.4370935261249542
0.6406713724136353 0.3095116913318634 0.44773778319358826
0.6794516444206238 0.2553004324436188 0.43557730317115784
0.6754292845726013 0.3288887143135071 0.48710763454437256
0.7224586606025696 0.23916859924793243 0.5138748288154602
0.8442696928977966 0.2180798202753067 0.5598424077033997
0.7073391675949097 0.31854763627052307 0.514227032661438
0.6928319931030273 0.21401692926883698 0.40098342299461365
0.7654407620429993 0.29946160316467285 0.5184570550918579
0.7254818081855774 0.18733039498329163 0.47789546847343445
0.6456115245819092 0.18612824380397797 0.41990071535110474
0.7366137504577637 0.26525506377220154 0.4565597474575043
0.7197735905647278 0.2208724021911621 0.49843451380729675
0.8088110089302063 0.2922324240207672 0.5101640820503235
0.6581144332885742 0.2163296788930893 0.3911728858947754
0.7236106991767883 0.3588809669017792 0.40971988439559937
0.7808182835578918 0.262752503156662 0.3915240168571472
0.602777898311615 0.29301777482032776 0.42244911193847656
0.6363568305969238 0.27253106236457825 0.4211078882217407
0.6638832092285156 0.18136031925678253 0.4640997350215912
0.6847514510154724 0.34154483675956726 0.47889629006385803
0.789547324180603 0.2221694439649582 0.5625083446502686
0.7296537756919861 0.19000636041164398 0.5464715957641602
0.7825263738632202 0.21438835561275482 0.49249908328056335
0.6581271290779114 0.35294270515441895 0.49218034744262695
0.6730801463127136 0.31279969215393066 0.43526920676231384
0.6830711960792542 0.36588332056999207 0.5374451279640198
0.8233344554901123 0.259757936000824 0.43684422969818115
0.6595086455345154 0.3307282626628876 0.568545401096344
0.7876969575881958 0.25235024094581604 0.44131648540496826
0.750532865524292 0.2056863158941269 0.4606344401836395
0.7554444670677185 0.2474585920572281 0.41122230887413025
0.7172544002532959 0.22759109735488892 0.40948939323425293
0.669899046421051 0.19333791732788086 0.4830695688724518
0.7342553734779358 0.3869500160217285 0.41005846858024597
0.6836643218994141 0.3404165208339691 0.5807839035987854
0.6923607587814331 0.20966893434524536 0.5356965661048889
0.6982740759849548 0.3399341404438019 0.4026038646697998
0.6304312944412231 0.35596907138824463 0.45950204133987427
0.8016679883003235 0.3259265124797821 0.5261852145195007
0.6294788122177124 0.2316693365573883 0.47314924001693726
0.6541202068328857 0.2779444456100464 0.43452414870262146
0.6541202068328857 0.2779444456100464 0.43452414870262146
0.7151352763175964 0.2729038894176483 0.5205904245376587
0.70828777551651 0.37564006447792053 0.5585964322090149
0.74498450756073 0.20771287381649017 0.5689951181411743
0.7070402503013611 0.18835356831550598 0.5712962746620178
0.7658884525299072 0.24914541840553284 0.4916207194328308
0.7339202761650085 0.2759654223918915 0.42365795373916626
0.8355535864830017 0.22725450992584229 0.452412486076355
0.788353443145752 0.28139162063598633 0.4436509609222412
0.7756940126419067 0.30316928029060364 0.38907885551452637
0.6853312849998474 0.32176437973976135 0.5198931694030762
0.6574625968933105 0.2569994032382965 0.5782278776168823
0.7834008932113647 0.2163011133670807 0.4464065432548523
0.7086763978004456 0.25169190764427185 0.3843565285205841
0.6177545189857483 0.29782164096832275 0.5192115902900696
0.8233820199966431 0.28392452001571655 0.5442935228347778
0.649966835975647 0.325622022151947 0.4507158100605011
0.7728006839752197 0.24312077462673187 0.5422984957695007
0.6661241054534912 0.3699689209461212 0.43572285771369934
0.7280248403549194 0.2429662048816681 0.4475243091583252
0.772761344909668 0.3536267876625061 0.45202019810676575
0.759230375289917 0.23524463176727295 0.48906922340393066
0.6294077038764954 0.32875725626945496 0.4233992397785187
0.7527372241020203 0.3556150794029236 0.419262558221817
0.6788262128829956 0.3151851296424866 0.416496217250824
0.7885919213294983 0.20998597145080566 0.562502384185791
0.5732565522193909 0.34775057435035706 0.4487687945365906
0.5823349952697754 0.3540000021457672 0.42695391178131104
0.6913219690322876 0.27592796087265015 0.48485010862350464
0.6803543567657471 0.24986642599105835 0.44925573468208313
0.6133735775947571 0.3044377267360687 0.40214526653289795
0.7436589598655701 0.22143064439296722 0.48603418469429016
0.6022804975509644 0.31689444184303284 0.41835254430770874
0.804689884185791 0.2555531859397888 0.5491270422935486
0.7113577127456665 0.3840913772583008 0.44467198848724365
0.8239455819129944 0.23216350376605988 0.440054327249527
0.7531867027282715 0.22544820606708527 0.39690640568733215
0.7820597290992737 0.2285483181476593 0.3816395699977875
0.7808182835578918 0.262752503156662 0.3915240168571472
0.8080668449401855 0.2891189754009247 0.48585036396980286
0.682597279548645 0.2816307246685028 0.5848677754402161
0.6334217190742493 0.33966749906539917 0.5371683835983276
0.8294616937637329 0.24251726269721985 0.46725836396217346
0.692465603351593 0.24189764261245728 0.5027334094047546
0.6426993608474731 0.2028287798166275 0.453483909368515
0.6077298521995544 0.3316914737224579 0.5844112038612366
0.6550742387771606 0.3631603717803955 0.40536245703697205
0.7054080367088318 0.29127445816993713 0.5478723049163818
0.6959850788116455 0.36385539174079895 0.4615788161754608
0.6297609806060791 0.25147002935409546 0.5023590922355652
0.6617016196250916 0.19771786034107208 0.3974916636943817
0.5948524475097656 0.32970911264419556 0.503585934638977
0.7609298229217529 0.29054728150367737 0.5453006625175476
0.7699358463287354 0.32480430603027344 0.458290696144104
0.7477290034294128 0.25591152906417847 0.5196873545646667
0.7236708998680115 0.2537108361721039 0.5525874495506287
0.5884714722633362 0.35774198174476624 0.4414139986038208
0.702939510345459 0.38409435749053955 0.43422362208366394
0.8004928827285767 0.32884421944618225 0.4729309380054474
0.7932731509208679 0.2581312358379364 0.5076727867126465
0.6862783432006836 0.35121193528175354 0.54847252368927
0.5902937054634094 0.32047227025032043 0.45446068048477173
0.6920259594917297 0.2310284674167633 0.41175782680511475
0.7341882586479187 0.31745123863220215 0.585147500038147
0.6994305849075317 0.19366003572940826 0.5643259286880493
0.7220473885536194 0.303183913230896 0.4928467273712158
0.6686758995056152 0.3210631310939789 0.3958111107349396
0.7985712885856628 0.2787304222583771 0.5509493947029114
0.7346207499504089 0.25075140595436096 0.5764291286468506
0.8099433779716492 0.2484847903251648 0.5657880902290344
0.6761370897293091 0.2455058991909027 0.47527724504470825
0.7698256969451904 0.2936917245388031 0.5340222120285034
0.7840166687965393 0.25868716835975647 0.385120689868927
0.7073391675949097 0.31854763627052307 0.514227032661438
0.778229296207428 0.3274707794189453 0.5167679786682129
0.7298740744590759 0.20965799689292908 0.49639832973480225
0.6710678935050964 0.16276995837688446 0.5451982021331787
0.6812451481819153 0.27908754348754883 0.5155506730079651
0.6219567060470581 0.30122050642967224 0.5371468663215637
0.6902841329574585 0.18414455652236938 0.553604781627655
0.6893008947372437 0.2362806499004364 0.43798238039016724
0.760349690914154 0.3559364974498749 0.3896242380142212
0.7225270867347717 0.2957648038864136 0.4874833822250366
0.6973940134048462 0.2928345501422882 0.5755264759063721
0.8103650808334351 0.26396188139915466 0.4962652325630188
0.7417720556259155 0.3545382618904114 0.4050903916358948
0.7215253710746765 0.22276438772678375 0.45711109042167664
0.6378054618835449 0.3039392828941345 0.5476717352867126
0.5902309417724609 0.351118803024292 0.425866961479187
0.7010440826416016 0.21109651029109955 0.3831118643283844
0.7792059779167175 0.37313228845596313 0.46743044257164
0.7286266684532166 0.27851811051368713 0.5238844752311707
0.7456416487693787 0.3436180353164673 0.40555694699287415
0.7404600977897644 0.24598340690135956 0.47211527824401855
0.8061954379081726 0.22011809051036835 0.5242812037467957
0.7429357171058655 0.3445630967617035 0.4126443862915039
0.7354171872138977 0.3158106207847595 0.5821205973625183
0.7405015826225281 0.24595516920089722 0.5447677969932556
0.7039698958396912 0.38180992007255554 0.4906083345413208
0.7376088500022888 0.249389186501503 0.44906753301620483
0.7275679707527161 0.38547462224960327 0.40911588072776794
0.6540699005126953 0.3652310073375702 0.4572163224220276
0.7203816175460815 0.23355714976787567 0.5420818328857422
0.8132440447807312 0.2365531176328659 0.533426821231842
0.6443710923194885 0.32013005018234253 0.4333327114582062
0.7663627862930298 0.24568578600883484 0.524913489818573
0.6901414394378662 0.2756900489330292 0.4635584354400635
0.7512012124061584 0.22018074989318848 0.5260127186775208
0.6500869393348694 0.2513233423233032 0.4559116065502167
0.7063820958137512 0.24131366610527039 0.42735591530799866
0.7419540286064148 0.35048139095306396 0.585399329662323
0.6901059150695801 0.2443571388721466 0.55073481798172
0.7856435179710388 0.2705288827419281 0.42082881927490234
0.7641315460205078 0.31247344613075256 0.41434669494628906
0.8099817633628845 0.24378132820129395 0.5575331449508667
0.7377829551696777 0.34734731912612915 0.45371487736701965
0.669532835483551 0.16631364822387695 0.49246498942375183
0.6688721179962158 0.3116172254085541 0.48793596029281616
0.7762535214424133 0.26581475138664246 0.4942527711391449
0.7710347175598145 0.21382459998130798 0.5622215867042542
0.7536613941192627 0.40315908193588257 0.4845792055130005
0.7698256969451904 0.2936917245388031 0.5340222120285034
0.7840166687965393 0.25868716835975647 0.385120689868927
0.7073391675949097 0.31854763627052307 0.514227032661438
0.6928319931030273 0.21401692926883698 0.40098342299461365
0.7654407620429993 0.29946160316467285 0.5184570550918579
0.7254818081855774 0.18733039498329163 0.47789546847343445
0.6456115245819092 0.18612824380397797 0.41990071535110474
0.7366137504577637 0.26525506377220154 0.4565597474575043
0.7197735905647278 0.2208724021911621 0.49843451380729675
0.8088110089302063 0.2922324240207672 0.5101640820503235
0.8067298531532288 0.2766760587692261 0.45276227593421936
0.6001117825508118 0.31226834654808044 0.44806045293807983
0.6849289536476135 0.2094559669494629 0.5652139186859131
0.7707275152206421 0.3900740444660187 0.4969376027584076
0.8002589344978333 0.21141378581523895 0.4819633364677429
0.7561833262443542 0.37662819027900696 0.4308147132396698
0.6411356329917908 0.33965855836868286 0.47272348403930664
0.7001534104347229 0.2309468388557434 0.5493119359016418
0.7312192916870117 0.3011572062969208 0.4374917447566986
0.6694431304931641 0.348209023475647 0.5009416937828064
0.758002758026123 0.374660849571228 0.44346797466278076
0.7751705050468445 0.264548122882843 0.5607163310050964
0.6998521089553833 0.19178541004657745 0.46095120906829834
0.7675662040710449 0.3350295424461365 0.524628221988678
0.6410306096076965 0.2536832094192505 0.582088053226471
0.6990651488304138 0.20888632535934448 0.49743717908859253
0.647534191608429 0.20916952192783356 0.47266077995300293
0.6990651488304138 0.20888632535934448 0.49743717908859253
0.647534191608429 0.20916952192783356 0.47266077995300293
0.6335390210151672 0.35350295901298523 0.44798582792282104
0.6842557787895203 0.3511212468147278 0.4099199175834656
0.6990212798118591 0.2638603746891022 0.4890266954898834
0.8132440447807312 0.2365531176328659 0.533426821231842
0.669257402420044 0.20701177418231964 0.4313657879829407
0.5859235525131226 0.3331766724586487 0.4917505979537964
0.7003426551818848 0.20621751248836517 0.43718448281288147
0.7598429918289185 0.19900023937225342 0.46942099928855896
0.6901414394378662 0.2756900489330292 0.4635584354400635
0.7512012124061584 0.22018074989318848 0.5260127186775208
0.6500869393348694 0.2513233423233032 0.4559116065502167
0.7063820958137512 0.24131366610527039 0.42735591530799866
0.7419540286064148 0.35048139095306396 0.585399329662323
0.6901059150695801 0.2443571388721466 0.55073481798172
0.7856435179710388 0.2705288827419281 0.42082881927490234
0.7641315460205078 0.31247344613075256 0.41434669494628906
0.7537859678268433 0.3498579263687134 0.4777495265007019
0.7512012124061584 0.22018074989318848 0.5260127186775208
0.6500869393348694 0.2513233423233032 0.4559116065502167
0.7063820958137512 0.24131366610527039 0.42735591530799866
0.7419540286064148 0.35048139095306396 0.585399329662323
0.6901059150695801 0.2443571388721466 0.55073481798172
0.7856435179710388 0.2705288827419281 0.42082881927490234
0.7641315460205078 0.31247344613075256 0.41434669494628906
0.8099817633628845 0.24378132820129395 0.5575331449508667
0.7377829551696777 0.34734731912612915 0.45371487736701965
0.669532835483551 0.16631364822387695 0.49246498942375183
0.6688721179962158 0.3116172254085541 0.48793596029281616
0.7762535214424133 0.26581475138664246 0.4942527711391449
0.7710347175598145 0.21382459998130798 0.5622215867042542
0.7565102577209473 0.400925874710083 0.5073457360267639
0.6280553936958313 0.29392823576927185 0.4245903491973877
0.6648911237716675 0.23650461435317993 0.47298961877822876
0.803483784198761 0.2816189229488373 0.4272826015949249
0.7648234367370605 0.2713471055030823 0.5346771478652954
0.696494460105896 0.2926466166973114 0.48982077836990356
