ply
format ascii 1.0
element vertex 832
property float x
property float y
property float z
end_header
0.6534561514854431 0.3184989094734192 0.5662572383880615
0.6617236733436584 0.174558624625206 0.5509706139564514
0.694724440574646 0.2704518735408783 0.43426939845085144
0.7545209527015686 0.22103814780712128 0.5745453834533691
0.7316346764564514 0.2975276708602905 0.39873671531677246
0.8076344132423401 0.24632932245731354 0.5287660360336304
0.7052960395812988 0.2553580105304718 0.4554588794708252
0.8117223978042603 0.29705384373664856 0.5150337815284729
0.7753192782402039 0.28297510743141174 0.4071456789970398
0.7593172788619995 0.3564927279949188 0.5192297101020813
0.7118882536888123 0.2306358963251114 0.4481787383556366
0.706930935382843 0.3657318353652954 0.5871304273605347
0.7499210238456726 0.30460408329963684 0.4861387312412262
0.8276310563087463 0.21144305169582367 0.5539727210998535
0.7303358912467957 0.33464932441711426 0.4291282296180725
0.8147339224815369 0.23033471405506134 0.36985108256340027
0.823885440826416 0.22014997899532318 0.515998125076294
0.6521968841552734 0.2652117609977722 0.5599955320358276
0.7200927138328552 0.17343737185001373 0.554397463798523
0.7433907389640808 0.23184922337532043 0.5264984369277954
0.7061800360679626 0.3343266248703003 0.5155957937240601
0.7523090839385986 0.37704405188560486 0.47099602222442627
0.6290102601051331 0.30396994948387146 0.45663219690322876
0.6538406014442444 0.3626399040222168 0.5145614147186279
0.7592788338661194 0.21121707558631897 0.5201106667518616
0.6405507922172546 0.31972306966781616 0.406114399433136
0.7263177633285522 0.2996385097503662 0.44678816199302673
0.7552182674407959 0.2593926191329956 0.5132757425308228
0.7240684628486633 0.27020779252052307 0.5695981383323669
0.6987650394439697 0.19303980469703674 0.4496035575866699
0.8090091943740845 0.25316959619522095 0.46469250321388245
0.7994529008865356 0.2107292115688324 0.5526237487792969
0.6120710372924805 0.3408357799053192 0.5126372575759888
0.6860070824623108 0.2274630218744278 0.4934171736240387
0.739205539226532 0.36020705103874207 0.3999849855899811
0.6606137156486511 0.28029677271842957 0.4309275448322296
0.7755486369132996 0.3769749402999878 0.5701695680618286
0.6707583069801331 0.22818626463413239 0.4709518551826477
0.7978477478027344 0.22484926879405975 0.5247710943222046
0.7039440870285034 0.3380022943019867 0.5750591158866882
0.7231932878494263 0.3332652449607849 0.48019731044769287
0.78514564037323 0.39028820395469666 0.4809199571609497
0.6747188568115234 0.35448703169822693 0.4218050241470337
0.629690945148468 0.28713497519493103 0.4538053572177887
0.6601675152778625 0.24079805612564087 0.5847241282463074
0.6473164558410645 0.2560119926929474 0.5214112401008606
0.7935439944267273 0.28042367100715637 0.5480241775512695
0.6974596381187439 0.30711719393730164 0.4619072675704956
0.758564293384552 0.38524487614631653 0.5727227926254272
0.7620511651039124 0.22259736061096191 0.4024503529071808
0.7374876737594604 0.3457624912261963 0.4230274260044098
0.7914579510688782 0.3698144257068634 0.5086125731468201
0.623075544834137 0.29834023118019104 0.45202574133872986
0.7729009985923767 0.3956260085105896 0.4700479507446289
0.7815582156181335 0.3369739353656769 0.4916848838329315
0.8010388612747192 0.22417192161083221 0.557663083076477
0.7286638021469116 0.2249513864517212 0.4151703119277954
0.8346084356307983 0.22221629321575165 0.47709745168685913
0.8109150528907776 0.2635626792907715 0.375947505235672
0.7672997713088989 0.22805780172348022 0.4669143855571747
0.6527894139289856 0.19654463231563568 0.40379393100738525
0.790056049823761 0.2601787745952606 0.4708344638347626
0.6957545280456543 0.22799329459667206 0.5786055326461792
0.675707221031189 0.23787888884544373 0.506152331829071
0.6498486399650574 0.26052072644233704 0.48804062604904175
0.7035878896713257 0.24168948829174042 0.4418720304965973
0.8319506645202637 0.2739265561103821 0.5346794724464417
0.751186192035675 0.3912539482116699 0.45690637826919556
0.7174964547157288 0.22014129161834717 0.5125765800476074
0.7313016057014465 0.3442419171333313 0.538165807723999
0.728757381439209 0.2859897315502167 0.3983937203884125
0.6900314092636108 0.17092719674110413 0.5684846639633179
0.6983659267425537 0.19962391257286072 0.4583567678928375
0.6718648076057434 0.2947223484516144 0.4434877038002014
0.6784080862998962 0.2991369962692261 0.4160842299461365
0.678515613079071 0.3246060609817505 0.5593122243881226
0.7569834589958191 0.38409844040870667 0.5663866400718689
0.7057032585144043 0.33562517166137695 0.43126481771469116
0.8356803059577942 0.24145913124084473 0.4874366819858551
0.6171209812164307 0.28842130303382874 0.4159192144870758
0.6871026754379272 0.1690058410167694 0.5268889665603638
0.7696908712387085 0.20096427202224731 0.5563560724258423
0.7760860323905945 0.37148866057395935 0.45701396465301514
0.7018542885780334 0.19099494814872742 0.49540287256240845
0.810890257358551 0.26254919171333313 0.45799511671066284
0.8178488612174988 0.2249087542295456 0.44124892354011536
0.7576397657394409 0.36186739802360535 0.5360132455825806
0.6681817770004272 0.17988735437393188 0.40183866024017334
0.677655816078186 0.2844029366970062 0.4295731484889984
0.6723660230636597 0.24379537999629974 0.46000179648399353
0.7846760749816895 0.22205087542533875 0.4256874620914459
0.7853646874427795 0.2419431060552597 0.42094382643699646
0.7372974157333374 0.32945141196250916 0.4886907637119293
0.6556552648544312 0.26738131046295166 0.5398039221763611
0.6417511105537415 0.27661365270614624 0.46053189039230347
0.7972617745399475 0.2296799123287201 0.36882588267326355
0.6813086271286011 0.33507299423217773 0.5644373297691345
0.7260355949401855 0.30741530656814575 0.5693163275718689
0.6813086271286011 0.33507299423217773 0.5644373297691345
0.7260355949401855 0.30741530656814575 0.5693163275718689
0.6738844513893127 0.25486311316490173 0.4688981771469116
0.7699720859527588 0.3665428161621094 0.5293574929237366
0.6202150583267212 0.30858340859413147 0.4686887562274933
0.6845917105674744 0.20774759352207184 0.38854002952575684
0.6945219039916992 0.2976074516773224 0.4632468521595001
0.78514564037323 0.39028820395469666 0.4809199571609497
0.6914750933647156 0.19954989850521088 0.407897412776947
0.7624260187149048 0.25879645347595215 0.49719229340553284
0.7575387358665466 0.3443315923213959 0.5461105704307556
0.70562344789505 0.3253577649593353 0.49760863184928894
0.7387226819992065 0.36105507612228394 0.4429613947868347
0.8127550482749939 0.2243853658437729 0.427786260843277
0.7717660665512085 0.3296814262866974 0.5454356670379639
0.7238585352897644 0.18361960351467133 0.4600638747215271
0.648034930229187 0.2777455151081085 0.49815496802330017
0.7570686936378479 0.2003612369298935 0.41331368684768677
0.7802008986473083 0.35173141956329346 0.3935038149356842
0.758868396282196 0.36045554280281067 0.3857613205909729
0.7361660599708557 0.33818647265434265 0.4498053193092346
0.6339743137359619 0.28635501861572266 0.5029146671295166
0.7499983310699463 0.2540391683578491 0.4328043758869171
0.762148380279541 0.34917548298835754 0.4946232736110687
0.7857908010482788 0.2000861018896103 0.5438024997711182
0.7802261710166931 0.3024287819862366 0.3859637677669525
0.690593421459198 0.34866568446159363 0.5567771196365356
0.8151861429214478 0.2482827752828598 0.5218587517738342
0.7400493621826172 0.21797245740890503 0.5580993890762329
0.7573264241218567 0.2960009276866913 0.5234254002571106
0.6455680727958679 0.33710741996765137 0.5630966424942017
0.8203943967819214 0.23464564979076385 0.5187926292419434
0.7647889256477356 0.2813550531864166 0.5480846762657166
0.7084618210792542 0.29510051012039185 0.5012273788452148
0.5982825756072998 0.3422578275203705 0.45905137062072754
0.7034015655517578 0.23357339203357697 0.48611512780189514
0.7557235956192017 0.39087584614753723 0.39174747467041016
0.694724440574646 0.2704518735408783 0.43426939845085144
0.8076016306877136 0.2755260169506073 0.4969124495983124
0.8190104365348816 0.20821288228034973 0.515784740447998
0.6681817770004272 0.17988735437393188 0.40183866024017334
0.677655816078186 0.2844029366970062 0.4295731484889984
0.6723660230636597 0.24379537999629974 0.46000179648399353
0.7853646874427795 0.2419431060552597 0.42094382643699646
0.7372974157333374 0.32945141196250916 0.4886907637119293
0.6556552648544312 0.26738131046295166 0.5398039221763611
0.6417511105537415 0.27661365270614624 0.46053189039230347
0.6417511105537415 0.27661365270614624 0.46053189039230347
0.7972617745399475 0.2296799123287201 0.36882588267326355
0.6813086271286011 0.33507299423217773 0.5644373297691345
0.7260355949401855 0.30741530656814575 0.5693163275718689
0.6738844513893127 0.25486311316490173 0.4688981771469116
0.6738844513893127 0.25486311316490173 0.4688981771469116
0.7699720859527588 0.3665428161621094 0.5293574929237366
0.6202150583267212 0.30858340859413147 0.4686887562274933
0.678313672542572 0.32239148020744324 0.41913241147994995
0.6845917105674744 0.20774759352207184 0.38854002952575684
0.6945219039916992 0.2976074516773224 0.4632468521595001
0.6685703992843628 0.3596581816673279 0.5823882818222046
0.598777711391449 0.35097965598106384 0.47123488783836365
0.784828245639801 0.28041285276412964 0.44254645705223083
0.7029045224189758 0.2362932711839676 0.5094397664070129
0.7535792589187622 0.20157353579998016 0.4987757205963135
0.6162617206573486 0.2821654677391052 0.4108615517616272
0.8044260740280151 0.22826425731182098 0.4724154472351074
0.7550577521324158 0.25615155696868896 0.47827693819999695
0.8205273747444153 0.20966936647891998 0.4884112477302551
0.8205273747444153 0.20966936647891998 0.4884112477302551
0.6874492168426514 0.2953553795814514 0.4843900799751282
0.7415050864219666 0.3276160955429077 0.5269320011138916
0.6232516765594482 0.33536848425865173 0.4844648838043213
0.6780445575714111 0.3112851083278656 0.4099072515964508
0.7240979075431824 0.36609306931495667 0.4681118130683899
0.6836891174316406 0.2587043344974518 0.5020259618759155
0.7024695873260498 0.36364156007766724 0.43109580874443054
0.7285727858543396 0.2094706892967224 0.5640547871589661
0.7925886511802673 0.24649682641029358 0.42073965072631836
0.6279009580612183 0.35313868522644043 0.4713873863220215
0.7697803974151611 0.21371236443519592 0.5609304904937744
0.8035985827445984 0.21478277444839478 0.42444291710853577
0.657223641872406 0.18219353258609772 0.5622750520706177
0.6617862582206726 0.3487849235534668 0.5945069789886475
0.6835699081420898 0.21365217864513397 0.559326171875
0.6550771594047546 0.24098718166351318 0.5273962616920471
0.6554350852966309 0.23841628432273865 0.40466398000717163
0.8387887477874756 0.24007682502269745 0.4905555546283722
0.8033608794212341 0.3203957974910736 0.45617103576660156
0.6535677313804626 0.2302100509405136 0.48299694061279297
0.7067247033119202 0.2777538597583771 0.5544242858886719
0.6495082378387451 0.24309906363487244 0.512959361076355
0.8148007392883301 0.2517893314361572 0.4427013397216797
0.6119348406791687 0.32086247205734253 0.567525327205658
0.6119348406791687 0.32086247205734253 0.567525327205658
0.7948561310768127 0.26904329657554626 0.38092872500419617
0.7300681471824646 0.36889371275901794 0.40008828043937683
0.7159755229949951 0.26859861612319946 0.45406588912010193
0.6806913018226624 0.28646790981292725 0.4311197102069855
0.7467889785766602 0.38136380910873413 0.396104097366333
0.8025854825973511 0.32977649569511414 0.5563724637031555
0.719161331653595 0.32845765352249146 0.5116869807243347
0.7408867478370667 0.2995908558368683 0.485263854265213
0.7422502636909485 0.2817845046520233 0.3997011184692383
0.7121222615242004 0.3146326243877411 0.5098733305931091
0.6644482612609863 0.32243776321411133 0.4483858346939087
0.7892446517944336 0.3224085569381714 0.4755551815032959
0.8071332573890686 0.30478230118751526 0.43826350569725037
0.7699295282363892 0.2955019474029541 0.38404783606529236
0.6495082378387451 0.24309906363487244 0.512959361076355
0.8148007392883301 0.2517893314361572 0.4427013397216797
0.6119348406791687 0.32086247205734253 0.567525327205658
0.7948561310768127 0.26904329657554626 0.38092872500419617
0.7300681471824646 0.36889371275901794 0.40008828043937683
0.7159755229949951 0.26859861612319946 0.45406588912010193
0.6806913018226624 0.28646790981292725 0.4311197102069855
0.7467889785766602 0.38136380910873413 0.396104097366333
0.8025854825973511 0.32977649569511414 0.5563724637031555
0.719161331653595 0.32845765352249146 0.5116869807243347
0.7408867478370667 0.2995908558368683 0.485263854265213
0.753555953502655 0.2983642816543579 0.3849495053291321
0.7422502636909485 0.2817845046520233 0.3997011184692383
0.6576277613639832 0.2221089005470276 0.542579710483551
0.7121222615242004 0.3146326243877411 0.5098733305931091
0.7757333517074585 0.19272559881210327 0.48165977001190186
0.7118882536888123 0.2306358963251114 0.4481787383556366
0.706930935382843 0.3657318353652954 0.5871304273605347
0.7499210238456726 0.30460408329963684 0.4861387312412262
0.8276310563087463 0.21144305169582367 0.5539727210998535
0.7303358912467957 0.33464932441711426 0.4291282296180725
0.8147339224815369 0.23033471405506134 0.36985108256340027
0.823885440826416 0.22014997899532318 0.515998125076294
0.6521968841552734 0.2652117609977722 0.5599955320358276
0.7200927138328552 0.17343737185001373 0.554397463798523
0.7433907389640808 0.23184922337532043 0.5264984369277954
0.6747188568115234 0.35448703169822693 0.4218050241470337
0.654962956905365 0.22095753252506256 0.5345058441162109
0.7834475636482239 0.24311596155166626 0.5285261273384094
0.7388501763343811 0.366195410490036 0.46965885162353516
0.765656054019928 0.333469033241272 0.46945658326148987
0.8178197145462036 0.21200443804264069 0.5045651197433472
0.691939651966095 0.21591050922870636 0.41584503650665283
0.7378928661346436 0.257080078125 0.41391366720199585
0.6697540283203125 0.19732800126075745 0.5685405135154724
0.8132593631744385 0.24282166361808777 0.5559398531913757
0.7380297780036926 0.22320328652858734 0.5623689889907837
0.7473792433738708 0.20858703553676605 0.5089160203933716
0.7060349583625793 0.3025889992713928 0.5122792720794678
0.7900691032409668 0.2549615800380707 0.4304153323173523
0.6739997863769531 0.1900833249092102 0.42095911502838135
0.8310092687606812 0.22871458530426025 0.5126718282699585
0.7398753762245178 0.25228601694107056 0.5215115547180176
0.7667224407196045 0.3601411283016205 0.4392755925655365
0.7392700910568237 0.2078944593667984 0.46967312693595886
0.7693955302238464 0.2994680404663086 0.4839889407157898
0.7353947162628174 0.3715427815914154 0.5353493094444275
0.7809075117111206 0.23215799033641815 0.5572559833526611
0.6723479628562927 0.2052069455385208 0.5128830075263977
0.740117609500885 0.2218915820121765 0.567095160484314
0.613391637802124 0.3321213722229004 0.4996319115161896
0.7572529911994934 0.23769697546958923 0.501308798789978
0.6864734292030334 0.18123400211334229 0.42161130905151367
0.7785882353782654 0.319746196269989 0.381239652633667
0.78990238904953 0.39372849464416504 0.5008437633514404
0.7701907753944397 0.34154707193374634 0.43280211091041565
0.7547981142997742 0.30166926980018616 0.5323089957237244
0.7801110744476318 0.2536383867263794 0.5720881819725037
0.7966526746749878 0.32412034273147583 0.5204156041145325
0.6784080862998962 0.2991369962692261 0.4160842299461365
0.7917734384536743 0.39321082830429077 0.5382566452026367
0.6945219039916992 0.2976074516773224 0.4632468521595001
0.6685703992843628 0.3596581816673279 0.5823882818222046
0.598777711391449 0.35097965598106384 0.47123488783836365
0.784828245639801 0.28041285276412964 0.44254645705223083
0.7029045224189758 0.2362932711839676 0.5094397664070129
0.7535792589187622 0.20157353579998016 0.4987757205963135
0.6162617206573486 0.2821654677391052 0.4108615517616272
0.8044260740280151 0.22826425731182098 0.4724154472351074
0.7550577521324158 0.25615155696868896 0.47827693819999695
0.8205273747444153 0.20966936647891998 0.4884112477302551
0.6874492168426514 0.2953553795814514 0.4843900799751282
0.7415050864219666 0.3276160955429077 0.5269320011138916
0.7518070340156555 0.2703845202922821 0.37930628657341003
0.7444674372673035 0.26272302865982056 0.514558732509613
0.7075883150100708 0.2023608535528183 0.3858948051929474
0.6478976011276245 0.3355165421962738 0.43390658497810364
0.7445347905158997 0.25520196557044983 0.5505837798118591
0.7526984214782715 0.38179367780685425 0.580650806427002
0.7792909145355225 0.22974136471748352 0.49156078696250916
0.7942294478416443 0.3709859848022461 0.5595798492431641
0.7604964971542358 0.3418590724468231 0.511877715587616
0.726792573928833 0.18906643986701965 0.4262538552284241
0.7868457436561584 0.2810441255569458 0.4446156620979309
0.7139766812324524 0.31929391622543335 0.5525307655334473
0.6824536919593811 0.18860505521297455 0.41855835914611816
0.7511361837387085 0.24212057888507843 0.49992042779922485
0.6594271063804626 0.3550264239311218 0.5943488478660583
0.6685585975646973 0.21339915692806244 0.5291392803192139
0.8083584904670715 0.29263246059417725 0.4421868920326233
0.7413735389709473 0.21217301487922668 0.49428558349609375
0.6694014072418213 0.2110300064086914 0.42910975217819214
0.7569834589958191 0.38409844040870667 0.5663866400718689
0.7752271890640259 0.35021597146987915 0.38688787817955017
0.7863717675209045 0.30748704075813293 0.47297734022140503
0.6413211226463318 0.29821521043777466 0.4589148759841919
0.6378710269927979 0.31796994805336 0.46694836020469666
0.7980062961578369 0.1898506134748459 0.5668821334838867
0.7920101284980774 0.2338424026966095 0.42630717158317566
0.7298728823661804 0.1985349953174591 0.5138397812843323
0.7157120704650879 0.361037939786911 0.5783476829528809
0.6723487973213196 0.1834939420223236 0.506567120552063
0.688578724861145 0.24083317816257477 0.5754931569099426
0.6211528778076172 0.27280136942863464 0.4219825267791748
0.766950249671936 0.2228745073080063 0.41214829683303833
0.69075608253479 0.33777785301208496 0.4969148635864258
0.6848618984222412 0.3107580840587616 0.5412498712539673
0.6970565319061279 0.23855455219745636 0.43500816822052
0.7019355297088623 0.31702229380607605 0.5431910753250122
0.6675213575363159 0.2205585390329361 0.5302454829216003
0.7172770500183105 0.3313394784927368 0.48285478353500366
0.6358521580696106 0.2170201689004898 0.4242769181728363
0.7755227088928223 0.2896592915058136 0.5428342819213867
0.6774842143058777 0.2613949179649353 0.5214026570320129
0.6186160445213318 0.3221224844455719 0.40999993681907654
0.7579099535942078 0.3288664221763611 0.5069966912269592
0.8243672251701355 0.2555062174797058 0.5691179037094116
0.7310882210731506 0.26078638434410095 0.4796917736530304
0.6996254324913025 0.35252395272254944 0.43346109986305237
0.8237320184707642 0.3012793958187103 0.5704968571662903
0.8270565271377563 0.23351021111011505 0.5519362092018127
0.70562344789505 0.3253577649593353 0.49760863184928894
0.7387226819992065 0.36105507612228394 0.4429613947868347
0.8127550482749939 0.2243853658437729 0.427786260843277
0.7830269932746887 0.2593510150909424 0.4327826499938965
0.756929874420166 0.36231493949890137 0.42712393403053284
0.7195269465446472 0.23312483727931976 0.5282583832740784
0.807311475276947 0.21701090037822723 0.5451070070266724
0.6721429228782654 0.3709067404270172 0.45404914021492004
0.6881993412971497 0.2903721034526825 0.40371692180633545
0.6342777609825134 0.32597580552101135 0.5701864957809448
0.6451414823532104 0.36598244309425354 0.44263583421707153
0.7236899733543396 0.3349926173686981 0.5338646173477173
0.681918740272522 0.22578604519367218 0.5409745573997498
0.7558043599128723 0.250159353017807 0.3971948027610779
0.6814316511154175 0.17847925424575806 0.4362272024154663
0.7444674372673035 0.26272302865982056 0.514558732509613
0.7075883150100708 0.2023608535528183 0.3858948051929474
0.6850754022598267 0.3149983584880829 0.5672855377197266
0.6792212724685669 0.32436224818229675 0.4924210011959076
0.7911913990974426 0.19377119839191437 0.5346491932868958
0.8147774934768677 0.21352431178092957 0.4502731263637543
0.7635239958763123 0.327248752117157 0.4576387107372284
0.6836875081062317 0.2675981819629669 0.5649906396865845
0.834857702255249 0.23052915930747986 0.417595237493515
0.7851174473762512 0.28298360109329224 0.4065990149974823
0.7333951592445374 0.3898061215877533 0.4536934494972229
0.700831413269043 0.20065557956695557 0.512102484703064
0.7577270865440369 0.3598526120185852 0.3991056978702545
0.7318762540817261 0.20774050056934357 0.39763087034225464
0.7484092712402344 0.19020995497703552 0.45415472984313965
0.7820255160331726 0.305501252412796 0.3943900763988495
0.6594271063804626 0.3550264239311218 0.5943488478660583
0.6685585975646973 0.21339915692806244 0.5291392803192139
0.8083584904670715 0.29263246059417725 0.4421868920326233
0.7413735389709473 0.21217301487922668 0.49428558349609375
0.8258665800094604 0.20729084312915802 0.5541111826896667
0.8147339224815369 0.23033471405506134 0.36985108256340027
0.823885440826416 0.22014997899532318 0.515998125076294
0.6521968841552734 0.2652117609977722 0.5599955320358276
0.7200927138328552 0.17343737185001373 0.554397463798523
0.7433907389640808 0.23184922337532043 0.5264984369277954
0.6747188568115234 0.35448703169822693 0.4218050241470337
0.629690945148468 0.28713497519493103 0.4538053572177887
0.6601675152778625 0.24079805612564087 0.5847241282463074
0.6473164558410645 0.2560119926929474 0.5214112401008606
0.7935439944267273 0.28042367100715637 0.5480241775512695
0.6974596381187439 0.30711719393730164 0.4619072675704956
0.667776882648468 0.19958405196666718 0.3884897828102112
0.7286543846130371 0.3785744309425354 0.5548459887504578
0.769076943397522 0.35757002234458923 0.5661981105804443
0.7060480117797852 0.17338113486766815 0.5236368179321289
0.8002806305885315 0.24299661815166473 0.48060768842697144
0.7427787780761719 0.3250409662723541 0.39067697525024414
0.6452080011367798 0.315218985080719 0.4124040901660919
0.7270837426185608 0.1951945573091507 0.5641112327575684
0.734937310218811 0.23083513975143433 0.5758377313613892
0.6216382384300232 0.33863621950149536 0.4406643509864807
0.8090084195137024 0.31334975361824036 0.43367794156074524
0.774013102054596 0.36962994933128357 0.5172563791275024
0.7087154984474182 0.2518738806247711 0.5495979189872742
0.8245226144790649 0.2221040576696396 0.5598006248474121
0.6811649799346924 0.23956649005413055 0.495409220457077
0.7856413125991821 0.339785635471344 0.4039612114429474
0.6496597528457642 0.24501393735408783 0.522468090057373
0.7468819618225098 0.3766764998435974 0.4253336191177368
0.6695072054862976 0.3363916277885437 0.5709462761878967
0.6880735754966736 0.24838759005069733 0.5073105692863464
0.6693628430366516 0.2504655122756958 0.4222465753555298
0.8193476796150208 0.2648409307003021 0.42530393600463867
0.6498287916183472 0.2919211685657501 0.5039887428283691
0.6224451065063477 0.3404258191585541 0.4485120177268982
0.7813710570335388 0.2809399962425232 0.5596746206283569
0.7745350003242493 0.2662612497806549 0.462606817483902
0.6402392387390137 0.3071855902671814 0.4067844748497009
0.8081938624382019 0.2737521827220917 0.47684401273727417
0.8272427320480347 0.2969326972961426 0.57180255651474
0.6266607046127319 0.28008341789245605 0.4418599605560303
0.6533050537109375 0.1927528828382492 0.5609596967697144
0.7538636922836304 0.2678830027580261 0.4371727705001831
0.788155734539032 0.24473580718040466 0.39470791816711426
0.7471350431442261 0.3157103657722473 0.5631551146507263
0.7248496413230896 0.37057429552078247 0.41107869148254395
0.7802261710166931 0.3024287819862366 0.3859637677669525
0.690593421459198 0.34866568446159363 0.5567771196365356
0.8151861429214478 0.2482827752828598 0.5218587517738342
0.7400493621826172 0.21797245740890503 0.5580993890762329
0.7573264241218567 0.2960009276866913 0.5234254002571106
0.6455680727958679 0.33710741996765137 0.5630966424942017
0.8203943967819214 0.23464564979076385 0.5187926292419434
0.7647889256477356 0.2813550531864166 0.5480846762657166
0.7084618210792542 0.29510051012039185 0.5012273788452148
0.5982825756072998 0.3422578275203705 0.45905137062072754
0.789449155330658 0.2518833577632904 0.47117918729782104
0.8117223978042603 0.29705384373664856 0.5150337815284729
0.7753192782402039 0.28297510743141174 0.4071456789970398
0.6289787292480469 0.34112977981567383 0.5024645328521729
0.6904998421669006 0.25171729922294617 0.47557735443115234
0.6572121381759644 0.3257305920124054 0.5390284657478333
0.807894766330719 0.25711163878440857 0.4253799617290497
0.7757333517074585 0.19272559881210327 0.48165977001190186
0.6330774426460266 0.34976884722709656 0.563151478767395
0.8199391961097717 0.27202364802360535 0.5553283095359802
0.6509647965431213 0.254801869392395 0.4666678309440613
0.7252659201622009 0.27036014199256897 0.4820112884044647
0.7474179267883301 0.2511018216609955 0.4495242238044739
0.6860246062278748 0.18128947913646698 0.39107546210289
0.7709569931030273 0.38581395149230957 0.4031795561313629
0.6904306411743164 0.18344931304454803 0.5787297487258911
0.6337140202522278 0.2561418116092682 0.48994284868240356
0.610177755355835 0.35656553506851196 0.41929683089256287
0.7261707782745361 0.3079470694065094 0.41485023498535156
0.7996917963027954 0.24641717970371246 0.4741997718811035
0.781421959400177 0.2623589336872101 0.4654466211795807
0.6827244162559509 0.3300548195838928 0.578150749206543
0.7981446385383606 0.2792826294898987 0.3805903494358063
0.6729137897491455 0.26299580931663513 0.4615879952907562
0.7147002816200256 0.2640891969203949 0.5276068449020386
0.8096625208854675 0.2882520258426666 0.5584039688110352
0.6500092148780823 0.23213544487953186 0.45642727613449097
0.7583715915679932 0.3287082016468048 0.5123123526573181
0.7086315155029297 0.17605449259281158 0.4837262034416199
0.7917814254760742 0.37180235981941223 0.45432478189468384
0.7604761719703674 0.20564915239810944 0.45442819595336914
0.7299361824989319 0.2894248366355896 0.4791971743106842
0.6706952452659607 0.22046637535095215 0.40489691495895386
0.7730591893196106 0.2937956154346466 0.4776073396205902
0.6890769004821777 0.34561631083488464 0.41244006156921387
0.6665614247322083 0.2888393998146057 0.47776180505752563
0.742745041847229 0.17697261273860931 0.5312402844429016
0.7001006007194519 0.24405351281166077 0.4017173647880554
0.7632328867912292 0.25179287791252136 0.4907146692276001
0.6974596381187439 0.30711719393730164 0.4619072675704956
0.8199391961097717 0.27202364802360535 0.5553283095359802
0.6509647965431213 0.254801869392395 0.4666678309440613
0.7252659201622009 0.27036014199256897 0.4820112884044647
0.7474179267883301 0.2511018216609955 0.4495242238044739
0.6860246062278748 0.18128947913646698 0.39107546210289
0.7709569931030273 0.38581395149230957 0.4031795561313629
0.6904306411743164 0.18344931304454803 0.5787297487258911
0.6245399117469788 0.3263661861419678 0.526661217212677
0.803335428237915 0.21032561361789703 0.5080667734146118
0.7276242971420288 0.2179323136806488 0.5345532894134521
0.6644391417503357 0.34690430760383606 0.4354967772960663
0.6483523845672607 0.2280641794204712 0.441142737865448
0.6773706674575806 0.3504568636417389 0.5007076263427734
0.7556414008140564 0.39561837911605835 0.4732804596424103
0.7699814438819885 0.3782212436199188 0.5449028611183167
0.6674224734306335 0.221262127161026 0.46107304096221924
0.6823915839195251 0.254609078168869 0.5419304966926575
0.7405664920806885 0.22738225758075714 0.3832186162471771
0.6936842799186707 0.3089284598827362 0.5322844982147217
0.7501789927482605 0.24879132211208344 0.5201597213745117
0.6397238969802856 0.3393715023994446 0.5791159272193909
0.8082340955734253 0.2378302365541458 0.5531008243560791
0.7196773886680603 0.28549662232398987 0.48332440853118896
0.7521723508834839 0.21350820362567902 0.5114720463752747
0.7069247961044312 0.23235829174518585 0.41329020261764526
0.7730591893196106 0.2937956154346466 0.4776073396205902
0.6890769004821777 0.34561631083488464 0.41244006156921387
0.6665614247322083 0.2888393998146057 0.47776180505752563
0.742745041847229 0.17697261273860931 0.5312402844429016
0.7001006007194519 0.24405351281166077 0.4017173647880554
0.7632328867912292 0.25179287791252136 0.4907146692276001
0.675707221031189 0.23787888884544373 0.506152331829071
0.6176527142524719 0.34998810291290283 0.4540945291519165
0.6901700496673584 0.2556116580963135 0.5289324522018433
0.7574894428253174 0.3822324275970459 0.4031820595264435
0.6312841176986694 0.26021045446395874 0.4591572880744934
0.6944552659988403 0.36189043521881104 0.43999138474464417
0.7706106901168823 0.3155578672885895 0.5813407897949219
0.797383725643158 0.29796916246414185 0.5015639066696167
0.6648815870285034 0.18305851519107819 0.45054349303245544
0.6203427314758301 0.32183974981307983 0.5060263276100159
0.8227934837341309 0.22185759246349335 0.4879004657268524
0.6780082583427429 0.23639988899230957 0.45653319358825684
0.6866028308868408 0.3363925516605377 0.4048285484313965
0.6223049759864807 0.29910534620285034 0.49058830738067627
0.7936961054801941 0.29442209005355835 0.5326402187347412
0.6629223823547363 0.23913124203681946 0.5751044750213623
0.7082790732383728 0.21636560559272766 0.5685982704162598
0.7068459987640381 0.3616352379322052 0.4589296877384186
0.7084618210792542 0.29510051012039185 0.5012273788452148
0.5982825756072998 0.3422578275203705 0.45905137062072754
0.789449155330658 0.2518833577632904 0.47117918729782104
0.8117223978042603 0.29705384373664856 0.5150337815284729
0.7753192782402039 0.28297510743141174 0.4071456789970398
0.6289787292480469 0.34112977981567383 0.5024645328521729
0.6904998421669006 0.25171729922294617 0.47557735443115234
0.6572121381759644 0.3257305920124054 0.5390284657478333
0.807894766330719 0.25711163878440857 0.4253799617290497
0.7421779632568359 0.3251674175262451 0.5475070476531982
0.7228450179100037 0.2917352616786957 0.3909872770309448
0.6190378069877625 0.3306337594985962 0.460160493850708
0.8168277740478516 0.25739723443984985 0.4106452167034149
0.6506220102310181 0.34669679403305054 0.5121276378631592
0.70562344789505 0.3253577649593353 0.49760863184928894
0.6904306411743164 0.18344931304454803 0.5787297487258911
0.6245399117469788 0.3263661861419678 0.526661217212677
0.803335428237915 0.21032561361789703 0.5080667734146118
0.7276242971420288 0.2179323136806488 0.5345532894134521
0.6644391417503357 0.34690430760383606 0.4354967772960663
0.6483523845672607 0.2280641794204712 0.441142737865448
0.6773706674575806 0.3504568636417389 0.5007076263427734
0.6658692955970764 0.18577156960964203 0.5559767484664917
0.7236632704734802 0.19410526752471924 0.3997272253036499
0.6945298314094543 0.3534996211528778 0.3945956826210022
0.6631337404251099 0.29736724495887756 0.42453503608703613
0.6637819409370422 0.17483969032764435 0.5722568035125732
0.789706289768219 0.36945641040802 0.4571734666824341
0.758455216884613 0.36581340432167053 0.4962472915649414
0.7307795286178589 0.25603795051574707 0.4832184612751007
0.6654482483863831 0.2629222273826599 0.5643920302391052
0.7739949226379395 0.29993221163749695 0.47834333777427673
0.7694991230964661 0.32593250274658203 0.38387244939804077
0.7066689133644104 0.2068856954574585 0.5388109683990479
0.8281756639480591 0.23193415999412537 0.37870585918426514
0.6608468294143677 0.27266985177993774 0.5391597151756287
0.7677872776985168 0.22533002495765686 0.558700680732727
0.6256005167961121 0.30698204040527344 0.5920348167419434
0.8239965438842773 0.2755250632762909 0.520056426525116
0.6673330068588257 0.2395460307598114 0.4180465042591095
0.7468187212944031 0.21528345346450806 0.41886085271835327
0.804763674736023 0.2711353302001953 0.3830561637878418
0.7246029376983643 0.21690021455287933 0.5062357187271118
0.6870123147964478 0.3676239550113678 0.5254760384559631
0.7123947143554688 0.3493035137653351 0.5464693903923035
0.7663131952285767 0.3107287585735321 0.4319157302379608
0.7387226819992065 0.36105507612228394 0.4429613947868347
0.7432204484939575 0.3374963700771332 0.4765343964099884
0.661512017250061 0.174250990152359 0.4508154094219208
0.7965640425682068 0.22892381250858307 0.4081675708293915
0.8072709441184998 0.2402457445859909 0.525574266910553
0.6676705479621887 0.28931963443756104 0.424897700548172
0.6604107022285461 0.2353624403476715 0.5515316128730774
0.6981158256530762 0.34052392840385437 0.4733378291130066
0.6316375136375427 0.3396316170692444 0.4302264153957367
0.71421217918396 0.3324773609638214 0.5823455452919006
0.6608107089996338 0.19369201362133026 0.4856259524822235
0.6747709512710571 0.21401914954185486 0.5234065651893616
0.7721730470657349 0.32363393902778625 0.560042679309845
0.7380788922309875 0.3698107600212097 0.5912901759147644
0.7388371825218201 0.23623979091644287 0.4336049556732178
0.7119207978248596 0.2897581458091736 0.518549382686615
0.8363219499588013 0.25182974338531494 0.5373185276985168
0.6686261296272278 0.25148677825927734 0.4555452764034271
0.6481229066848755 0.3441380262374878 0.5234795808792114
0.6376861929893494 0.3409268856048584 0.42266106605529785
0.7040786147117615 0.1838558465242386 0.49020397663116455
0.6670385599136353 0.19181984663009644 0.575877845287323
0.7395045757293701 0.34924232959747314 0.5412172675132751
0.6526777744293213 0.33501455187797546 0.5182453393936157
0.6295967102050781 0.2422131448984146 0.4794394373893738
0.6527622938156128 0.3291635811328888 0.5523141622543335
0.7696378231048584 0.2264363169670105 0.5246558785438538
0.7776824235916138 0.35868608951568604 0.44321829080581665
0.6892744302749634 0.3681069016456604 0.5051931142807007
0.7276391386985779 0.24537940323352814 0.38836073875427246
0.6126386523246765 0.3173130750656128 0.47523897886276245
0.7289660573005676 0.2617397606372833 0.4863975942134857
0.8198597431182861 0.2500409185886383 0.4177341163158417
0.7065770626068115 0.19638691842556 0.5230696797370911
0.6886332035064697 0.3087314963340759 0.4767606854438782
0.6855365633964539 0.22510874271392822 0.4352966547012329
0.8061290979385376 0.239401176571846 0.4622982442378998
0.6617831587791443 0.21022075414657593 0.45781829953193665
0.7380383610725403 0.20098651945590973 0.4008188247680664
0.7805110812187195 0.3763321042060852 0.49008625745773315
0.7799260020256042 0.39242103695869446 0.5184975266456604
0.7859858274459839 0.3320053517818451 0.3943619132041931
0.7554669380187988 0.3987365663051605 0.43293294310569763
0.6895054578781128 0.3445199429988861 0.4847160577774048
0.8221136331558228 0.22963078320026398 0.4231770932674408
0.7869971990585327 0.2638481855392456 0.4086350202560425
0.6553472280502319 0.3095318675041199 0.48182857036590576
0.7658810019493103 0.4014609456062317 0.4377720355987549
0.7099471688270569 0.22765234112739563 0.5141069889068604
0.7415679693222046 0.20557285845279694 0.5593328475952148
0.669026792049408 0.20447225868701935 0.41356736421585083
0.6552817225456238 0.3203980028629303 0.46360552310943604
0.7111409902572632 0.3154345452785492 0.5713828802108765
0.7302235960960388 0.3578507900238037 0.38872408866882324
0.6688714623451233 0.1661379337310791 0.5345895290374756
0.7575111389160156 0.26913297176361084 0.5196220874786377
0.6851666569709778 0.19911371171474457 0.42496079206466675
0.7018267512321472 0.19721582531929016 0.45680198073387146
0.7409248352050781 0.3944171965122223 0.458816796541214
0.7608011960983276 0.3058485984802246 0.46191418170928955
0.7774137854576111 0.24765460193157196 0.5492429733276367
0.6180422902107239 0.315083771944046 0.5375533103942871
0.7815356850624084 0.288322389125824 0.47647103667259216
0.7792593240737915 0.36452123522758484 0.4778180718421936
0.6594271063804626 0.3550264239311218 0.5943488478660583
0.7413997650146484 0.34294646978378296 0.4774993062019348
0.6501105427742004 0.31551456451416016 0.5219799876213074
0.7588067054748535 0.2627832591533661 0.45248132944107056
0.8115148544311523 0.3430263102054596 0.5539038777351379
0.6890769004821777 0.34561631083488464 0.41244006156921387
0.6665614247322083 0.2888393998146057 0.47776180505752563
0.742745041847229 0.17697261273860931 0.5312402844429016
0.7001006007194519 0.24405351281166077 0.4017173647880554
0.7632328867912292 0.25179287791252136 0.4907146692276001
0.7892633676528931 0.27143722772598267 0.5413791537284851
0.7823582887649536 0.23763754963874817 0.5688216090202332
0.7242235541343689 0.3584509789943695 0.4535408914089203
0.64882892370224 0.30772140622138977 0.5694454312324524
0.7335314750671387 0.2548958957195282 0.465450257062912
0.7345114350318909 0.20576463639736176 0.5698503851890564
0.7135816812515259 0.20152638852596283 0.4196384847164154
0.7834835648536682 0.29749441146850586 0.5144062042236328
0.7044349908828735 0.3862502872943878 0.3955056071281433
0.804453432559967 0.24531947076320648 0.4735240638256073
0.7003454566001892 0.33779633045196533 0.40468767285346985
0.7114241123199463 0.21284909546375275 0.4436020255088806
0.7441855072975159 0.3424743711948395 0.41977402567863464
0.7518765926361084 0.22252491116523743 0.5123165249824524
0.7044050693511963 0.29660558700561523 0.5365074872970581
0.7291843891143799 0.19668899476528168 0.5429984927177429
0.7543716430664062 0.3861529231071472 0.4806786775588989
0.7066960334777832 0.35907110571861267 0.45674118399620056
0.7721165418624878 0.2011588215827942 0.4695315957069397
0.7849901914596558 0.3856029212474823 0.4535427391529083
0.785058856010437 0.27908891439437866 0.5547193884849548
0.6648692488670349 0.3102477192878723 0.5023255348205566
0.6533050537109375 0.1927528828382492 0.5609596967697144
0.6895054578781128 0.3445199429988861 0.4847160577774048
0.6397238969802856 0.3393715023994446 0.5791159272193909
0.7305766940116882 0.32985374331474304 0.41265931725502014
0.7856371998786926 0.24619252979755402 0.4480169415473938
0.6879220008850098 0.3067745268344879 0.46229663491249084
0.7384188175201416 0.2272292822599411 0.5777277946472168
0.6568453311920166 0.24388036131858826 0.5659579634666443
0.7374135851860046 0.30558374524116516 0.4525151252746582
0.7408822178840637 0.385921835899353 0.4326457977294922
0.6632788777351379 0.3019271790981293 0.5685384273529053
0.6976067423820496 0.26881489157676697 0.4047899544239044
0.6953328847885132 0.23834732174873352 0.5394289493560791
0.7345114350318909 0.20576463639736176 0.5698503851890564
0.7135816812515259 0.20152638852596283 0.4196384847164154
0.6742239594459534 0.23373697698116302 0.5604932308197021
0.7776783108711243 0.3065791428089142 0.4678357243537903
0.8020975589752197 0.2237466424703598 0.5591152906417847
0.7449246048927307 0.3765944838523865 0.4115649461746216
0.6146859526634216 0.3208291530609131 0.4631538391113281
0.766701877117157 0.3532664179801941 0.4365665912628174
0.6388602256774902 0.25070422887802124 0.503745973110199
0.6767101287841797 0.35253632068634033 0.49578967690467834
0.7777882814407349 0.1937570869922638 0.4891834557056427
0.6645301580429077 0.2959149479866028 0.45278796553611755
0.7262142896652222 0.33725500106811523 0.5888529419898987
0.833284854888916 0.24688629806041718 0.5080286264419556
0.8080700039863586 0.25421467423439026 0.4405176639556885
0.7291626334190369 0.36672472953796387 0.47631895542144775
0.7133839726448059 0.18289189040660858 0.4756928086280823
0.8011278510093689 0.3732966184616089 0.576833188533783
0.6768786311149597 0.34899765253067017 0.4578953683376312
0.6533050537109375 0.1927528828382492 0.5609596967697144
0.7400493621826172 0.21797245740890503 0.5580993890762329
0.6510116457939148 0.334255188703537 0.4771914780139923
0.7876048684120178 0.3241623640060425 0.4963628351688385
0.8058991432189941 0.2943151295185089 0.3760601282119751
0.8275441527366638 0.20203107595443726 0.5361189842224121
0.765499472618103 0.30557021498680115 0.5220175385475159
0.7893733382225037 0.22364100813865662 0.5249819159507751
0.674173891544342 0.2973317503929138 0.4610305726528168
0.7737964987754822 0.3939407765865326 0.5503185987472534
0.657372772693634 0.2464614063501358 0.45582541823387146
0.7088062763214111 0.16528427600860596 0.5601398944854736
0.7527104616165161 0.2520967125892639 0.44681328535079956
0.6056376695632935 0.31530994176864624 0.43423670530319214
0.7389144897460938 0.3235228955745697 0.43796905875205994
0.707229733467102 0.297648549079895 0.4577023386955261
0.802897036075592 0.20333608984947205 0.5078021883964539
0.7801740765571594 0.3700948655605316 0.39788269996643066
0.7836966514587402 0.218401238322258 0.4515021741390228
0.8249974846839905 0.2255108505487442 0.5589223504066467
0.759932816028595 0.2668948471546173 0.501414954662323
0.5944374799728394 0.32428860664367676 0.4188893735408783
0.8108171224594116 0.277489572763443 0.3745895326137543
0.7887351512908936 0.33750125765800476 0.5452725887298584
0.70093834400177 0.3249615430831909 0.4293311536312103
0.648745596408844 0.3141024708747864 0.525175929069519
0.7184705138206482 0.22250093519687653 0.4341440796852112
0.7591463923454285 0.38832008838653564 0.5237808227539062
0.7272873520851135 0.36942169070243835 0.4828391969203949
0.689767062664032 0.3677234649658203 0.44559454917907715
0.7818439602851868 0.27089744806289673 0.42243093252182007
0.7178164124488831 0.19501544535160065 0.38654229044914246
0.8076344132423401 0.24632932245731354 0.5287660360336304
0.8117223978042603 0.29705384373664856 0.5150337815284729
0.7753192782402039 0.28297510743141174 0.4071456789970398
0.6289787292480469 0.34112977981567383 0.5024645328521729
0.6904998421669006 0.25171729922294617 0.47557735443115234
0.6572121381759644 0.3257305920124054 0.5390284657478333
0.807894766330719 0.25711163878440857 0.4253799617290497
0.70093834400177 0.3249615430831909 0.4293311536312103
0.648745596408844 0.3141024708747864 0.525175929069519
0.7184705138206482 0.22250093519687653 0.4341440796852112
0.7591463923454285 0.38832008838653564 0.5237808227539062
0.7272873520851135 0.36942169070243835 0.4828391969203949
0.6670385599136353 0.19181984663009644 0.575877845287323
0.7395045757293701 0.34924232959747314 0.5412172675132751
0.6767101287841797 0.35253632068634033 0.49578967690467834
0.7777882814407349 0.1937570869922638 0.4891834557056427
0.6645301580429077 0.2959149479866028 0.45278796553611755
0.6689385175704956 0.2903293967247009 0.4169750213623047
0.7262142896652222 0.33725500106811523 0.5888529419898987
0.833284854888916 0.24688629806041718 0.5080286264419556
0.8080700039863586 0.25421467423439026 0.4405176639556885
0.7291626334190369 0.36672472953796387 0.47631895542144775
0.7305489182472229 0.2177734524011612 0.5242714285850525
0.7849901914596558 0.3856029212474823 0.4535427391529083
0.785058856010437 0.27908891439437866 0.5547193884849548
0.6648692488670349 0.3102477192878723 0.5023255348205566
0.7636406421661377 0.225737065076828 0.4723536968231201
0.8069522380828857 0.2591725289821625 0.39557310938835144
0.7624732255935669 0.25147679448127747 0.4198930859565735
0.8173093199729919 0.2784459888935089 0.4200848340988159
0.6700491309165955 0.3423601984977722 0.4157056510448456
0.8089768290519714 0.2685634195804596 0.47444337606430054
0.783596396446228 0.36210036277770996 0.5396081805229187
0.7824488878250122 0.3736858069896698 0.5264843106269836
0.7817221879959106 0.24109743535518646 0.39420926570892334
0.6732416749000549 0.28877297043800354 0.5482074022293091
0.7014220952987671 0.3466247320175171 0.47822514176368713
0.7482880353927612 0.38057494163513184 0.39450523257255554
0.7104693055152893 0.3029251992702484 0.4905737638473511
0.7500268816947937 0.34898701310157776 0.5204328298568726
0.8091802000999451 0.21101446449756622 0.4578329622745514
0.7639092206954956 0.2983885109424591 0.5116651058197021
0.7042443156242371 0.16439534723758698 0.5522333979606628
0.7118307948112488 0.35168954730033875 0.48785245418548584
0.6450845003128052 0.19501489400863647 0.38639888167381287
0.6877198219299316 0.2297181934118271 0.538032591342926
0.6804221868515015 0.32117751240730286 0.5213077068328857
0.8085425496101379 0.32466283440589905 0.4760229289531708
0.680414617061615 0.3413541615009308 0.54252690076828
0.6248167157173157 0.27420565485954285 0.45082342624664307
0.7792081236839294 0.2378332018852234 0.5546030402183533
0.7678083777427673 0.3888087570667267 0.5153221487998962
0.657951295375824 0.34339040517807007 0.5907723307609558
0.6770424842834473 0.38077470660209656 0.40986543893814087
0.8006746768951416 0.20588485896587372 0.49622973799705505
0.7573187947273254 0.23016716539859772 0.4172404408454895
0.7466437816619873 0.358744353055954 0.5561853647232056
0.649691104888916 0.1943342685699463 0.42035868763923645
0.6655688285827637 0.22552785277366638 0.4881102740764618
0.7485092282295227 0.19398091733455658 0.5615676045417786
0.6806419491767883 0.2899368703365326 0.5846101641654968
0.6507503390312195 0.31469762325286865 0.5703977346420288
0.7926597595214844 0.2516676187515259 0.5075408816337585
0.7913665771484375 0.26090264320373535 0.40383538603782654
0.7242235541343689 0.3584509789943695 0.4535408914089203
0.7384904026985168 0.31727689504623413 0.4769667387008667
0.7480344772338867 0.2948538362979889 0.5667597055435181
0.7210226655006409 0.24169328808784485 0.3921703100204468
0.738860547542572 0.25268879532814026 0.5171787142753601
0.6920227408409119 0.17282095551490784 0.527527928352356
0.80005943775177 0.25590240955352783 0.5328715443611145
0.7889931797981262 0.3299718499183655 0.4720628559589386
0.6926661133766174 0.3283170461654663 0.5426738262176514
0.6246906518936157 0.316868394613266 0.4524593949317932
0.7607322931289673 0.20398060977458954 0.5453948974609375
0.737579882144928 0.3235408365726471 0.39900511503219604
0.7599167823791504 0.19306719303131104 0.49626609683036804
0.638340950012207 0.2714620530605316 0.46928346157073975
0.6410458087921143 0.306136816740036 0.4926343560218811
0.7851608395576477 0.2650964558124542 0.5737810730934143
0.705895721912384 0.16831369698047638 0.5548315048217773
0.7646137475967407 0.34276509284973145 0.4819636344909668
0.7210700511932373 0.21491165459156036 0.4390987455844879
0.8239926695823669 0.2181420475244522 0.4194554388523102
0.7110630869865417 0.24293865263462067 0.4243268668651581
0.6837974786758423 0.22013209760189056 0.5312703251838684
0.6977971792221069 0.34409233927726746 0.5820586681365967
0.7694334983825684 0.33956682682037354 0.44315847754478455
0.7703657746315002 0.2585209608078003 0.48902079463005066
0.7243373394012451 0.21700768172740936 0.456600546836853
0.6359918117523193 0.3431708812713623 0.5178548097610474
0.6526876091957092 0.22869907319545746 0.49925944209098816
0.6716568470001221 0.2978900969028473 0.5255648493766785
0.8017397522926331 0.2513497471809387 0.5218280553817749
0.7206369638442993 0.33370649814605713 0.4373728930950165
0.6521157622337341 0.28411564230918884 0.5429781675338745
0.7231264710426331 0.2917552590370178 0.5781530737876892
0.7384904026985168 0.31727689504623413 0.4769667387008667
0.7480344772338867 0.2948538362979889 0.5667597055435181
0.7210226655006409 0.24169328808784485 0.3921703100204468
0.738860547542572 0.25268879532814026 0.5171787142753601
0.6920227408409119 0.17282095551490784 0.527527928352356
0.80005943775177 0.25590240955352783 0.5328715443611145
0.7889931797981262 0.3299718499183655 0.4720628559589386
0.6926661133766174 0.3283170461654663 0.5426738262176514
0.6246906518936157 0.316868394613266 0.4524593949317932
0.7607322931289673 0.20398060977458954 0.5453948974609375
0.737579882144928 0.3235408365726471 0.39900511503219604
0.7599167823791504 0.19306719303131104 0.49626609683036804
0.638340950012207 0.2714620530605316 0.46928346157073975
0.8016833066940308 0.25579774379730225 0.47623908519744873
0.650128185749054 0.33618131279945374 0.46039116382598877
0.7348451018333435 0.3752118647098541 0.5517722964286804
0.675649881362915 0.18586508929729462 0.3843752443790436
0.6913654804229736 0.32430586218833923 0.3971906006336212
0.7048327922821045 0.28886649012565613 0.40338683128356934
0.6645728349685669 0.30527031421661377 0.5475934147834778
0.6883429288864136 0.24147844314575195 0.3874034285545349
0.7123041152954102 0.24238774180412292 0.5777583718299866
