ply
format ascii 1.0
element vertex 825
property float x
property float y
property float z
end_header
0.38613319396972656 0.20193834602832794 0.5589162111282349
0.39449116587638855 0.2959219515323639 0.5965502858161926
0.33731314539909363 0.33300235867500305 0.5039662718772888
0.4184317886829376 0.25695258378982544 0.4508180022239685
0.30835452675819397 0.1756284087896347 0.41914844512939453
0.3445008397102356 0.23282882571220398 0.4979248642921448
0.35347241163253784 0.22967863082885742 0.4851801097393036
0.47590604424476624 0.2877121865749359 0.5226854085922241
0.4122893810272217 0.16804508864879608 0.609919011592865
0.3978588879108429 0.19666916131973267 0.5902577638626099
0.33082863688468933 0.2696685492992401 0.4362022280693054
0.37735483050346375 0.26551076769828796 0.4205716848373413
0.3905705511569977 0.23392020165920258 0.4488675892353058
0.37659335136413574 0.12977398931980133 0.550977349281311
0.4451766312122345 0.29942235350608826 0.5374902486801147
0.4301547408103943 0.11694782972335815 0.4366750121116638
0.3826548457145691 0.3158954679965973 0.4454042911529541
0.2847018241882324 0.20576442778110504 0.49760717153549194
0.29234588146209717 0.18272510170936584 0.46051356196403503
0.4567899703979492 0.22940750420093536 0.45354822278022766
0.445837140083313 0.2692243754863739 0.4247097969055176
0.359399676322937 0.28159838914871216 0.5114437937736511
0.3816448450088501 0.289887398481369 0.6068786382675171
0.3304493725299835 0.19625034928321838 0.44687479734420776
0.4071590304374695 0.2846059799194336 0.4972996711730957
0.34142112731933594 0.19430533051490784 0.5585142374038696
0.5020976066589355 0.24189457297325134 0.6058766841888428
0.3856779634952545 0.12925107777118683 0.4851054251194
0.3782898187637329 0.2766810655593872 0.4943092167377472
0.37086576223373413 0.24473479390144348 0.6067052483558655
0.34981340169906616 0.2997261583805084 0.5459612607955933
0.33553460240364075 0.21506625413894653 0.48704683780670166
0.3128066062927246 0.21744099259376526 0.6127998232841492
0.46434709429740906 0.20372532308101654 0.4344170391559601
0.4325260519981384 0.20409820973873138 0.42783471941947937
0.45007002353668213 0.20253506302833557 0.5949786305427551
0.40499377250671387 0.23586899042129517 0.5220829844474792
0.29966476559638977 0.17469502985477448 0.47923123836517334
0.4081064462661743 0.22698727250099182 0.5952152609825134
0.3278801143169403 0.20344415307044983 0.5463511347770691
0.411199688911438 0.19898781180381775 0.4875737130641937
0.31136810779571533 0.20168666541576385 0.49397173523902893
0.3050609230995178 0.20089079439640045 0.5704957842826843
0.3307318687438965 0.17308197915554047 0.581821620464325
0.34652456641197205 0.29438039660453796 0.607362687587738
0.432809054851532 0.15173976123332977 0.5347267389297485
0.3382539451122284 0.3213712275028229 0.5386019945144653
0.3087039887905121 0.20443524420261383 0.5707513689994812
0.38336437940597534 0.13172969222068787 0.43571528792381287
0.41607746481895447 0.2762942910194397 0.47476524114608765
0.4252970516681671 0.2668375074863434 0.5590364933013916
0.35819971561431885 0.2790716290473938 0.5943854451179504
0.3577319085597992 0.3456485867500305 0.5174611806869507
0.4716165065765381 0.16343633830547333 0.5700599551200867
0.33289164304733276 0.19925442337989807 0.544887363910675
0.3329117000102997 0.1924019455909729 0.5782315731048584
0.41683369874954224 0.18538394570350647 0.5973986387252808
0.4651210308074951 0.2523350715637207 0.5124337077140808
0.35695213079452515 0.2211461067199707 0.5020505785942078
0.47782978415489197 0.20843927562236786 0.485317200422287
0.4048543870449066 0.14545680582523346 0.435488760471344
0.48137569427490234 0.1972024142742157 0.5766911506652832
0.35828980803489685 0.27433064579963684 0.608627438545227
0.4187268316745758 0.24469956755638123 0.5457772016525269
0.3313123881816864 0.23512788116931915 0.5745035409927368
0.41856300830841064 0.22908970713615417 0.446269690990448
0.3211539387702942 0.17407795786857605 0.5725346207618713
0.40537160634994507 0.13382868468761444 0.42934730648994446
0.3156239986419678 0.27900460362434387 0.5335306525230408
0.3933902084827423 0.19537746906280518 0.5530601143836975
0.3736989200115204 0.13060827553272247 0.44623395800590515
0.3284568190574646 0.2245621234178543 0.5424885749816895
0.481112539768219 0.24849289655685425 0.4372659921646118
0.3465555012226105 0.20544342696666718 0.45886683464050293
0.4227639436721802 0.18711577355861664 0.4952743649482727
0.3438705801963806 0.16726255416870117 0.5479670166969299
0.39671751856803894 0.29770350456237793 0.5312597751617432
0.41879719495773315 0.2225407063961029 0.4159829914569855
0.345486044883728 0.21694710850715637 0.602735161781311
0.32899901270866394 0.16027554869651794 0.49282872676849365
0.44893965125083923 0.19551974534988403 0.4587797224521637
0.32617247104644775 0.19657936692237854 0.5262421369552612
0.4404831826686859 0.12768103182315826 0.5485001802444458
0.49189043045043945 0.260566771030426 0.5591486096382141
0.3403126001358032 0.1764146387577057 0.5568288564682007
0.33219215273857117 0.26283735036849976 0.4460616111755371
0.44636523723602295 0.17724256217479706 0.45602288842201233
0.4021299183368683 0.2849074900150299 0.6158120632171631
0.34128865599632263 0.2711370289325714 0.4729600250720978
0.42001745104789734 0.1954742968082428 0.4297483563423157
0.40768373012542725 0.15096761286258698 0.43087050318717957
0.4559645652770996 0.28523483872413635 0.5261303782463074
0.33793243765830994 0.2085709273815155 0.6152907609939575
0.3840579092502594 0.22814473509788513 0.5548410415649414
0.30645033717155457 0.21817976236343384 0.5212947130203247
0.36485886573791504 0.18414171040058136 0.4343511164188385
0.35436588525772095 0.1955300271511078 0.527703583240509
0.3611374497413635 0.29692375659942627 0.5183505415916443
0.4024030268192291 0.16589413583278656 0.5693371295928955
0.27205196022987366 0.17514048516750336 0.500890851020813
0.3085656464099884 0.28058138489723206 0.49674752354621887
0.4161866307258606 0.17345935106277466 0.5421544909477234
0.3553787171840668 0.14192110300064087 0.5493714809417725
0.3395046889781952 0.3426450788974762 0.43236517906188965
0.35666829347610474 0.2507001459598541 0.4558600187301636
0.3626892566680908 0.23796848952770233 0.45250964164733887
0.32778438925743103 0.16508154571056366 0.49593639373779297
0.5053531527519226 0.2657964825630188 0.46356111764907837
0.47047144174575806 0.16755668818950653 0.48878705501556396
0.3289865255355835 0.2221018522977829 0.4955632984638214
0.2911825180053711 0.2535823881626129 0.4707621932029724
0.30263152718544006 0.19283230602741241 0.5435022711753845
0.3388785421848297 0.2775387763977051 0.5017533898353577
0.4092681109905243 0.15999531745910645 0.41858646273612976
0.38462716341018677 0.12417852133512497 0.5815889835357666
0.3593047261238098 0.352600634098053 0.5324025750160217
0.33280977606773376 0.2355181723833084 0.5173839330673218
0.3910540044307709 0.2895183861255646 0.42494043707847595
0.4164077639579773 0.3023182451725006 0.4689142107963562
0.3796060085296631 0.317170649766922 0.574672281742096
0.30891674757003784 0.18021036684513092 0.43227002024650574
0.31924915313720703 0.21240544319152832 0.606878936290741
0.5069730877876282 0.24541622400283813 0.4353988468647003
0.4891939163208008 0.2809428870677948 0.4509992301464081
0.3092895746231079 0.23606359958648682 0.6021397113800049
0.37151286005973816 0.13013283908367157 0.6151702404022217
0.37659335136413574 0.12977398931980133 0.550977349281311
0.4451766312122345 0.29942235350608826 0.5374902486801147
0.4301547408103943 0.11694782972335815 0.4366750121116638
0.41103923320770264 0.28876298666000366 0.4311113953590393
0.2847018241882324 0.20576442778110504 0.49760717153549194
0.29234588146209717 0.18272510170936584 0.46051356196403503
0.4567899703979492 0.22940750420093536 0.45354822278022766
0.445837140083313 0.2692243754863739 0.4247097969055176
0.359399676322937 0.28159838914871216 0.5114437937736511
0.3816448450088501 0.289887398481369 0.6068786382675171
0.3304493725299835 0.19625034928321838 0.44687479734420776
0.3304493725299835 0.19625034928321838 0.44687479734420776
0.4071590304374695 0.2846059799194336 0.4972996711730957
0.34142112731933594 0.19430533051490784 0.5585142374038696
0.5020976066589355 0.24189457297325134 0.6058766841888428
0.3856779634952545 0.12925107777118683 0.4851054251194
0.3782898187637329 0.2766810655593872 0.4943092167377472
0.4452466666698456 0.12426910549402237 0.5150307416915894
0.4507840573787689 0.1797982156276703 0.526819109916687
0.44596147537231445 0.21701134741306305 0.5918757915496826
0.324730783700943 0.2878513038158417 0.5938418507575989
0.3710378408432007 0.27702102065086365 0.5968062877655029
0.3975852131843567 0.28433793783187866 0.6124078035354614
0.35884612798690796 0.31163039803504944 0.5626150369644165
0.42552152276039124 0.2782348394393921 0.537615180015564
0.3101043999195099 0.20716403424739838 0.5338189005851746
0.38327422738075256 0.3073200583457947 0.6109281778335571
0.41460371017456055 0.20179301500320435 0.5592729449272156
0.36448338627815247 0.3369446098804474 0.6011698842048645
0.4208327829837799 0.1284732073545456 0.41345277428627014
0.41092604398727417 0.15510070323944092 0.5512102842330933
0.35853031277656555 0.16926497220993042 0.4885618984699249
0.41460371017456055 0.20179301500320435 0.5592729449272156
0.36448338627815247 0.3369446098804474 0.6011698842048645
0.4208327829837799 0.1284732073545456 0.41345277428627014
0.41092604398727417 0.15510070323944092 0.5512102842330933
0.4345065951347351 0.15130172669887543 0.4889051914215088
0.35828980803489685 0.27433064579963684 0.608627438545227
0.4187268316745758 0.24469956755638123 0.5457772016525269
0.3313123881816864 0.23512788116931915 0.5745035409927368
0.41856300830841064 0.22908970713615417 0.446269690990448
0.3211539387702942 0.17407795786857605 0.5725346207618713
0.40537160634994507 0.13382868468761444 0.42934730648994446
0.43050146102905273 0.177744060754776 0.5838091969490051
0.3680160641670227 0.15216714143753052 0.5566644072532654
0.3399437963962555 0.35092589259147644 0.423124223947525
0.34981340169906616 0.2997261583805084 0.5459612607955933
0.33553460240364075 0.21506625413894653 0.48704683780670166
0.46858999133110046 0.198248028755188 0.4217579960823059
0.4250653088092804 0.19818861782550812 0.5039043426513672
0.4633268415927887 0.2232246994972229 0.6133174300193787
0.3972765803337097 0.28206703066825867 0.42958611249923706
0.3161211311817169 0.2999042570590973 0.45229169726371765
0.3383029103279114 0.2244490385055542 0.49938908219337463
0.4210629165172577 0.13961194455623627 0.4332082271575928
0.3168891668319702 0.23096096515655518 0.428803414106369
0.35331666469573975 0.3258192241191864 0.518811047077179
0.3667778968811035 0.14980199933052063 0.5436830520629883
0.320527046918869 0.2242322415113449 0.433563768863678
0.36537763476371765 0.27966347336769104 0.4918055832386017
0.38918569684028625 0.25332939624786377 0.5474222898483276
0.45186343789100647 0.2241857349872589 0.4357825219631195
0.34660834074020386 0.2755471467971802 0.5178835988044739
0.41092604398727417 0.15510070323944092 0.5512102842330933
0.4187268316745758 0.24469956755638123 0.5457772016525269
0.3313123881816864 0.23512788116931915 0.5745035409927368
0.41856300830841064 0.22908970713615417 0.446269690990448
0.3211539387702942 0.17407795786857605 0.5725346207618713
0.40537160634994507 0.13382868468761444 0.42934730648994446
0.43050146102905273 0.177744060754776 0.5838091969490051
0.3793557286262512 0.27370327711105347 0.4923032224178314
0.3953936696052551 0.14553627371788025 0.4535527229309082
0.503976047039032 0.26376432180404663 0.5529247522354126
0.4306752383708954 0.135043665766716 0.4408402740955353
0.36415812373161316 0.14134293794631958 0.5474359393119812
0.48763588070869446 0.2578536570072174 0.5197782516479492
0.3766672909259796 0.16661930084228516 0.588540256023407
0.4873580038547516 0.27399030327796936 0.5310516953468323
0.4400058090686798 0.24114267528057098 0.49611544609069824
0.42519044876098633 0.13734978437423706 0.43425244092941284
0.3784729838371277 0.14083963632583618 0.5000965595245361
0.29162850975990295 0.20461364090442657 0.542888343334198
0.36794963479042053 0.2832086384296417 0.4259371757507324
0.3838401436805725 0.29951149225234985 0.5261006951332092
0.3344287574291229 0.25528159737586975 0.5406537055969238
0.4555394947528839 0.2568676173686981 0.4741564989089966
0.3591175079345703 0.22246304154396057 0.5612210631370544
0.4364568591117859 0.2690432369709015 0.5231389403343201
0.3996364176273346 0.16829119622707367 0.4548555612564087
0.32037153840065 0.1816563457250595 0.608633816242218
0.3323967158794403 0.2014811486005783 0.4652306139469147
0.4322947859764099 0.12891389429569244 0.4579753875732422
0.4422750771045685 0.2776719033718109 0.549360990524292
0.4717850983142853 0.26681867241859436 0.5719350576400757
0.4362393915653229 0.17283637821674347 0.41690316796302795
0.4345065951347351 0.15130172669887543 0.4889051914215088
0.35828980803489685 0.27433064579963684 0.608627438545227
0.4187268316745758 0.24469956755638123 0.5457772016525269
0.3313123881816864 0.23512788116931915 0.5745035409927368
0.41856300830841064 0.22908970713615417 0.446269690990448
0.3211539387702942 0.17407795786857605 0.5725346207618713
0.30645033717155457 0.21817976236343384 0.5212947130203247
0.5011106729507446 0.24101024866104126 0.4147958755493164
0.35086169838905334 0.2063988447189331 0.5330758690834045
0.4498964250087738 0.17328281700611115 0.5102545022964478
0.3242427408695221 0.21367040276527405 0.5551565885543823
0.3266831338405609 0.18912790715694427 0.5749691724777222
0.3459566533565521 0.2927018105983734 0.521028995513916
0.4217599928379059 0.14936751127243042 0.6146853566169739
0.3887818157672882 0.26058271527290344 0.48723673820495605
0.35049358010292053 0.2372017353773117 0.4524555504322052
0.4226296544075012 0.23600101470947266 0.520344078540802
0.3668278157711029 0.2054426670074463 0.42142173647880554
0.456697940826416 0.1568898856639862 0.47120627760887146
0.2894497215747833 0.18171922862529755 0.42529788613319397
0.3423382639884949 0.23494751751422882 0.5025293231010437
0.46032625436782837 0.24012792110443115 0.49295341968536377
0.48179876804351807 0.27803993225097656 0.49384671449661255
0.4174123704433441 0.23786406219005585 0.5072057247161865
0.44017493724823 0.23608358204364777 0.5293363332748413
0.4451400339603424 0.1952890157699585 0.4723135530948639
0.3965585231781006 0.14408445358276367 0.5957891345024109
0.34573036432266235 0.1673787236213684 0.5326602458953857
0.30891674757003784 0.18021036684513092 0.43227002024650574
0.46613284945487976 0.23777122795581818 0.5900636911392212
0.48477718234062195 0.2694762647151947 0.4631710350513458
0.2903789281845093 0.23146380484104156 0.5502941608428955
0.3970225751399994 0.22484728693962097 0.5917853116989136
0.3974131941795349 0.26650896668434143 0.4517192244529724
0.34792372584342957 0.2767099440097809 0.6071876287460327
0.30243903398513794 0.21824263036251068 0.421232134103775
0.31975990533828735 0.2375061810016632 0.4532574713230133
0.3492972254753113 0.31502920389175415 0.45493632555007935
0.4125484228134155 0.27132493257522583 0.4868679642677307
0.35570964217185974 0.1622469127178192 0.5268118381500244
0.4372818171977997 0.19405747950077057 0.5179482102394104
0.35843536257743835 0.32370564341545105 0.428117960691452
0.4424240291118622 0.24840658903121948 0.5206207633018494
0.38715308904647827 0.30613973736763 0.5974217057228088
0.31668397784233093 0.20755213499069214 0.4621516168117523
0.38724061846733093 0.15746495127677917 0.45925888419151306
0.5074441432952881 0.26827767491340637 0.46837204694747925
0.36946725845336914 0.2525242269039154 0.5144429802894592
0.41551318764686584 0.23844397068023682 0.5748370289802551
0.30891674757003784 0.18021036684513092 0.43227002024650574
0.31924915313720703 0.21240544319152832 0.606878936290741
0.5069730877876282 0.24541622400283813 0.4353988468647003
0.2908174991607666 0.20783092081546783 0.4244654178619385
0.2924524247646332 0.18942023813724518 0.595768392086029
0.43375909328460693 0.2711658477783203 0.48626774549484253
0.396047443151474 0.17810556292533875 0.6140024662017822
0.3443693220615387 0.2379722148180008 0.5309982895851135
0.35596969723701477 0.16527318954467773 0.5013611912727356
0.3742086589336395 0.27211815118789673 0.4222338795661926
0.43397533893585205 0.16395798325538635 0.4556790888309479
0.5014655590057373 0.24248310923576355 0.48284777998924255
0.3701797425746918 0.26536592841148376 0.42907410860061646
0.35560721158981323 0.1722663789987564 0.4898744225502014
0.45620477199554443 0.20662231743335724 0.5462335348129272
0.2956080734729767 0.18561871349811554 0.4259113073348999
0.4486992657184601 0.24939300119876862 0.4785352051258087
0.3719048798084259 0.23910105228424072 0.47096726298332214
0.46563252806663513 0.2509998083114624 0.4594937264919281
0.43081650137901306 0.2503659725189209 0.4481903910636902
0.4435327649116516 0.22587743401527405 0.45328468084335327
0.27298539876937866 0.204259991645813 0.4583684802055359
0.3535611927509308 0.1581144630908966 0.4964309632778168
0.28949132561683655 0.18734519183635712 0.4992086887359619
0.418565034866333 0.11363664269447327 0.5283200740814209
0.34974661469459534 0.21210099756717682 0.5490100383758545
0.2956126630306244 0.18043474853038788 0.4428679645061493
0.3520684242248535 0.2911281883716583 0.565251350402832
0.4139513075351715 0.3179398477077484 0.44273167848587036
0.4818344712257385 0.2698620855808258 0.5694238543510437
0.37996575236320496 0.2576003670692444 0.5079615116119385
0.4569759964942932 0.14454129338264465 0.4509085416793823
0.3514413833618164 0.16962331533432007 0.48155078291893005
0.45620477199554443 0.20662231743335724 0.5462335348129272
0.412153035402298 0.30563533306121826 0.5857555270195007
0.31646087765693665 0.16682079434394836 0.4598930776119232
0.4231983423233032 0.23342014849185944 0.4979993402957916
0.404300719499588 0.27069270610809326 0.5548349618911743
0.38522714376449585 0.23048363626003265 0.4975086748600006
0.45421162247657776 0.2792747914791107 0.461571604013443
0.37910404801368713 0.15366621315479279 0.44883158802986145
0.3164120614528656 0.165061816573143 0.5722510814666748
0.3146511912345886 0.2807064950466156 0.6149526834487915
0.364938348531723 0.22062233090400696 0.5556154251098633
0.3902129828929901 0.32974469661712646 0.5689965486526489
0.32306280732154846 0.2801707983016968 0.6008535623550415
0.40546715259552 0.18402323126792908 0.5070399641990662
0.3551192283630371 0.2630727291107178 0.49475401639938354
0.437198668718338 0.24272215366363525 0.4725271761417389
0.5137792229652405 0.27214500308036804 0.6147472858428955
0.3605988025665283 0.3489713966846466 0.45624202489852905
0.48198267817497253 0.27301281690597534 0.4610286056995392
0.5051923394203186 0.2628386318683624 0.4600902199745178
0.4088163375854492 0.2277699112892151 0.5397005081176758
0.3432265520095825 0.3025912344455719 0.47365209460258484
0.3393205404281616 0.32135725021362305 0.4434266984462738
0.3891303837299347 0.18303415179252625 0.6095695495605469
0.39219194650650024 0.3105972707271576 0.4561561048030853
0.39543941617012024 0.131663978099823 0.6051738262176514
0.34138259291648865 0.19744418561458588 0.4536783993244171
0.3119792342185974 0.170419380068779 0.5821349620819092
0.49523794651031494 0.2693651020526886 0.4954952597618103
0.2678326964378357 0.19727982580661774 0.46844226121902466
0.3614807724952698 0.22014504671096802 0.538998007774353
0.3830384612083435 0.2553239166736603 0.5229355692863464
0.4786599278450012 0.19744814932346344 0.45224305987358093
0.3609201908111572 0.31161168217658997 0.4525090754032135
0.39805975556373596 0.31923946738243103 0.5448616743087769
0.44558411836624146 0.24397622048854828 0.47355395555496216
0.43770137429237366 0.22606563568115234 0.5086278915405273
0.3619079887866974 0.2308315485715866 0.4248356521129608
0.30860602855682373 0.20889616012573242 0.5270593166351318
0.3839660882949829 0.22045013308525085 0.588027834892273
0.40158340334892273 0.2147720903158188 0.5330342054367065
0.28550809621810913 0.23564694821834564 0.5630366802215576
0.3257819712162018 0.3175210952758789 0.45861971378326416
0.3800170123577118 0.23857258260250092 0.606903612613678
0.3089648187160492 0.24375079572200775 0.4926677346229553
0.3441067636013031 0.3182322382926941 0.5611133575439453
0.48198267817497253 0.27301281690597534 0.4610286056995392
0.3388338088989258 0.2245347648859024 0.5305630564689636
0.3116508722305298 0.20689114928245544 0.4667612612247467
0.4491821825504303 0.24342547357082367 0.4613259732723236
0.32122763991355896 0.1556076556444168 0.4937259256839752
0.36599671840667725 0.17781269550323486 0.5307942032814026
0.45435830950737 0.1979399174451828 0.5852764248847961
0.4316922128200531 0.2871953248977661 0.5790281295776367
0.40233728289604187 0.2290610522031784 0.4894756078720093
0.3669762909412384 0.26981642842292786 0.4353417158126831
0.48166170716285706 0.27387237548828125 0.5978471040725708
0.45998406410217285 0.14754711091518402 0.500435471534729
0.3719947636127472 0.14961498975753784 0.4427269399166107
0.27639874815940857 0.18752804398536682 0.4384603500366211
0.46453866362571716 0.2243272066116333 0.49140942096710205
0.4831762909889221 0.22526541352272034 0.5335858464241028
0.4177696704864502 0.3045603334903717 0.45653602480888367
0.42332184314727783 0.13081881403923035 0.4454125761985779
0.31646087765693665 0.16682079434394836 0.4598930776119232
0.3441067636013031 0.3182322382926941 0.5611133575439453
0.38522714376449585 0.23048363626003265 0.4975086748600006
0.45421162247657776 0.2792747914791107 0.461571604013443
0.37910404801368713 0.15366621315479279 0.44883158802986145
0.3164120614528656 0.165061816573143 0.5722510814666748
0.3531554937362671 0.18708117306232452 0.5691158771514893
0.39042988419532776 0.27508777379989624 0.4233401119709015
0.3906591832637787 0.18140558898448944 0.5574268102645874
0.3750094175338745 0.14166167378425598 0.5392860770225525
0.3280663788318634 0.27764812111854553 0.533541202545166
0.5102049708366394 0.264596164226532 0.4237282872200012
0.43635642528533936 0.22135287523269653 0.42192474007606506
0.30927181243896484 0.191727414727211 0.43893224000930786
0.41183170676231384 0.13133187592029572 0.5723293423652649
0.3119792342185974 0.170419380068779 0.5821349620819092
0.49523794651031494 0.2693651020526886 0.4954952597618103
0.2678326964378357 0.19727982580661774 0.46844226121902466
0.3614807724952698 0.22014504671096802 0.538998007774353
0.3830384612083435 0.2553239166736603 0.5229355692863464
0.4786599278450012 0.19744814932346344 0.45224305987358093
0.3609201908111572 0.31161168217658997 0.4525090754032135
0.39805975556373596 0.31923946738243103 0.5448616743087769
0.44558411836624146 0.24397622048854828 0.47355395555496216
0.4832865595817566 0.2493046224117279 0.44176575541496277
0.4457003176212311 0.12793554365634918 0.5351549386978149
0.3771384060382843 0.2027500718832016 0.5199320316314697
0.4386349022388458 0.12682034075260162 0.5875206589698792
0.3123914301395416 0.23485666513442993 0.5168583989143372
0.3537091016769409 0.2151513695716858 0.5246185064315796
0.30880671739578247 0.2776242196559906 0.5180376768112183
0.44691577553749084 0.20165705680847168 0.45402801036834717
0.3367944359779358 0.2769203186035156 0.6010106801986694
0.41420966386795044 0.19477784633636475 0.43384304642677307
0.38869601488113403 0.25521963834762573 0.45806050300598145
0.33449995517730713 0.1617281436920166 0.5356518626213074
0.48496055603027344 0.23977482318878174 0.480538010597229
0.42109569907188416 0.2607214152812958 0.4662674367427826
0.4355100095272064 0.2844623923301697 0.5181820392608643
0.36647456884384155 0.3358412981033325 0.519902229309082
0.44816091656684875 0.23101644217967987 0.5178365707397461
0.3043406307697296 0.2703651785850525 0.517037570476532
0.395701140165329 0.14383751153945923 0.42082422971725464
0.41719746589660645 0.15770071744918823 0.5850691199302673
0.28015103936195374 0.2298233062028885 0.4923677146434784
0.41168779134750366 0.3222399353981018 0.602337121963501
0.48198267817497253 0.27301281690597534 0.4610286056995392
0.3119792342185974 0.170419380068779 0.5821349620819092
0.49523794651031494 0.2693651020526886 0.4954952597618103
0.2678326964378357 0.19727982580661774 0.46844226121902466
0.3614807724952698 0.22014504671096802 0.538998007774353
0.3830384612083435 0.2553239166736603 0.5229355692863464
0.4786599278450012 0.19744814932346344 0.45224305987358093
0.3609201908111572 0.31161168217658997 0.4525090754032135
0.39805975556373596 0.31923946738243103 0.5448616743087769
0.44558411836624146 0.24397622048854828 0.47355395555496216
0.43770137429237366 0.22606563568115234 0.5086278915405273
0.3619079887866974 0.2308315485715866 0.4248356521129608
0.30860602855682373 0.20889616012573242 0.5270593166351318
0.3839660882949829 0.22045013308525085 0.588027834892273
0.40158340334892273 0.2147720903158188 0.5330342054367065
0.28550809621810913 0.23564694821834564 0.5630366802215576
0.3257819712162018 0.3175210952758789 0.45861971378326416
0.3800170123577118 0.23857258260250092 0.606903612613678
0.3089648187160492 0.24375079572200775 0.4926677346229553
0.3441067636013031 0.3182322382926941 0.5611133575439453
0.38522714376449585 0.23048363626003265 0.4975086748600006
0.45421162247657776 0.2792747914791107 0.461571604013443
0.37910404801368713 0.15366621315479279 0.44883158802986145
0.3164120614528656 0.165061816573143 0.5722510814666748
0.3531554937362671 0.18708117306232452 0.5691158771514893
0.39042988419532776 0.27508777379989624 0.4233401119709015
0.3906591832637787 0.18140558898448944 0.5574268102645874
0.4589866101741791 0.17302516102790833 0.598186731338501
0.38838624954223633 0.3148648142814636 0.5789170861244202
0.42497217655181885 0.2704424262046814 0.5452351570129395
0.3566667437553406 0.14762023091316223 0.4580647349357605
0.33619990944862366 0.32637012004852295 0.5139268040657043
0.4227587878704071 0.17820553481578827 0.609181821346283
0.3119792342185974 0.170419380068779 0.5821349620819092
0.3492085039615631 0.21479952335357666 0.5172479152679443
0.27779096364974976 0.17345981299877167 0.43844524025917053
0.266562819480896 0.2041034996509552 0.4301187992095947
0.32273268699645996 0.19655105471611023 0.5582784414291382
0.33954736590385437 0.3195372223854065 0.5714930295944214
0.4501345157623291 0.1249956265091896 0.5741942524909973
0.4512942135334015 0.12476181238889694 0.5710769891738892
0.48686540126800537 0.24199552834033966 0.4465314745903015
0.4021884799003601 0.26028764247894287 0.6143331527709961
0.3396482467651367 0.3495286703109741 0.4474765658378601
0.28825631737709045 0.19522826373577118 0.45943182706832886
0.43991613388061523 0.20892322063446045 0.43708160519599915
0.4441489279270172 0.1727013885974884 0.49906426668167114
0.35910332202911377 0.269483357667923 0.4952196776866913
0.38147789239883423 0.13977232575416565 0.5333688259124756
0.4694424867630005 0.20205733180046082 0.5015556812286377
0.4067760109901428 0.15290388464927673 0.520790696144104
0.3146511912345886 0.2807064950466156 0.6149526834487915
0.3153882622718811 0.15398699045181274 0.5210000276565552
0.44271549582481384 0.29686397314071655 0.4318709969520569
0.3725649118423462 0.2847920358181 0.42799657583236694
0.36570996046066284 0.1350807398557663 0.44149017333984375
0.3042234182357788 0.256681352853775 0.4737193286418915
0.32690805196762085 0.20093826949596405 0.42970010638237
0.37136590480804443 0.25460827350616455 0.5107150673866272
0.4006839394569397 0.15673860907554626 0.4329923689365387
0.39411038160324097 0.27300506830215454 0.48702526092529297
0.4339066445827484 0.1865798383951187 0.5503374338150024
0.3525813817977905 0.29049357771873474 0.5256577730178833
0.44690799713134766 0.17915078997612 0.517789900302887
0.3432265520095825 0.3025912344455719 0.47365209460258484
0.3214314877986908 0.3111226260662079 0.45638981461524963
0.38599762320518494 0.22461652755737305 0.42371177673339844
0.35782915353775024 0.2222278118133545 0.5136924982070923
0.34122753143310547 0.17511221766471863 0.460330605506897
0.40701696276664734 0.20931966602802277 0.48777687549591064
0.27351197600364685 0.20881028473377228 0.4429285526275635
0.4379519522190094 0.12097284197807312 0.4730265438556671
0.3991597294807434 0.22820189595222473 0.5831336975097656
0.3755146563053131 0.20617325603961945 0.5473825931549072
0.3772605359554291 0.21742361783981323 0.5613278746604919
0.4055529534816742 0.2651204764842987 0.4701063930988312
0.43861424922943115 0.16314245760440826 0.4768041968345642
0.4491391181945801 0.20201635360717773 0.5694408416748047
0.4088142216205597 0.257883220911026 0.6077759861946106
0.2859204113483429 0.20047537982463837 0.5406501889228821
0.4304012358188629 0.1805003136396408 0.5375709533691406
0.48958420753479004 0.24169056117534637 0.5046231150627136
0.46788570284843445 0.15981018543243408 0.5384721159934998
0.3518174886703491 0.2579328119754791 0.6036636829376221
0.3630951941013336 0.326836496591568 0.5557793378829956
0.4209909439086914 0.16264820098876953 0.46005454659461975
0.3234265446662903 0.19476497173309326 0.42759814858436584
0.31885457038879395 0.22672222554683685 0.42575863003730774
0.3577400743961334 0.2669823467731476 0.5203782320022583
0.4677995443344116 0.26610997319221497 0.44538187980651855
0.47761350870132446 0.21925334632396698 0.5991745591163635
0.37878528237342834 0.15013332664966583 0.6029139161109924
0.44406864047050476 0.1677219569683075 0.5114489197731018
0.4291495382785797 0.23575180768966675 0.4953358769416809
0.3551475405693054 0.32195794582366943 0.5542923212051392
0.26870256662368774 0.195038840174675 0.48374173045158386
0.34573036432266235 0.1673787236213684 0.5326602458953857
0.3986888527870178 0.31625765562057495 0.5287123918533325
0.3233441114425659 0.1554994434118271 0.6185018420219421
0.38046881556510925 0.2829316258430481 0.46288031339645386
0.4009760320186615 0.21264532208442688 0.517245352268219
0.3178054094314575 0.24676132202148438 0.5870986580848694
0.4668021500110626 0.18850712478160858 0.5461759567260742
0.48155513405799866 0.261664479970932 0.448483407497406
0.3967452049255371 0.16490674018859863 0.5386728048324585
0.3602728545665741 0.26976048946380615 0.5773829221725464
0.32409268617630005 0.28147396445274353 0.5840116739273071
0.4084800183773041 0.31657055020332336 0.5712780356407166
0.4297880530357361 0.26197636127471924 0.46383222937583923
0.3777199983596802 0.324201762676239 0.46751025319099426
0.2691091001033783 0.18671417236328125 0.4701269567012787
0.4615374803543091 0.18685705959796906 0.4653865694999695
0.40286603569984436 0.30807968974113464 0.46431809663772583
0.40944671630859375 0.3120017647743225 0.5773586630821228
0.44670864939689636 0.1288347840309143 0.4158584177494049
0.43753936886787415 0.19110345840454102 0.5619637370109558
0.33490604162216187 0.2959423363208771 0.5860067009925842
0.3798375725746155 0.1446954309940338 0.5840312242507935
0.3132993280887604 0.29844653606414795 0.46066397428512573
0.3494972288608551 0.21356000006198883 0.5084056258201599
0.4953867495059967 0.28038671612739563 0.5617085099220276
0.3851553201675415 0.29572683572769165 0.5451613664627075
0.482622355222702 0.20088668167591095 0.5844064354896545
0.3601604700088501 0.1405908465385437 0.5650147795677185
0.2880499064922333 0.18450388312339783 0.427253782749176
0.33475568890571594 0.19584520161151886 0.5521945953369141
0.3294655382633209 0.18815483152866364 0.5031648874282837
0.3661385476589203 0.16386678814888 0.5248461365699768
0.30891674757003784 0.18021036684513092 0.43227002024650574
0.4040123224258423 0.30969172716140747 0.6021255850791931
0.3593684136867523 0.15274611115455627 0.41688308119773865
0.4208773970603943 0.321281373500824 0.46133244037628174
0.4054364860057831 0.2602052390575409 0.5689276456832886
0.32769089937210083 0.29769667983055115 0.49432945251464844
0.48595094680786133 0.20948737859725952 0.4194627106189728
0.37660691142082214 0.25841549038887024 0.5233839750289917
0.465302050113678 0.24222707748413086 0.5991675853729248
0.5061400532722473 0.2678459882736206 0.46463510394096375
0.37800276279449463 0.1443481147289276 0.5607290863990784
0.49056920409202576 0.2418729066848755 0.5365397930145264
0.37486928701400757 0.23042193055152893 0.5609393119812012
0.3586074709892273 0.33382415771484375 0.6011443734169006
0.44442734122276306 0.14591936767101288 0.5545620322227478
0.44242918491363525 0.138576477766037 0.5798254609107971
0.3736918866634369 0.28534582257270813 0.5792986750602722
0.3385245203971863 0.25482866168022156 0.6015134453773499
0.47042468190193176 0.24701112508773804 0.5574870705604553
0.4116695523262024 0.2193221151828766 0.5428575873374939
0.4296116828918457 0.21711474657058716 0.5591669082641602
0.45462819933891296 0.24889229238033295 0.6005910038948059
0.2955681085586548 0.23852218687534332 0.6183610558509827
0.4621696174144745 0.1929801106452942 0.5145646333694458
0.34384283423423767 0.20081038773059845 0.5233372449874878
0.41517943143844604 0.2783217430114746 0.4428085386753082
0.3694009482860565 0.2567271590232849 0.5576136112213135
0.28649815917015076 0.24635258316993713 0.42186763882637024
0.3864572048187256 0.29238104820251465 0.42550814151763916
0.3435172438621521 0.25692611932754517 0.5196940898895264
0.2953341603279114 0.21802519261837006 0.43282338976860046
0.441742867231369 0.2868909537792206 0.49346306920051575
0.3830384612083435 0.2553239166736603 0.5229355692863464
0.38522714376449585 0.23048363626003265 0.4975086748600006
0.45421162247657776 0.2792747914791107 0.461571604013443
0.37910404801368713 0.15366621315479279 0.44883158802986145
0.3164120614528656 0.165061816573143 0.5722510814666748
0.3531554937362671 0.18708117306232452 0.5691158771514893
0.39042988419532776 0.27508777379989624 0.4233401119709015
0.4871295690536499 0.2457628697156906 0.5877432823181152
0.4953027367591858 0.2519722580909729 0.4152776598930359
0.36772269010543823 0.22453106939792633 0.5338245034217834
0.38789311051368713 0.17202116549015045 0.5693514943122864
0.4177439212799072 0.2410450577735901 0.5001393556594849
0.3710513710975647 0.2711211144924164 0.5601051449775696
0.3426400423049927 0.22293128073215485 0.5810849666595459
0.38721609115600586 0.1713458001613617 0.47684159874916077
0.5038149952888489 0.25092417001724243 0.5373767018318176
0.354853093624115 0.27317482233047485 0.4504333436489105
0.28401243686676025 0.17495176196098328 0.6092630624771118
0.3282705843448639 0.2433241754770279 0.4226171374320984
0.3806575536727905 0.2722674608230591 0.509290874004364
0.45026323199272156 0.15539053082466125 0.455150306224823
0.40749529004096985 0.1545240879058838 0.5570163726806641
0.4046773612499237 0.21330444514751434 0.4881625473499298
0.443101704120636 0.2549152672290802 0.4790419638156891
0.3262943923473358 0.177279993891716 0.5384507775306702
0.4083732068538666 0.2968100905418396 0.6129522919654846
0.47151705622673035 0.1779937446117401 0.49771130084991455
0.3579893410205841 0.3310341536998749 0.5259872078895569
0.42088842391967773 0.16755156219005585 0.4902743697166443
0.36903902888298035 0.18751616775989532 0.42535874247550964
0.3113279640674591 0.2819761335849762 0.4409487247467041
0.3423379361629486 0.3567347526550293 0.46869608759880066
0.4835255742073059 0.25838136672973633 0.4500659704208374
0.4229305684566498 0.20944467186927795 0.5183983445167542
0.4871295690536499 0.2457628697156906 0.5877432823181152
0.4953027367591858 0.2519722580909729 0.4152776598930359
0.36772269010543823 0.22453106939792633 0.5338245034217834
0.36944133043289185 0.19137072563171387 0.5221033692359924
0.3369881510734558 0.3080271780490875 0.4553163945674896
0.43309158086776733 0.18822646141052246 0.459015429019928
0.414274126291275 0.3080238997936249 0.6177770495414734
0.3614064157009125 0.17481102049350739 0.4882084131240845
0.31710147857666016 0.23655474185943604 0.5380982756614685
0.38310137391090393 0.23029068112373352 0.5860664248466492
0.371763676404953 0.27682462334632874 0.45979422330856323
0.31670793890953064 0.2195117473602295 0.47603219747543335
0.3841763138771057 0.20430509746074677 0.5998002290725708
0.4328051209449768 0.15168079733848572 0.4511486887931824
0.4523876905441284 0.21026404201984406 0.6111626625061035
0.372173011302948 0.2549159824848175 0.5087305307388306
0.453288197517395 0.15167158842086792 0.5684478282928467
0.4528636634349823 0.2517916262149811 0.5605175495147705
0.39410677552223206 0.20222599804401398 0.477370023727417
0.41111084818840027 0.20881250500679016 0.5154081583023071
0.4626281261444092 0.26919782161712646 0.6104704141616821
0.36979395151138306 0.3027133345603943 0.4560985565185547
0.33730706572532654 0.279923677444458 0.5830584168434143
0.44467291235923767 0.27718645334243774 0.4488518536090851
0.32109057903289795 0.26396644115448 0.5749306678771973
0.33889472484588623 0.15370501577854156 0.5280657410621643
0.3388294577598572 0.3296962380409241 0.4715152382850647
0.3676585257053375 0.26248565316200256 0.5657334327697754
0.26931819319725037 0.17978088557720184 0.5287941694259644
0.380161851644516 0.16141724586486816 0.4250201880931854
0.31646087765693665 0.16682079434394836 0.4598930776119232
0.3902129828929901 0.32974469661712646 0.5689965486526489
0.32306280732154846 0.2801707983016968 0.6008535623550415
0.46669572591781616 0.2549997866153717 0.521682620048523
0.4231322407722473 0.13758182525634766 0.4146370589733124
0.43512794375419617 0.12581750750541687 0.4682926833629608
0.2798323929309845 0.1845339685678482 0.61716228723526
0.3603704571723938 0.28278493881225586 0.5292252898216248
0.4266490340232849 0.2748941481113434 0.5324493646621704
0.3791095018386841 0.3072528839111328 0.5003058910369873
0.2971256673336029 0.18039585649967194 0.4274540841579437
0.34478747844696045 0.18147973716259003 0.5044599771499634
0.4877373278141022 0.20208196341991425 0.5512745976448059
0.3811282813549042 0.19045667350292206 0.515917956829071
0.39419516921043396 0.20932519435882568 0.4193670153617859
0.42407530546188354 0.29872697591781616 0.5182774066925049
0.4664772152900696 0.1720276176929474 0.48645222187042236
0.3901396691799164 0.13643936812877655 0.4401746094226837
0.33634153008461 0.27817782759666443 0.5335147380828857
0.2768594026565552 0.19372177124023438 0.4968855082988739
0.4497387111186981 0.1691034883260727 0.5365176796913147
0.3857322633266449 0.30450084805488586 0.5929447412490845
0.3988399803638458 0.23411716520786285 0.5819145441055298
0.5006911158561707 0.25215625762939453 0.562085747718811
0.40311387181282043 0.3223172426223755 0.6033486127853394
0.45668816566467285 0.22398830950260162 0.4835081994533539
0.38912519812583923 0.2769041061401367 0.5478218793869019
0.39668044447898865 0.30026760697364807 0.5893816351890564
0.39955732226371765 0.3113366663455963 0.5390970706939697
0.4105539321899414 0.22935384511947632 0.467000275850296
0.3148106038570404 0.23832285404205322 0.4489248991012573
0.411247581243515 0.24687211215496063 0.4859602451324463
0.45421162247657776 0.2792747914791107 0.461571604013443
0.41890668869018555 0.31714391708374023 0.52348792552948
0.35511162877082825 0.3417566120624542 0.48859909176826477
0.4594724476337433 0.19778254628181458 0.5117810964584351
0.29438987374305725 0.19967351853847504 0.5735676884651184
0.32639214396476746 0.27397966384887695 0.5530222654342651
0.39903736114501953 0.1974952071905136 0.5993672013282776
0.4212085008621216 0.1874254047870636 0.5539818406105042
0.3449675440788269 0.22731712460517883 0.5407468676567078
0.4115673899650574 0.12748238444328308 0.5044543743133545
0.43348008394241333 0.20892666280269623 0.41891247034072876
0.46662697196006775 0.20851294696331024 0.5806106925010681
0.3958111107349396 0.2779955565929413 0.5684059858322144
0.3894825577735901 0.15778720378875732 0.5537571310997009
0.4425264596939087 0.24560029804706573 0.44345584511756897
0.3346819579601288 0.28452667593955994 0.5649253129959106
0.307023823261261 0.2683221101760864 0.5508756041526794
0.38089627027511597 0.2071472704410553 0.5258468985557556
0.47832050919532776 0.23544888198375702 0.5949410200119019
0.44189321994781494 0.16226795315742493 0.5886632800102234
0.35280507802963257 0.3176545798778534 0.597988486289978
0.4667247235774994 0.29282695055007935 0.5539262890815735
0.3837588429450989 0.24606028199195862 0.46762171387672424
0.3569374680519104 0.14832213521003723 0.4561994969844818
0.3403732478618622 0.2130827158689499 0.49930039048194885
0.4303246736526489 0.17799395322799683 0.5280376076698303
0.41649654507637024 0.21676504611968994 0.4350997805595398
0.2875184714794159 0.20496544241905212 0.4433508813381195
0.4166294038295746 0.12349580973386765 0.5800192356109619
0.31410279870033264 0.26259326934814453 0.44260522723197937
0.3940717875957489 0.23854435980319977 0.5783220529556274
0.42216235399246216 0.21980994939804077 0.5988369584083557
0.43512794375419617 0.12581750750541687 0.4682926833629608
0.4877373278141022 0.20208196341991425 0.5512745976448059
0.3811282813549042 0.19045667350292206 0.515917956829071
0.3511270582675934 0.33996307849884033 0.5091818571090698
0.35476207733154297 0.26239830255508423 0.5718929171562195
0.33900514245033264 0.30151811242103577 0.451571524143219
0.4432418942451477 0.13171537220478058 0.43152761459350586
0.47292792797088623 0.18603654205799103 0.5288005471229553
0.2848789393901825 0.197446808218956 0.6184340119361877
0.44805702567100525 0.17408743500709534 0.5440397262573242
0.3523063659667969 0.29047077894210815 0.5658632516860962
0.4091953933238983 0.27441293001174927 0.45197805762290955
0.3617706000804901 0.2359398901462555 0.442140132188797
0.43367376923561096 0.11475380510091782 0.46894389390945435
0.2957714796066284 0.1672130525112152 0.5911446809768677
0.3641589879989624 0.32267704606056213 0.42509666085243225
0.31900814175605774 0.24504560232162476 0.47584807872772217
0.32284384965896606 0.28624939918518066 0.5960955619812012
0.42841967940330505 0.12010984867811203 0.4887772500514984
0.34878456592559814 0.17399227619171143 0.5236330032348633
0.2932831645011902 0.1769610196352005 0.620065450668335
0.3149106204509735 0.20381519198417664 0.5365450382232666
0.4141016900539398 0.2312362790107727 0.4260849356651306
0.2845233976840973 0.2365703582763672 0.4817676246166229
0.40622666478157043 0.2082536816596985 0.6158949136734009
0.32885512709617615 0.16173827648162842 0.6004409193992615
0.3356931507587433 0.3400811553001404 0.43270131945610046
0.4267888367176056 0.3181886076927185 0.4949045479297638
0.452145516872406 0.2790856957435608 0.5938283801078796
0.3787045180797577 0.13195517659187317 0.5784793496131897
0.42779862880706787 0.22308532893657684 0.516069769859314
0.4490179717540741 0.13628198206424713 0.6143402457237244
0.3449675440788269 0.22731712460517883 0.5407468676567078
0.40312567353248596 0.15982720255851746 0.5981276035308838
0.3705236613750458 0.2336721420288086 0.6093133687973022
0.3432173728942871 0.1624903529882431 0.5723486542701721
0.3801712691783905 0.32255420088768005 0.49204933643341064
0.37220197916030884 0.2779870629310608 0.5478270649909973
0.36277613043785095 0.30163392424583435 0.4422328472137451
0.4038086533546448 0.2956480085849762 0.5554290413856506
0.3618273437023163 0.19564640522003174 0.5402733087539673
0.37324824929237366 0.345994770526886 0.5323795080184937
0.4498032033443451 0.18359945714473724 0.4594256281852722
0.33483049273490906 0.2109452337026596 0.432712584733963
0.3387906551361084 0.23815396428108215 0.4846358597278595
0.3045591115951538 0.1850801557302475 0.45954686403274536
0.48873621225357056 0.22748813033103943 0.4819340705871582
0.4770281910896301 0.2728641927242279 0.4530037045478821
0.31122374534606934 0.17861706018447876 0.6075698733329773
0.4303246736526489 0.17799395322799683 0.5280376076698303
0.41649654507637024 0.21676504611968994 0.4350997805595398
0.2875184714794159 0.20496544241905212 0.4433508813381195
0.4166294038295746 0.12349580973386765 0.5800192356109619
0.31410279870033264 0.26259326934814453 0.44260522723197937
0.3940717875957489 0.23854435980319977 0.5783220529556274
0.42216235399246216 0.21980994939804077 0.5988369584083557
0.5021388530731201 0.2374449521303177 0.4643098711967468
0.45496371388435364 0.15694546699523926 0.43207910656929016
0.36472615599632263 0.2085587978363037 0.46435168385505676
0.42044520378112793 0.21876217424869537 0.5671924352645874
0.40851593017578125 0.3031895160675049 0.42719972133636475
0.4199378788471222 0.29277241230010986 0.48753470182418823
0.3113628625869751 0.21506710350513458 0.4351881444454193
0.43068811297416687 0.2953128218650818 0.5256155133247375
0.33017799258232117 0.2857414484024048 0.507412850856781
0.3787482678890228 0.1487198770046234 0.5525879859924316
0.5065326690673828 0.27851223945617676 0.5597940683364868
0.41700807213783264 0.16343118250370026 0.4285600781440735
0.42464613914489746 0.11761383712291718 0.5721185803413391
0.3067684769630432 0.24865613877773285 0.4899785816669464
0.44199442863464355 0.17340396344661713 0.5529159307479858
0.3725614845752716 0.19786612689495087 0.5583032369613647
0.4903659522533417 0.21138335764408112 0.5809760093688965
0.4862774908542633 0.21037553250789642 0.4408620595932007
0.35936999320983887 0.16588549315929413 0.4341634511947632
0.46359509229660034 0.17216283082962036 0.571100115776062
0.4835881292819977 0.28280770778656006 0.4248342216014862
0.43706825375556946 0.26706036925315857 0.46968913078308105
0.4104248881340027 0.3015766441822052 0.5609821081161499
0.30219176411628723 0.23770755529403687 0.5458648204803467
0.4824712872505188 0.21891561150550842 0.5901999473571777
0.3416701555252075 0.25037845969200134 0.4221217632293701
0.36432257294654846 0.2754237651824951 0.42727354168891907
0.4291441738605499 0.21518321335315704 0.5994919538497925
0.4124089181423187 0.21861983835697174 0.5781958699226379
0.42747700214385986 0.14496080577373505 0.42534664273262024
0.33033087849617004 0.2721880376338959 0.5279157757759094
0.4380538761615753 0.23547272384166718 0.5547581315040588
0.4060856103897095 0.3096121847629547 0.5619646310806274
0.2599615156650543 0.18068961799144745 0.4466041028499603
0.34351348876953125 0.2628115117549896 0.5557869672775269
0.3582119941711426 0.27333736419677734 0.6038500666618347
0.27872714400291443 0.21013198792934418 0.5390655398368835
0.4565415382385254 0.265019029378891 0.4394844174385071
0.3710157871246338 0.2504498362541199 0.5507661700248718
0.3368767499923706 0.2257748395204544 0.5468599796295166
0.40395909547805786 0.2930634021759033 0.4660196900367737
0.3956683278083801 0.1621534526348114 0.596164345741272
0.4036107063293457 0.15848037600517273 0.43626636266708374
0.37935367226600647 0.19168443977832794 0.49091237783432007
0.3441888988018036 0.21268971264362335 0.5133825540542603
0.430982768535614 0.16522663831710815 0.5204833745956421
0.45617491006851196 0.13705065846443176 0.4939168691635132
0.2845233976840973 0.2365703582763672 0.4817676246166229
0.40622666478157043 0.2082536816596985 0.6158949136734009
0.3630951941013336 0.326836496591568 0.5557793378829956
0.43793219327926636 0.2543843984603882 0.4777912497520447
0.31885457038879395 0.22672222554683685 0.42575863003730774
0.31493306159973145 0.29135486483573914 0.49835073947906494
0.3995310962200165 0.1652016043663025 0.45124801993370056
0.3235494792461395 0.17191281914710999 0.488727867603302
0.4849209785461426 0.288743793964386 0.5921904444694519
0.4024612307548523 0.20302242040634155 0.41893795132637024
0.48279792070388794 0.24357867240905762 0.5660107135772705
0.4539329707622528 0.15674492716789246 0.5047756433486938
0.3540514409542084 0.2655177414417267 0.5697919130325317
0.357674241065979 0.14737480878829956 0.4639803469181061
0.3937993049621582 0.298014372587204 0.5833004713058472
0.4348543882369995 0.18048104643821716 0.4984096884727478
0.3568075895309448 0.1857559233903885 0.4252488613128662
0.27664321660995483 0.1951320320367813 0.4388095438480377
0.4028362035751343 0.26078274846076965 0.46550452709198
0.37524333596229553 0.2946237027645111 0.5624322295188904
0.4867192804813385 0.2173990160226822 0.4421316087245941
