ply
format ascii 1.0
element vertex 834
property float x
property float y
property float z
end_header
0.4401716887950897 0.6333119869232178 0.4339214861392975
0.31578415632247925 0.7681400179862976 0.582495391368866
0.3455051779747009 0.6228835582733154 0.4730371832847595
0.33363163471221924 0.7419250011444092 0.5153953433036804
0.4191514551639557 0.6409458518028259 0.5107117891311646
0.37052854895591736 0.6786591410636902 0.4833716154098511
0.31245478987693787 0.7537667155265808 0.4960669279098511
0.3779076337814331 0.7540334463119507 0.42202290892601013
0.4198612570762634 0.8080576062202454 0.5314289331436157
0.28784486651420593 0.7629337310791016 0.559673011302948
0.32221081852912903 0.7093234062194824 0.5592905879020691
0.2765934467315674 0.6177603602409363 0.5464838147163391
0.31362438201904297 0.6861859560012817 0.40542078018188477
0.4401716887950897 0.6333119869232178 0.4339214861392975
0.31578415632247925 0.7681400179862976 0.582495391368866
0.3455051779747009 0.6228835582733154 0.4730371832847595
0.33363163471221924 0.7419250011444092 0.5153953433036804
0.4114452302455902 0.730628490447998 0.4136711657047272
0.28655317425727844 0.8136391639709473 0.47068679332733154
0.3112570345401764 0.7177008390426636 0.5433911681175232
0.3674079179763794 0.7367602586746216 0.5087037086486816
0.3326423764228821 0.7913199663162231 0.5528653264045715
0.3332518935203552 0.7385619282722473 0.5738931894302368
0.3972108066082001 0.7176934480667114 0.43142712116241455
0.30547675490379333 0.7338438630104065 0.5970128774642944
0.25384488701820374 0.7604755759239197 0.4037921130657196
0.3683741092681885 0.738461434841156 0.42042046785354614
0.37553897500038147 0.6568273901939392 0.4331369400024414
0.2863984704017639 0.6808436512947083 0.5504717826843262
0.3518555462360382 0.7485065460205078 0.4904012680053711
0.43050771951675415 0.7026641368865967 0.4351271390914917
0.28580525517463684 0.7838592529296875 0.41885122656822205
0.38042721152305603 0.6930765509605408 0.45569080114364624
0.36830440163612366 0.805132269859314 0.5068148374557495
0.4389634132385254 0.7232913374900818 0.5570781826972961
0.3735034763813019 0.7382565140724182 0.4069843888282776
0.3710322082042694 0.6503715515136719 0.4064044654369354
0.2861473262310028 0.661475658416748 0.4053063690662384
0.4119889438152313 0.673744261264801 0.5848802924156189
0.37182915210723877 0.7516096830368042 0.4752204716205597
0.37052854895591736 0.6786591410636902 0.4833716154098511
0.3257749378681183 0.7999504804611206 0.5225456953048706
0.32221081852912903 0.7093234062194824 0.5592905879020691
0.2765934467315674 0.6177603602409363 0.5464838147163391
0.31362438201904297 0.6861859560012817 0.40542078018188477
0.4401716887950897 0.6333119869232178 0.4339214861392975
0.31578415632247925 0.7681400179862976 0.582495391368866
0.3455051779747009 0.6228835582733154 0.4730371832847595
0.33363163471221924 0.7419250011444092 0.5153953433036804
0.4114452302455902 0.730628490447998 0.4136711657047272
0.28655317425727844 0.8136391639709473 0.47068679332733154
0.3112570345401764 0.7177008390426636 0.5433911681175232
0.3674079179763794 0.7367602586746216 0.5087037086486816
0.3326423764228821 0.7913199663162231 0.5528653264045715
0.3332518935203552 0.7385619282722473 0.5738931894302368
0.3972108066082001 0.7176934480667114 0.43142712116241455
0.30547675490379333 0.7338438630104065 0.5970128774642944
0.25384488701820374 0.7604755759239197 0.4037921130657196
0.3683741092681885 0.738461434841156 0.42042046785354614
0.37553897500038147 0.6568273901939392 0.4331369400024414
0.2863984704017639 0.6808436512947083 0.5504717826843262
0.3518555462360382 0.7485065460205078 0.4904012680053711
0.3442859947681427 0.6572104692459106 0.4363556206226349
0.43050771951675415 0.7026641368865967 0.4351271390914917
0.3267154395580292 0.8135101795196533 0.4776419699192047
0.42679065465927124 0.6377210021018982 0.568728506565094
0.33211684226989746 0.7932432889938354 0.5066103935241699
0.268422931432724 0.6662830114364624 0.45294755697250366
0.26838093996047974 0.6776127219200134 0.480479896068573
0.3243011236190796 0.723707914352417 0.5712666511535645
0.36603212356567383 0.6181691288948059 0.5294866561889648
0.3507460653781891 0.7522745132446289 0.5318677425384521
0.37124717235565186 0.7150316834449768 0.5978829264640808
0.29207494854927063 0.6623945832252502 0.4171248972415924
0.2765934467315674 0.6177603602409363 0.5464838147163391
0.31362438201904297 0.6861859560012817 0.40542078018188477
0.4401716887950897 0.6333119869232178 0.4339214861392975
0.31578415632247925 0.7681400179862976 0.582495391368866
0.3455051779747009 0.6228835582733154 0.4730371832847595
0.33363163471221924 0.7419250011444092 0.5153953433036804
0.4114452302455902 0.730628490447998 0.4136711657047272
0.28655317425727844 0.8136391639709473 0.47068679332733154
0.3112570345401764 0.7177008390426636 0.5433911681175232
0.3674079179763794 0.7367602586746216 0.5087037086486816
0.3326423764228821 0.7913199663162231 0.5528653264045715
0.3332518935203552 0.7385619282722473 0.5738931894302368
0.4353676438331604 0.6492215394973755 0.5735527276992798
0.41315776109695435 0.6973680853843689 0.45964646339416504
0.34993159770965576 0.6766419410705566 0.4316973090171814
0.3787398338317871 0.6765433549880981 0.491936057806015
0.44139036536216736 0.7208042740821838 0.5316761136054993
0.44023576378822327 0.7745389342308044 0.5306320786476135
0.3178514540195465 0.7043867111206055 0.5310614109039307
0.4089285433292389 0.7158293724060059 0.47991326451301575
0.41350996494293213 0.6991136074066162 0.4255460798740387
0.25678250193595886 0.7515668272972107 0.4563450217247009
0.4448801875114441 0.7676963806152344 0.44184044003486633
0.3554631173610687 0.6502798795700073 0.46571120619773865
0.25871869921684265 0.7997158169746399 0.4121648073196411
0.38302600383758545 0.6794552803039551 0.5172576308250427
0.4147552251815796 0.6721711754798889 0.5078862905502319
0.3787398338317871 0.6765433549880981 0.491936057806015
0.4124911427497864 0.8123767375946045 0.4614659249782562
0.32481569051742554 0.6543777585029602 0.4028327763080597
0.31904682517051697 0.7603988647460938 0.4099545180797577
0.28147825598716736 0.7707746624946594 0.4240752160549164
0.44633305072784424 0.6172252893447876 0.560566782951355
0.39540937542915344 0.7191643118858337 0.5005940794944763
0.34372207522392273 0.6655575037002563 0.5664414763450623
0.3025836944580078 0.646396279335022 0.5578342080116272
0.28112247586250305 0.6515558958053589 0.40981918573379517
0.2872173488140106 0.6967790722846985 0.5267294049263
0.3368416428565979 0.7152934074401855 0.4130021631717682
0.3711108863353729 0.7239529490470886 0.4292346239089966
0.326188325881958 0.7870567440986633 0.4683483839035034
0.28724512457847595 0.771702229976654 0.40038150548934937
0.3627062439918518 0.6858354806900024 0.5109415054321289
0.30443882942199707 0.7175741791725159 0.5649620890617371
0.32261210680007935 0.7097703814506531 0.42486175894737244
0.4412453770637512 0.6560330986976624 0.42458033561706543
0.4412453770637512 0.6560330986976624 0.42458033561706543
0.3633022904396057 0.7718645930290222 0.4342461824417114
0.3700506091117859 0.7845817804336548 0.5056045651435852
0.2936648428440094 0.6717888712882996 0.5288416743278503
0.3187626600265503 0.7927097678184509 0.5203284025192261
0.3424016833305359 0.6777417063713074 0.4733080267906189
0.368604451417923 0.737826943397522 0.4342111647129059
0.4225790500640869 0.6507329344749451 0.5332197546958923
0.4181811809539795 0.7253636121749878 0.5946553349494934
0.31496137380599976 0.7368271350860596 0.41458430886268616
0.3775584399700165 0.7977741360664368 0.47285744547843933
0.263102650642395 0.7164919376373291 0.5288133025169373
0.3257749378681183 0.7999504804611206 0.5225456953048706
0.4298993945121765 0.7113319039344788 0.5757554769515991
0.4450870454311371 0.6481247544288635 0.5710309743881226
0.4454711079597473 0.7877264022827148 0.4897680878639221
0.39018458127975464 0.6435943841934204 0.5994418263435364
0.39968201518058777 0.7716039419174194 0.5989018678665161
0.4353676438331604 0.6492215394973755 0.5735527276992798
0.41315776109695435 0.6973680853843689 0.45964646339416504
0.34993159770965576 0.6766419410705566 0.4316973090171814
0.3787398338317871 0.6765433549880981 0.491936057806015
0.4124911427497864 0.8123767375946045 0.4614659249782562
0.32481569051742554 0.6543777585029602 0.4028327763080597
0.31904682517051697 0.7603988647460938 0.4099545180797577
0.28147825598716736 0.7707746624946594 0.4240752160549164
0.44633305072784424 0.6172252893447876 0.560566782951355
0.39540937542915344 0.7191643118858337 0.5005940794944763
0.34372207522392273 0.6655575037002563 0.5664414763450623
0.3025836944580078 0.646396279335022 0.5578342080116272
0.28112247586250305 0.6515558958053589 0.40981918573379517
0.2872173488140106 0.6967790722846985 0.5267294049263
0.3368416428565979 0.7152934074401855 0.4130021631717682
0.25600406527519226 0.6545526385307312 0.5370129346847534
0.3711108863353729 0.7239529490470886 0.4292346239089966
0.326188325881958 0.7870567440986633 0.4683483839035034
0.28724512457847595 0.771702229976654 0.40038150548934937
0.3627062439918518 0.6858354806900024 0.5109415054321289
0.30443882942199707 0.7175741791725159 0.5649620890617371
0.32261210680007935 0.7097703814506531 0.42486175894737244
0.4412453770637512 0.6560330986976624 0.42458033561706543
0.3633022904396057 0.7718645930290222 0.4342461824417114
0.3700506091117859 0.7845817804336548 0.5056045651435852
0.2936648428440094 0.6717888712882996 0.5288416743278503
0.3112570345401764 0.7177008390426636 0.5433911681175232
0.2595185935497284 0.665037214756012 0.5156604051589966
0.3355115056037903 0.7207341194152832 0.5782620906829834
0.281654953956604 0.7888526320457458 0.58940589427948
0.33922022581100464 0.6971864700317383 0.4298660457134247
0.28844404220581055 0.7186524271965027 0.46876126527786255
0.3916235566139221 0.6527484059333801 0.5262073278427124
0.41931942105293274 0.816796064376831 0.5749014616012573
0.3422936499118805 0.7266354560852051 0.42876553535461426
0.43677064776420593 0.730379045009613 0.4655553102493286
0.4298993945121765 0.7113319039344788 0.5757554769515991
0.4450870454311371 0.6481247544288635 0.5710309743881226
0.4454711079597473 0.7877264022827148 0.4897680878639221
0.39018458127975464 0.6435943841934204 0.5994418263435364
0.39018458127975464 0.6435943841934204 0.5994418263435364
0.39968201518058777 0.7716039419174194 0.5989018678665161
0.4353676438331604 0.6492215394973755 0.5735527276992798
0.41315776109695435 0.6973680853843689 0.45964646339416504
0.40004321932792664 0.6486034393310547 0.4596864879131317
0.3787398338317871 0.6765433549880981 0.491936057806015
0.4124911427497864 0.8123767375946045 0.4614659249782562
0.32481569051742554 0.6543777585029602 0.4028327763080597
0.31904682517051697 0.7603988647460938 0.4099545180797577
0.28147825598716736 0.7707746624946594 0.4240752160549164
0.39540937542915344 0.7191643118858337 0.5005940794944763
0.3819406032562256 0.8036554455757141 0.4045974612236023
0.36542338132858276 0.727553129196167 0.42028820514678955
0.28112247586250305 0.6515558958053589 0.40981918573379517
0.2872173488140106 0.6967790722846985 0.5267294049263
0.3368416428565979 0.7152934074401855 0.4130021631717682
0.3711108863353729 0.7239529490470886 0.4292346239089966
0.326188325881958 0.7870567440986633 0.4683483839035034
0.3674079179763794 0.7367602586746216 0.5087037086486816
0.32481569051742554 0.6543777585029602 0.4028327763080597
0.31904682517051697 0.7603988647460938 0.4099545180797577
0.3664708733558655 0.693267285823822 0.5091345906257629
0.4442817270755768 0.7612032890319824 0.5880783200263977
0.44400808215141296 0.6718677878379822 0.4992144703865051
0.3591143488883972 0.7337290048599243 0.40332671999931335
0.36805933713912964 0.6478012800216675 0.4939817488193512
0.33718544244766235 0.7456156015396118 0.4108488857746124
0.2799920439720154 0.7804883718490601 0.41532108187675476
0.25572460889816284 0.6823649406433105 0.5453722476959229
0.2525874972343445 0.8033163547515869 0.5589766502380371
0.4129064977169037 0.7844546437263489 0.43365776538848877
0.36145487427711487 0.7546842098236084 0.41357892751693726
0.3031449615955353 0.7691355347633362 0.4081697165966034
0.263975590467453 0.801798403263092 0.46629226207733154
0.4085410237312317 0.6604372262954712 0.4116946756839752
0.4179113805294037 0.7428229451179504 0.5427648425102234
0.3499552607536316 0.7341940999031067 0.4829629957675934
0.289072722196579 0.6429283618927002 0.5164581537246704
0.33960533142089844 0.7529675960540771 0.41655245423316956
0.4273410737514496 0.7912900447845459 0.5376348495483398
0.41929319500923157 0.809727668762207 0.526589572429657
0.396830290555954 0.7931142449378967 0.5458504557609558
0.39523860812187195 0.6734688878059387 0.5573962330818176
0.3795158863067627 0.6926897168159485 0.4455800950527191
0.321719229221344 0.7314670085906982 0.5995211005210876
0.3383382558822632 0.6971463561058044 0.5853631496429443
0.2597001791000366 0.7652149200439453 0.551631510257721
0.295280784368515 0.7795447111129761 0.5085801482200623
0.35156792402267456 0.7529695630073547 0.5469335913658142
0.42148545384407043 0.7334426045417786 0.4139643609523773
0.39571520686149597 0.7488909959793091 0.4903031289577484
0.30882173776626587 0.7182604670524597 0.49399495124816895
0.34959685802459717 0.6968322396278381 0.4786243736743927
0.3748464584350586 0.7965065240859985 0.4111468195915222
0.3477575182914734 0.7989854216575623 0.4910244643688202
0.38653627038002014 0.746192455291748 0.5725744962692261
0.3994157910346985 0.7964445352554321 0.5773069262504578
0.2603572905063629 0.6934139728546143 0.49536237120628357
0.3973771035671234 0.7234708666801453 0.5677345395088196
0.2815469801425934 0.7278240919113159 0.4001789689064026
0.31152603030204773 0.6945601105690002 0.42140722274780273
0.4463452100753784 0.7369383573532104 0.5258219242095947
0.3675207495689392 0.6402742862701416 0.5237200856208801
0.31866255402565 0.6434248685836792 0.4710693657398224
0.34210824966430664 0.8062601089477539 0.5152867436408997
0.27208998799324036 0.6350448727607727 0.5877625346183777
0.4216301739215851 0.6936905980110168 0.4872649908065796
0.3577450215816498 0.813640296459198 0.42346417903900146
0.42572206258773804 0.7863633632659912 0.4955379366874695
0.4460417628288269 0.6564422249794006 0.5437618494033813
0.3639362156391144 0.7827509045600891 0.5418379306793213
0.4333839416503906 0.7949626445770264 0.45082947611808777
0.351292222738266 0.7681880593299866 0.4408147633075714
0.29177820682525635 0.6827877759933472 0.49390971660614014
0.38728177547454834 0.725140392780304 0.4297413229942322
0.4491744339466095 0.7977610230445862 0.45210129022598267
0.43435946106910706 0.7145950794219971 0.580270528793335
0.42596006393432617 0.7828249335289001 0.4904565215110779
0.333644300699234 0.6419447064399719 0.5672948956489563
0.42516231536865234 0.763852059841156 0.490092396736145
0.2706487476825714 0.7319031953811646 0.5619494915008545
0.289458692073822 0.6956740021705627 0.40757837891578674
0.4397396147251129 0.7462395429611206 0.5542207360267639
0.4460417628288269 0.6564422249794006 0.5437618494033813
0.3639362156391144 0.7827509045600891 0.5418379306793213
0.262370228767395 0.7799004912376404 0.4508218765258789
0.3325892388820648 0.692654013633728 0.5515662431716919
0.3639362156391144 0.7827509045600891 0.5418379306793213
0.262370228767395 0.7799004912376404 0.4508218765258789
0.3325892388820648 0.692654013633728 0.5515662431716919
0.4025034010410309 0.6685115098953247 0.4922831356525421
0.3926212191581726 0.7357209324836731 0.48259592056274414
0.43560123443603516 0.6243753433227539 0.4956376850605011
0.41918089985847473 0.734715461730957 0.5924110412597656
0.4225843548774719 0.6736607551574707 0.42192623019218445
0.3811180591583252 0.8108404874801636 0.49001285433769226
0.43435946106910706 0.7145950794219971 0.580270528793335
0.42596006393432617 0.7828249335289001 0.4904565215110779
0.333644300699234 0.6419447064399719 0.5672948956489563
0.42516231536865234 0.763852059841156 0.490092396736145
0.2706487476825714 0.7319031953811646 0.5619494915008545
0.289458692073822 0.6956740021705627 0.40757837891578674
0.3769906163215637 0.7643976211547852 0.5602772235870361
0.3710726201534271 0.6914739012718201 0.5449263453483582
0.3610938787460327 0.7894018292427063 0.48178669810295105
0.4021055996417999 0.6991310119628906 0.5620852112770081
0.41343745589256287 0.7643817663192749 0.4197927415370941
0.3333916962146759 0.7972092628479004 0.5133748650550842
0.28705543279647827 0.6180872321128845 0.571822464466095
0.3143640458583832 0.6628331542015076 0.5414316654205322
0.27386415004730225 0.7920122146606445 0.44364091753959656
0.3733827471733093 0.8049511909484863 0.5447056293487549
0.2504805624485016 0.736566424369812 0.5623428821563721
0.30220651626586914 0.8133859038352966 0.46570515632629395
0.4450870454311371 0.6481247544288635 0.5710309743881226
0.42516231536865234 0.763852059841156 0.490092396736145
0.2706487476825714 0.7319031953811646 0.5619494915008545
0.289458692073822 0.6956740021705627 0.40757837891578674
0.3769906163215637 0.7643976211547852 0.5602772235870361
0.31333571672439575 0.8020486831665039 0.49736350774765015
0.43152493238449097 0.6309424638748169 0.48619544506073
0.2627420127391815 0.8116841912269592 0.4541921317577362
0.3710726201534271 0.6914739012718201 0.5449263453483582
0.3692633807659149 0.808635413646698 0.43925878405570984
0.3610938787460327 0.7894018292427063 0.48178669810295105
0.4021055996417999 0.6991310119628906 0.5620852112770081
0.41343745589256287 0.7643817663192749 0.4197927415370941
0.3333916962146759 0.7972092628479004 0.5133748650550842
0.28705543279647827 0.6180872321128845 0.571822464466095
0.3143640458583832 0.6628331542015076 0.5414316654205322
0.27386415004730225 0.7920122146606445 0.44364091753959656
0.2744605839252472 0.7910213470458984 0.44264930486679077
0.37240830063819885 0.6354117393493652 0.5438648462295532
0.43091240525245667 0.7370781302452087 0.5927700400352478
0.3684976398944855 0.6391286849975586 0.4666486382484436
0.4432101845741272 0.7059304118156433 0.5640731453895569
0.2946230471134186 0.6671717166900635 0.403344988822937
0.4433138966560364 0.7335345149040222 0.5891011953353882
0.3803696632385254 0.6421937346458435 0.5702716708183289
0.3020592927932739 0.7597891092300415 0.4110405445098877
0.43279942870140076 0.7010746598243713 0.4083574712276459
0.2594444751739502 0.6246320605278015 0.4430404305458069
0.3806740939617157 0.7887650728225708 0.5610266327857971
0.3882255256175995 0.7914294004440308 0.5360589623451233
0.32231706380844116 0.8064250349998474 0.4182438254356384
0.40379250049591064 0.6342654228210449 0.40821969509124756
0.3554631173610687 0.6502798795700073 0.46571120619773865
0.284973680973053 0.7243010401725769 0.5393788814544678
0.2698199152946472 0.6626364588737488 0.4009246528148651
0.43854087591171265 0.72266685962677 0.46745380759239197
0.4203897714614868 0.726093053817749 0.4206802248954773
0.4420499801635742 0.735083281993866 0.5600045323371887
0.27490201592445374 0.7310850620269775 0.5540421605110168
0.34518006443977356 0.7622878551483154 0.5757142305374146
0.3115535378456116 0.7109713554382324 0.593511164188385
0.3393005430698395 0.6944975256919861 0.43955889344215393
0.31138932704925537 0.7462919354438782 0.5013560056686401
0.3986288607120514 0.7371058464050293 0.5404062271118164
0.418235182762146 0.7627547383308411 0.5614078640937805
0.39670535922050476 0.8014239072799683 0.4964766502380371
0.3201925456523895 0.6363876461982727 0.4540005326271057
0.41120582818984985 0.6257034540176392 0.4012608826160431
0.34199464321136475 0.6308818459510803 0.5416560173034668
0.34934934973716736 0.7604699730873108 0.45948272943496704
0.4089219868183136 0.7648074626922607 0.401410847902298
0.3215450048446655 0.755234956741333 0.5641126036643982
0.39389100670814514 0.751794695854187 0.5640704035758972
0.36479076743125916 0.6327590942382812 0.5435261726379395
0.30377164483070374 0.6465862393379211 0.49526238441467285
0.3646557629108429 0.721027672290802 0.5657724738121033
0.42131081223487854 0.6716042757034302 0.5535555481910706
0.36314472556114197 0.6639982461929321 0.5249773859977722
0.2564393877983093 0.7031729817390442 0.40995168685913086
0.2956388592720032 0.6644883751869202 0.47118493914604187
0.3807430565357208 0.6818611025810242 0.5964351892471313
0.3190114200115204 0.8133953809738159 0.4264693260192871
0.38273951411247253 0.7167077660560608 0.5955564975738525
0.3525550961494446 0.6999194622039795 0.5153512358665466
0.34425655007362366 0.7548630237579346 0.48034530878067017
0.31952011585235596 0.6942465305328369 0.5562409162521362
0.28902027010917664 0.7126994132995605 0.4998668134212494
0.31949660181999207 0.8162259459495544 0.5399762988090515
0.3316279351711273 0.7658005952835083 0.5724471807479858
0.3875981867313385 0.7423378229141235 0.41705045104026794
0.29975906014442444 0.684846043586731 0.5733497142791748
0.3184812068939209 0.7630982398986816 0.49936366081237793
0.3871400058269501 0.6400617361068726 0.4770206809043884
0.37394943833351135 0.7173283696174622 0.5638699531555176
0.33948251605033875 0.7811281681060791 0.49981021881103516
0.3828364312648773 0.6269023418426514 0.4949495494365692
0.27309760451316833 0.6385588645935059 0.5047315359115601
0.40275639295578003 0.7466579675674438 0.44860899448394775
0.42242535948753357 0.634263277053833 0.41262346506118774
0.431766152381897 0.740236759185791 0.4417300522327423
0.36337175965309143 0.6860291361808777 0.49517354369163513
0.27135053277015686 0.7540021538734436 0.5960535407066345
0.26242688298225403 0.6773505210876465 0.4624269902706146
0.2732143998146057 0.735896646976471 0.47061461210250854
0.3182317912578583 0.7820338010787964 0.4361668825149536
0.33233192563056946 0.6511948108673096 0.5378746390342712
0.3859611749649048 0.6924800872802734 0.5278899669647217
0.3898192346096039 0.7094850540161133 0.4053347110748291
0.2828543186187744 0.6855857372283936 0.5012010931968689
0.27246078848838806 0.730776309967041 0.5396547317504883
0.34418943524360657 0.7222103476524353 0.5739613771438599
0.3458715081214905 0.7085549831390381 0.41898098587989807
0.32748574018478394 0.7809458374977112 0.50064617395401
0.25301986932754517 0.7305743098258972 0.5814928412437439
0.4036240875720978 0.6276707053184509 0.436984658241272
0.31034791469573975 0.7747914791107178 0.5613048076629639
0.2736731171607971 0.7882202863693237 0.5068073868751526
0.3386877477169037 0.675169050693512 0.5870636105537415
0.2699297368526459 0.7985180020332336 0.4683293104171753
0.407998263835907 0.7852564454078674 0.47633421421051025
0.31126710772514343 0.7170244455337524 0.46900105476379395
0.40175142884254456 0.801430344581604 0.5469710230827332
0.26847875118255615 0.6479917764663696 0.40152958035469055
0.2517645061016083 0.6289609670639038 0.5111907124519348
0.3038276731967926 0.6828811764717102 0.5950759649276733
0.3828364312648773 0.6269023418426514 0.4949495494365692
0.27309760451316833 0.6385588645935059 0.5047315359115601
0.40275639295578003 0.7466579675674438 0.44860899448394775
0.42242535948753357 0.634263277053833 0.41262346506118774
0.431766152381897 0.740236759185791 0.4417300522327423
0.431766152381897 0.740236759185791 0.4417300522327423
0.36337175965309143 0.6860291361808777 0.49517354369163513
0.27135053277015686 0.7540021538734436 0.5960535407066345
0.26242688298225403 0.6773505210876465 0.4624269902706146
0.2732143998146057 0.735896646976471 0.47061461210250854
0.34692707657814026 0.6658926606178284 0.5290074348449707
0.33233192563056946 0.6511948108673096 0.5378746390342712
0.3859611749649048 0.6924800872802734 0.5278899669647217
0.3898192346096039 0.7094850540161133 0.4053347110748291
0.26844242215156555 0.7116436958312988 0.5488366484642029
0.347005695104599 0.7254841327667236 0.45241016149520874
0.43018484115600586 0.7824723124504089 0.5798923969268799
0.25766363739967346 0.6230576634407043 0.4739062488079071
0.42317259311676025 0.8067732453346252 0.5744024515151978
0.3510689437389374 0.6622798442840576 0.4972968101501465
0.2671465575695038 0.7686282396316528 0.4463491141796112
0.2523230016231537 0.6282060742378235 0.5858076214790344
0.3153671622276306 0.7423807382583618 0.4456642270088196
0.4225790500640869 0.6507329344749451 0.5332197546958923
0.2956388592720032 0.6644883751869202 0.47118493914604187
0.44279348850250244 0.8069257736206055 0.5606114864349365
0.3806108832359314 0.6602671146392822 0.427080363035202
0.32216110825538635 0.6575260758399963 0.5621362924575806
0.3875638246536255 0.7319853901863098 0.5967133641242981
0.27594441175460815 0.6401121020317078 0.484237939119339
0.2757290303707123 0.7275641560554504 0.40208470821380615
0.2966453731060028 0.7022351622581482 0.5711855888366699
0.3887292742729187 0.6766144633293152 0.5472479462623596
0.3581183850765228 0.8017672896385193 0.5581209659576416
0.3924083709716797 0.7525349259376526 0.5122171640396118
0.4236869812011719 0.6954216957092285 0.5749486684799194
0.34138038754463196 0.6219092011451721 0.5516936182975769
0.33184880018234253 0.7319127917289734 0.48142489790916443
0.34926772117614746 0.6302554607391357 0.42106202244758606
0.39930254220962524 0.8027047514915466 0.5582239627838135
0.4396563172340393 0.7922104001045227 0.496247798204422
0.3375348448753357 0.6977513432502747 0.4958987236022949
0.3656780421733856 0.7386219501495361 0.4242018759250641
0.36918383836746216 0.6956378221511841 0.5667698383331299
0.271817684173584 0.6393911838531494 0.49744459986686707
0.2712925374507904 0.6803847551345825 0.45860517024993896
0.429147332906723 0.7571440935134888 0.42599672079086304
0.34168902039527893 0.754028856754303 0.538701057434082
0.3812375068664551 0.7071964740753174 0.5721578598022461
0.29325059056282043 0.6934249401092529 0.4620830714702606
0.3386877477169037 0.675169050693512 0.5870636105537415
0.2699297368526459 0.7985180020332336 0.4683293104171753
0.407998263835907 0.7852564454078674 0.47633421421051025
0.30435308814048767 0.6517414450645447 0.5907865166664124
0.2594701647758484 0.6335585117340088 0.4237278401851654
0.4225790500640869 0.6507329344749451 0.5332197546958923
0.3622896671295166 0.7412756681442261 0.4157089293003082
0.37376898527145386 0.7446384429931641 0.49688097834587097
0.39352115988731384 0.6405759453773499 0.5033506155014038
0.4358358085155487 0.6913381218910217 0.564245879650116
0.32516977190971375 0.7356986403465271 0.4049113392829895
0.2577289342880249 0.7761136889457703 0.5518673658370972
0.3660985231399536 0.626589834690094 0.5219160318374634
0.2720751464366913 0.7984613180160522 0.5350149869918823
0.2722080945968628 0.8097644448280334 0.5633541941642761
0.3814859390258789 0.7110816836357117 0.5747057795524597
0.3390600383281708 0.752220630645752 0.5909367203712463
0.4134117364883423 0.6334086060523987 0.4727812707424164
0.3685975670814514 0.7912724018096924 0.5544614195823669
0.4397577941417694 0.702041745185852 0.5705301761627197
0.27431726455688477 0.7886759042739868 0.5853316187858582
0.25695374608039856 0.6180787682533264 0.47810110449790955
0.37556469440460205 0.7411332726478577 0.40253645181655884
0.36161383986473083 0.7250216603279114 0.5083283185958862
0.26844242215156555 0.7116436958312988 0.5488366484642029
0.347005695104599 0.7254841327667236 0.45241016149520874
0.43018484115600586 0.7824723124504089 0.5798923969268799
0.25766363739967346 0.6230576634407043 0.4739062488079071
0.42317259311676025 0.8067732453346252 0.5744024515151978
0.3510689437389374 0.6622798442840576 0.4972968101501465
0.2671465575695038 0.7686282396316528 0.4463491141796112
0.2523230016231537 0.6282060742378235 0.5858076214790344
0.3153671622276306 0.7423807382583618 0.4456642270088196
0.26582425832748413 0.6992241740226746 0.501339852809906
0.28054988384246826 0.6387216448783875 0.5349032282829285
0.3708110451698303 0.6996049880981445 0.46534615755081177
0.42828771471977234 0.6693071126937866 0.434193879365921
0.2675711214542389 0.643449604511261 0.4263690412044525
0.407998263835907 0.7852564454078674 0.47633421421051025
0.31126710772514343 0.7170244455337524 0.46900105476379395
0.37516048550605774 0.7280269861221313 0.5735620856285095
0.26626238226890564 0.6455214023590088 0.4021560549736023
0.36953818798065186 0.6263788342475891 0.4165063798427582
0.34506967663764954 0.6989941596984863 0.5851122736930847
0.33948251605033875 0.7811281681060791 0.49981021881103516
0.3828364312648773 0.6269023418426514 0.4949495494365692
0.27309760451316833 0.6385588645935059 0.5047315359115601
0.40275639295578003 0.7466579675674438 0.44860899448394775
0.3626498281955719 0.6876564621925354 0.47242745757102966
0.3756265938282013 0.674964427947998 0.5773354172706604
0.431766152381897 0.740236759185791 0.4417300522327423
0.36337175965309143 0.6860291361808777 0.49517354369163513
0.27135053277015686 0.7540021538734436 0.5960535407066345
0.26242688298225403 0.6773505210876465 0.4624269902706146
0.2732143998146057 0.735896646976471 0.47061461210250854
0.3182317912578583 0.7820338010787964 0.4361668825149536
0.33233192563056946 0.6511948108673096 0.5378746390342712
0.33233192563056946 0.6511948108673096 0.5378746390342712
0.3859611749649048 0.6924800872802734 0.5278899669647217
0.3257790505886078 0.745451807975769 0.5662640333175659
0.26844242215156555 0.7116436958312988 0.5488366484642029
0.347005695104599 0.7254841327667236 0.45241016149520874
0.43018484115600586 0.7824723124504089 0.5798923969268799
0.25766363739967346 0.6230576634407043 0.4739062488079071
0.42317259311676025 0.8067732453346252 0.5744024515151978
0.3510689437389374 0.6622798442840576 0.4972968101501465
0.2671465575695038 0.7686282396316528 0.4463491141796112
0.2523230016231537 0.6282060742378235 0.5858076214790344
0.3153671622276306 0.7423807382583618 0.4456642270088196
0.4273410737514496 0.7912900447845459 0.5376348495483398
0.33184880018234253 0.7319127917289734 0.48142489790916443
0.34926772117614746 0.6302554607391357 0.42106202244758606
0.39930254220962524 0.8027047514915466 0.5582239627838135
0.4396563172340393 0.7922104001045227 0.496247798204422
0.3656780421733856 0.7386219501495361 0.4242018759250641
0.36918383836746216 0.6956378221511841 0.5667698383331299
0.271817684173584 0.6393911838531494 0.49744459986686707
0.2712925374507904 0.6803847551345825 0.45860517024993896
0.429147332906723 0.7571440935134888 0.42599672079086304
0.34168902039527893 0.754028856754303 0.538701057434082
0.3812375068664551 0.7071964740753174 0.5721578598022461
0.3386877477169037 0.675169050693512 0.5870636105537415
0.37605348229408264 0.6796715259552002 0.5800613164901733
0.40184494853019714 0.696709156036377 0.4823216199874878
0.30508825182914734 0.7239595651626587 0.5240369439125061
0.25358375906944275 0.6738314628601074 0.4958593547344208
0.40118521451950073 0.7775999307632446 0.5727183222770691
0.29797491431236267 0.6409153938293457 0.5903175473213196
0.4376053512096405 0.7386718392372131 0.487703412771225
0.4292658269405365 0.8109896779060364 0.4830870032310486
0.2599831223487854 0.7071059942245483 0.4471467435359955
0.44633084535598755 0.7633259296417236 0.5873188972473145
0.26894015073776245 0.7429348826408386 0.4342041313648224
0.3544873297214508 0.6827971339225769 0.4075043201446533
0.26372742652893066 0.7478814721107483 0.4153060019016266
0.3104955852031708 0.6628888845443726 0.5363797545433044
0.34435442090034485 0.7675790190696716 0.5294995307922363
0.33666592836380005 0.7699066996574402 0.5735266208648682
0.3143116235733032 0.6590458154678345 0.56670743227005
0.25184693932533264 0.7060001492500305 0.5991580486297607
0.2826502025127411 0.6874054670333862 0.4288041591644287
0.25793516635894775 0.6604956984519958 0.4725888967514038
0.39268428087234497 0.7845812439918518 0.5550752282142639
0.40349361300468445 0.7441811561584473 0.5153530836105347
0.33354783058166504 0.6583936810493469 0.41261640191078186
0.39882391691207886 0.78144371509552 0.5942009091377258
0.37546831369400024 0.7519301176071167 0.5012139081954956
0.37490904331207275 0.7519847750663757 0.5776786804199219
0.2704088091850281 0.6918789744377136 0.41850775480270386
0.360813170671463 0.7556747794151306 0.5836952328681946
0.3496730625629425 0.7251536846160889 0.5436331033706665
0.30464038252830505 0.7436410784721375 0.456413596868515
0.2892390787601471 0.6448970437049866 0.522467851638794
0.3457950949668884 0.7815538644790649 0.4584856331348419
0.2919411063194275 0.6608412861824036 0.40247178077697754
0.3534564673900604 0.7554900050163269 0.5448706746101379
0.41600102186203003 0.7072164416313171 0.5514176487922668
0.43899399042129517 0.7761105298995972 0.4141933023929596
0.31852221488952637 0.7583015561103821 0.4003565013408661
0.3125183582305908 0.6891205310821533 0.43332067131996155
0.35872942209243774 0.7618935108184814 0.4267454147338867
0.27892935276031494 0.7604993581771851 0.48374053835868835
0.3734845817089081 0.6888481974601746 0.5041437149047852
0.3635157346725464 0.742291271686554 0.41226473450660706
0.4373217225074768 0.6680521965026855 0.4976675510406494
0.43436145782470703 0.7047067880630493 0.5985502004623413
0.36785030364990234 0.7367184162139893 0.5532494187355042
0.271530419588089 0.6459834575653076 0.4890139698982239
0.4483734667301178 0.787373423576355 0.4885729253292084
0.35813796520233154 0.6822723746299744 0.5686299204826355
0.31615614891052246 0.6758161783218384 0.40942761301994324
0.32624635100364685 0.7251449823379517 0.5080533027648926
0.3714394271373749 0.6441994309425354 0.42829880118370056
0.31333571672439575 0.8020486831665039 0.49736350774765015
0.25766363739967346 0.6230576634407043 0.4739062488079071
0.42317259311676025 0.8067732453346252 0.5744024515151978
0.3510689437389374 0.6622798442840576 0.4972968101501465
0.2671465575695038 0.7686282396316528 0.4463491141796112
0.2523230016231537 0.6282060742378235 0.5858076214790344
0.3153671622276306 0.7423807382583618 0.4456642270088196
0.26582425832748413 0.6992241740226746 0.501339852809906
0.28054988384246826 0.6387216448783875 0.5349032282829285
0.3708110451698303 0.6996049880981445 0.46534615755081177
0.42828771471977234 0.6693071126937866 0.434193879365921
0.32886815071105957 0.7044444680213928 0.491436630487442
0.3015148639678955 0.7308268547058105 0.5418471097946167
0.3614804148674011 0.7509359121322632 0.5836663842201233
0.41578635573387146 0.628819465637207 0.5374881625175476
0.3624410331249237 0.7289535999298096 0.4857724905014038
0.3013831377029419 0.7419492602348328 0.5000442266464233
0.399671345949173 0.6191897392272949 0.48887166380882263
0.3536681532859802 0.7828844785690308 0.47055336833000183
0.29636305570602417 0.7448533177375793 0.5715208649635315
0.43206146359443665 0.684852659702301 0.40572458505630493
0.3916011452674866 0.6532837748527527 0.5105854272842407
0.28623026609420776 0.7690156698226929 0.4683169424533844
0.36733144521713257 0.6557307839393616 0.4521391689777374
0.36609742045402527 0.7867541313171387 0.4987824261188507
0.400216281414032 0.6572874784469604 0.5057314038276672
0.33441275358200073 0.6422385573387146 0.5374943017959595
0.39268428087234497 0.7845812439918518 0.5550752282142639
0.40349361300468445 0.7441811561584473 0.5153530836105347
0.33354783058166504 0.6583936810493469 0.41261640191078186
0.39882391691207886 0.78144371509552 0.5942009091377258
0.37546831369400024 0.7519301176071167 0.5012139081954956
0.31883546710014343 0.6299965977668762 0.5341958403587341
0.36785030364990234 0.7367184162139893 0.5532494187355042
0.271530419588089 0.6459834575653076 0.4890139698982239
0.4483734667301178 0.787373423576355 0.4885729253292084
0.35813796520233154 0.6822723746299744 0.5686299204826355
0.32624635100364685 0.7251449823379517 0.5080533027648926
0.2614787220954895 0.7900848984718323 0.482721745967865
0.3714394271373749 0.6441994309425354 0.42829880118370056
0.3901520371437073 0.7872674465179443 0.559028685092926
0.26471462845802307 0.6673567891120911 0.5510786175727844
0.4114803671836853 0.8149971961975098 0.47401249408721924
0.2820136845111847 0.7838058471679688 0.5444672703742981
0.2678490877151489 0.6496769785881042 0.42883411049842834
0.26477983593940735 0.7287455201148987 0.4112367630004883
0.32282304763793945 0.6341473460197449 0.5536190271377563
0.4345298409461975 0.6518492698669434 0.44517451524734497
0.3234294652938843 0.7016660571098328 0.44765201210975647
0.38652414083480835 0.8104296922683716 0.41588443517684937
0.40581321716308594 0.787996768951416 0.45122602581977844
0.32125890254974365 0.7867327928543091 0.5892218947410583
0.41490432620048523 0.7236430644989014 0.5036779046058655
0.3706149756908417 0.7911816835403442 0.4173872172832489
0.2940814793109894 0.6357559561729431 0.5677772760391235
0.26372742652893066 0.7478814721107483 0.4153060019016266
0.3104955852031708 0.6628888845443726 0.5363797545433044
0.34435442090034485 0.7675790190696716 0.5294995307922363
0.33666592836380005 0.7699066996574402 0.5735266208648682
0.3143116235733032 0.6590458154678345 0.56670743227005
0.25184693932533264 0.7060001492500305 0.5991580486297607
0.4096548557281494 0.7793254852294922 0.5383866429328918
0.2751864194869995 0.706741213798523 0.5090323686599731
0.3447696268558502 0.7543362379074097 0.43370476365089417
0.3322010636329651 0.8159364461898804 0.45647379755973816
0.26477983593940735 0.7287455201148987 0.4112367630004883
0.32282304763793945 0.6341473460197449 0.5536190271377563
0.4345298409461975 0.6518492698669434 0.44517451524734497
0.3234294652938843 0.7016660571098328 0.44765201210975647
0.38652414083480835 0.8104296922683716 0.41588443517684937
0.40581321716308594 0.787996768951416 0.45122602581977844
0.32125890254974365 0.7867327928543091 0.5892218947410583
0.41490432620048523 0.7236430644989014 0.5036779046058655
0.3706149756908417 0.7911816835403442 0.4173872172832489
0.2940814793109894 0.6357559561729431 0.5677772760391235
0.4494149088859558 0.7684655785560608 0.4848047196865082
0.2621549963951111 0.65567547082901 0.42333558201789856
0.2665475606918335 0.628953754901886 0.5794933438301086
0.4337880611419678 0.7793862223625183 0.4473344683647156
0.4288904666900635 0.7559420466423035 0.5842651724815369
0.31233322620391846 0.6280986070632935 0.5450331568717957
0.3764253556728363 0.7280426621437073 0.5018701553344727
0.36807987093925476 0.7545850872993469 0.4905625283718109
0.41773852705955505 0.7458907961845398 0.4246627986431122
0.2618969976902008 0.7540698051452637 0.507147490978241
0.25460267066955566 0.7405312061309814 0.4794711768627167
0.4248688519001007 0.6436898708343506 0.44739943742752075
0.36657190322875977 0.7517620921134949 0.5045028924942017
0.2908005118370056 0.7867429852485657 0.46829360723495483
0.44157761335372925 0.7759796977043152 0.4668761193752289
0.286408394575119 0.7456105351448059 0.540975034236908
0.2755412459373474 0.7354896664619446 0.5650303363800049
0.4446336328983307 0.7229527831077576 0.5651845932006836
0.43897974491119385 0.6281201839447021 0.40694329142570496
0.3786540925502777 0.7592821717262268 0.45824673771858215
0.3571946918964386 0.6208547949790955 0.5386353731155396
0.41009509563446045 0.7169310450553894 0.576156497001648
0.4458416998386383 0.7500354647636414 0.48214560747146606
0.3539004623889923 0.676283597946167 0.5319541692733765
0.4345029890537262 0.6837167143821716 0.41173088550567627
0.352810263633728 0.6379578709602356 0.43849536776542664
0.27645397186279297 0.8103976249694824 0.5472590923309326
0.4450860917568207 0.7616147398948669 0.48423418402671814
0.3817988634109497 0.6665226817131042 0.4638117551803589
0.3913520574569702 0.8067939281463623 0.5098405480384827
0.3862013816833496 0.6637109518051147 0.49088671803474426
0.27128589153289795 0.7568620443344116 0.40554332733154297
0.41732969880104065 0.6935170888900757 0.5627081990242004
0.3330942392349243 0.6472803354263306 0.4968109130859375
0.3914574682712555 0.7490900754928589 0.49312689900398254
0.30563846230506897 0.743559718132019 0.5705357193946838
0.25727277994155884 0.77668696641922 0.5052732229232788
0.2614930272102356 0.8006000518798828 0.5074253082275391
0.2559374272823334 0.7287130355834961 0.5904293656349182
0.3213135004043579 0.8054764866828918 0.4097749888896942
0.4352286756038666 0.8140033483505249 0.5974637269973755
0.297762393951416 0.7169399857521057 0.5591049790382385
0.30375561118125916 0.7011772990226746 0.4527377784252167
0.39336860179901123 0.6932209730148315 0.460426390171051
0.25799521803855896 0.811354398727417 0.4004477560520172
0.43835991621017456 0.7064071297645569 0.43716204166412354
0.28995418548583984 0.6397262215614319 0.43013066053390503
0.36078211665153503 0.7413197755813599 0.5719597935676575
0.27424055337905884 0.7519335746765137 0.5032278895378113
0.3960544168949127 0.6859771013259888 0.47359928488731384
0.41696619987487793 0.7654123902320862 0.4794720411300659
0.36951056122779846 0.6595622301101685 0.4671507775783539
0.4445403516292572 0.6716115474700928 0.5039234161376953
0.3887292742729187 0.6766144633293152 0.5472479462623596
0.42738571763038635 0.7905964255332947 0.5348982214927673
0.3332984447479248 0.7740982174873352 0.48725083470344543
0.32304513454437256 0.7653111219406128 0.5843899250030518
0.44284477829933167 0.6632401943206787 0.44389426708221436
0.36650145053863525 0.6929897665977478 0.5595234036445618
0.3866862952709198 0.6412413120269775 0.5065072178840637
0.29665371775627136 0.7373799681663513 0.5757741928100586
0.43548816442489624 0.6866453886032104 0.5324282646179199
0.3972006142139435 0.7749810218811035 0.511201798915863
0.2850070297718048 0.740359902381897 0.5450819730758667
0.4480883777141571 0.7349685430526733 0.4000292718410492
0.26451927423477173 0.7664654850959778 0.4924958348274231
0.2873421013355255 0.7128909230232239 0.5021467804908752
0.42393508553504944 0.7355225086212158 0.5566982626914978
0.3929647207260132 0.7310101389884949 0.4860394597053528
0.2890336215496063 0.686820387840271 0.4958595037460327
0.27065327763557434 0.7726514339447021 0.5314923524856567
0.304619699716568 0.7448058128356934 0.5909384489059448
0.4123815596103668 0.7404028177261353 0.46775633096694946
0.4269263446331024 0.7292393445968628 0.5633477568626404
0.31363511085510254 0.6329852342605591 0.5203601121902466
0.42939820885658264 0.6597828269004822 0.47530481219291687
0.39649203419685364 0.6216704845428467 0.43484941124916077
0.332001268863678 0.8021841049194336 0.45092400908470154
0.27144482731819153 0.7385309338569641 0.5077482461929321
0.43696680665016174 0.718705952167511 0.4883440136909485
0.37523365020751953 0.7685506343841553 0.5776526927947998
0.28778913617134094 0.7246342301368713 0.4386616349220276
0.37000012397766113 0.6716660261154175 0.43758007884025574
0.43460938334465027 0.7038025259971619 0.5046380758285522
0.33003488183021545 0.6282662749290466 0.4838607609272003
0.29797491431236267 0.6409153938293457 0.5903175473213196
0.3624469041824341 0.7913095355033875 0.42220261693000793
0.4376985430717468 0.7157723903656006 0.5733131170272827
0.4235328137874603 0.6420433521270752 0.5351874828338623
0.412181556224823 0.6488547325134277 0.4531390070915222
0.2534542381763458 0.7772155404090881 0.4234865605831146
0.42294827103614807 0.6949989199638367 0.5386837720870972
0.43197867274284363 0.6320766806602478 0.5735768675804138
0.3419549763202667 0.8166351318359375 0.515640139579773
0.4387882649898529 0.6807910799980164 0.5161197781562805
0.32717448472976685 0.8156352639198303 0.5856893658638
0.33770573139190674 0.6434094905853271 0.5468893647193909
0.2612222135066986 0.7683412432670593 0.550062358379364
0.38003385066986084 0.7873074412345886 0.5765517354011536
0.36940574645996094 0.6237765550613403 0.5370945930480957
0.34343937039375305 0.7878668308258057 0.5417370200157166
0.33528149127960205 0.6912805438041687 0.5953611135482788
0.41711851954460144 0.6609057188034058 0.5377317667007446
0.2999391555786133 0.7151938676834106 0.5571395754814148
0.30484235286712646 0.6368666887283325 0.5776229500770569
0.29314494132995605 0.7682356238365173 0.5956661701202393
0.3044627606868744 0.665520429611206 0.4320804178714752
0.26787614822387695 0.7131956219673157 0.534229040145874
0.25975707173347473 0.6333010792732239 0.5344893932342529
0.3520551919937134 0.7519726157188416 0.4525047838687897
0.29067885875701904 0.7109552621841431 0.4340018630027771
0.41021254658699036 0.6942156553268433 0.5916804671287537
0.4344678819179535 0.7301919460296631 0.5683377981185913
0.3528243899345398 0.7292252779006958 0.4870455265045166
0.3245958983898163 0.6252004504203796 0.5620725750923157
0.44636422395706177 0.6784617900848389 0.4241779148578644
0.4159040153026581 0.789130687713623 0.4727615416049957
0.3153671622276306 0.7423807382583618 0.4456642270088196
0.30349090695381165 0.6502290368080139 0.4851038157939911
0.30802056193351746 0.6993975639343262 0.5024876594543457
0.3655514121055603 0.7383988499641418 0.5316219329833984
0.31482669711112976 0.7878849506378174 0.4902280271053314
0.26102414727211 0.708790123462677 0.4345037043094635
0.39117664098739624 0.6741408705711365 0.49282145500183105
0.25966233015060425 0.6829734444618225 0.4518705904483795
0.3007885813713074 0.7147994637489319 0.5628418922424316
0.39104440808296204 0.7932645082473755 0.586109459400177
0.3993297815322876 0.6277472376823425 0.5627270936965942
0.2563015818595886 0.8033077716827393 0.47427135705947876
0.289604514837265 0.6251813769340515 0.5756826400756836
0.43503648042678833 0.7679585814476013 0.576166033744812
0.28394195437431335 0.6843995451927185 0.5188365578651428
0.33705294132232666 0.7244755029678345 0.5230245590209961
0.33705294132232666 0.7244755029678345 0.5230245590209961
0.4191918671131134 0.7998584508895874 0.4165773391723633
0.3118218183517456 0.8160079121589661 0.5800878405570984
0.3759273290634155 0.6473484635353088 0.5675921440124512
0.412167489528656 0.757818877696991 0.576697826385498
0.41575369238853455 0.7115613222122192 0.5427804589271545
0.2775736153125763 0.7507365345954895 0.516765296459198
0.28961825370788574 0.6285818815231323 0.5625065565109253
0.43651214241981506 0.7732963562011719 0.5936556458473206
0.3178006410598755 0.6252570748329163 0.5716251134872437
0.26257482171058655 0.6662662625312805 0.5214027762413025
0.4457414448261261 0.7705929279327393 0.5937355756759644
0.3012239634990692 0.7228188514709473 0.47490623593330383
0.37570399045944214 0.7418909072875977 0.41977688670158386
0.3086491525173187 0.7956745624542236 0.5707696676254272
0.30891332030296326 0.7513687014579773 0.5521529316902161
0.3708110451698303 0.6996049880981445 0.46534615755081177
0.39104440808296204 0.7932645082473755 0.586109459400177
0.3993297815322876 0.6277472376823425 0.5627270936965942
0.2563015818595886 0.8033077716827393 0.47427135705947876
0.289604514837265 0.6251813769340515 0.5756826400756836
0.43503648042678833 0.7679585814476013 0.576166033744812
0.43503648042678833 0.7679585814476013 0.576166033744812
0.28394195437431335 0.6843995451927185 0.5188365578651428
0.33705294132232666 0.7244755029678345 0.5230245590209961
0.4191918671131134 0.7998584508895874 0.4165773391723633
0.3118218183517456 0.8160079121589661 0.5800878405570984
0.39928731322288513 0.6324352025985718 0.5565038323402405
0.4458416998386383 0.7500354647636414 0.48214560747146606
0.3037409484386444 0.7277569770812988 0.5685036778450012
0.3357359766960144 0.8082676529884338 0.574369490146637
0.265432208776474 0.7714048027992249 0.5113782286643982
0.32717448472976685 0.8156352639198303 0.5856893658638
0.33770573139190674 0.6434094905853271 0.5468893647193909
0.4315139055252075 0.6716634035110474 0.4937831163406372
0.2736757695674896 0.6280040144920349 0.518208920955658
0.3754367530345917 0.7147480845451355 0.4164494276046753
0.37478455901145935 0.7060882449150085 0.595360279083252
0.30484235286712646 0.6368666887283325 0.5776229500770569
0.29314494132995605 0.7682356238365173 0.5956661701202393
0.3044627606868744 0.665520429611206 0.4320804178714752
0.3657306134700775 0.7264690399169922 0.4411112368106842
0.30536842346191406 0.722888708114624 0.5057957172393799
0.36078211665153503 0.7413197755813599 0.5719597935676575
0.27424055337905884 0.7519335746765137 0.5032278895378113
0.3960544168949127 0.6859771013259888 0.47359928488731384
