ply
format ascii 1.0
element vertex 824
property float x
property float y
property float z
end_header
0.3852689862251282 0.2725457549095154 0.6180694103240967
0.45280760526657104 0.2524002492427826 0.5937856435775757
0.38374924659729004 0.14441925287246704 0.6194886565208435
0.4767272472381592 0.25943419337272644 0.5123795866966248
0.3934207856655121 0.20354820787906647 0.5244994163513184
0.36857515573501587 0.2848018705844879 0.5538060665130615
0.35596951842308044 0.12344594299793243 0.5724219679832458
0.3191166818141937 0.1447603851556778 0.5360066890716553
0.30082616209983826 0.1656937599182129 0.5223292708396912
0.39594435691833496 0.11984608322381973 0.4182587265968323
0.3736990690231323 0.20629318058490753 0.47129884362220764
0.38425615429878235 0.13071155548095703 0.5415202379226685
0.3585056960582733 0.23586809635162354 0.5100464224815369
0.44054028391838074 0.20421002805233002 0.5387852787971497
0.43509793281555176 0.2242206335067749 0.42436832189559937
0.38561877608299255 0.20319274067878723 0.5895886421203613
0.2874498665332794 0.17702321708202362 0.5159873962402344
0.42946475744247437 0.14471471309661865 0.4790244996547699
0.3147924244403839 0.16356916725635529 0.4590907096862793
0.4749373197555542 0.20632869005203247 0.5808542966842651
0.4525870084762573 0.2588954567909241 0.4448365271091461
0.28762346506118774 0.21719421446323395 0.5044342875480652
0.3200489580631256 0.14942100644111633 0.5902043581008911
0.30350568890571594 0.2992205321788788 0.5868432521820068
0.36793577671051025 0.2542937099933624 0.4658110439777374
0.43033429980278015 0.23209652304649353 0.4922017753124237
0.3024442195892334 0.29340726137161255 0.48079240322113037
0.2676891088485718 0.2119217813014984 0.5682451128959656
0.2877255082130432 0.12798693776130676 0.483713299036026
0.4716249108314514 0.2458760142326355 0.43066588044166565
0.2938993275165558 0.1917627453804016 0.46196165680885315
0.31008705496788025 0.1724916398525238 0.43989837169647217
0.27888214588165283 0.1318265199661255 0.49183574318885803
0.2529461681842804 0.15881767868995667 0.6110773682594299
0.3391326665878296 0.1768438220024109 0.6210882067680359
0.4568251669406891 0.25808653235435486 0.5885977149009705
0.36849600076675415 0.2468104511499405 0.5824779868125916
0.38425615429878235 0.13071155548095703 0.5415202379226685
0.3585056960582733 0.23586809635162354 0.5100464224815369
0.44054028391838074 0.20421002805233002 0.5387852787971497
0.43509793281555176 0.2242206335067749 0.42436832189559937
0.38561877608299255 0.20319274067878723 0.5895886421203613
0.2874498665332794 0.17702321708202362 0.5159873962402344
0.42946475744247437 0.14471471309661865 0.4790244996547699
0.3147924244403839 0.16356916725635529 0.4590907096862793
0.4749373197555542 0.20632869005203247 0.5808542966842651
0.4525870084762573 0.2588954567909241 0.4448365271091461
0.28762346506118774 0.21719421446323395 0.5044342875480652
0.4179193079471588 0.18947574496269226 0.5901814699172974
0.2978987991809845 0.12731261551380157 0.4229300618171692
0.3644099235534668 0.18272212147712708 0.5715721249580383
0.4476867914199829 0.15945735573768616 0.5019092559814453
0.43118247389793396 0.27740952372550964 0.4862961769104004
0.3251131772994995 0.19076703488826752 0.4952636957168579
0.3315140902996063 0.17004172503948212 0.4847985506057739
0.3910321891307831 0.17570285499095917 0.5781769156455994
0.31479978561401367 0.2504158020019531 0.5329976081848145
0.3062696158885956 0.2493344247341156 0.5848715305328369
0.35981854796409607 0.20837299525737762 0.543724000453949
0.3552582859992981 0.23596903681755066 0.46802234649658203
0.3681844174861908 0.14179548621177673 0.4224628508090973
0.38545703887939453 0.11565592885017395 0.4624331593513489
0.3700975179672241 0.1249767616391182 0.43773984909057617
0.46360549330711365 0.2644624412059784 0.5070778131484985
0.47984784841537476 0.24503736197948456 0.4337606430053711
0.34567081928253174 0.16981981694698334 0.49383869767189026
0.28474125266075134 0.16909413039684296 0.5021853446960449
0.331520676612854 0.21025000512599945 0.5481665134429932
0.38308587670326233 0.2394726723432541 0.5460018515586853
0.422003835439682 0.13206647336483002 0.5039279460906982
0.35794493556022644 0.21630781888961792 0.6176674962043762
0.44316601753234863 0.2609803080558777 0.6029149889945984
0.3088221848011017 0.31170251965522766 0.5293924808502197
0.2966780364513397 0.2525707185268402 0.48085594177246094
0.40283554792404175 0.24587923288345337 0.43484750390052795
0.2514779269695282 0.16004273295402527 0.45926475524902344
0.41334816813468933 0.1596614569425583 0.4317827522754669
0.42504626512527466 0.10856305062770844 0.5393521785736084
0.35301610827445984 0.28842490911483765 0.4678064286708832
0.3740166127681732 0.1303909569978714 0.46078211069107056
0.39808350801467896 0.1529872566461563 0.5140546560287476
0.4455147087574005 0.13089565932750702 0.5362422466278076
0.4050752818584442 0.12381968647241592 0.4602222740650177
0.34614771604537964 0.31586000323295593 0.6163286566734314
0.36851048469543457 0.30486080050468445 0.43473726511001587
0.40322229266166687 0.2749011814594269 0.45473045110702515
0.4129534363746643 0.10940364748239517 0.5396658778190613
0.36081963777542114 0.17079433798789978 0.5997992157936096
0.391817182302475 0.2577553987503052 0.6146042346954346
0.4489164352416992 0.1951095312833786 0.5502952337265015
0.46525800228118896 0.1889282912015915 0.4644226133823395
0.43387797474861145 0.1920316368341446 0.5260251760482788
0.38042235374450684 0.15022686123847961 0.5348807573318481
0.3155074715614319 0.1976502537727356 0.5234291553497314
0.3590086102485657 0.12549719214439392 0.4296916425228119
0.47740980982780457 0.24151958525180817 0.5078567266464233
0.39041203260421753 0.20764125883579254 0.48112359642982483
0.3172490894794464 0.2280879020690918 0.5050368309020996
0.4922031760215759 0.23084132373332977 0.5878639817237854
0.39851775765419006 0.22548605501651764 0.5707758069038391
0.38308587670326233 0.2394726723432541 0.5460018515586853
0.36857515573501587 0.2848018705844879 0.5538060665130615
0.35596951842308044 0.12344594299793243 0.5724219679832458
0.34100764989852905 0.25578784942626953 0.4532572031021118
0.3471815586090088 0.2248288244009018 0.606116533279419
0.3549186885356903 0.258841335773468 0.42238977551460266
0.422003835439682 0.13206647336483002 0.5039279460906982
0.35794493556022644 0.21630781888961792 0.6176674962043762
0.44316601753234863 0.2609803080558777 0.6029149889945984
0.3088221848011017 0.31170251965522766 0.5293924808502197
0.2966780364513397 0.2525707185268402 0.48085594177246094
0.40283554792404175 0.24587923288345337 0.43484750390052795
0.2514779269695282 0.16004273295402527 0.45926475524902344
0.41334816813468933 0.1596614569425583 0.4317827522754669
0.4273739457130432 0.10641731321811676 0.5430511236190796
0.3413518965244293 0.14859478175640106 0.42113208770751953
0.27031832933425903 0.15841317176818848 0.48395320773124695
0.3315805494785309 0.15990892052650452 0.4744498133659363
0.410709410905838 0.1911228597164154 0.48699915409088135
0.34216034412384033 0.14665575325489044 0.42584583163261414
0.2768481373786926 0.23410233855247498 0.5380281805992126
0.3954090476036072 0.13662484288215637 0.550841212272644
0.39508694410324097 0.11177055537700653 0.45603302121162415
0.3111756145954132 0.14522205293178558 0.49470070004463196
0.43196526169776917 0.25530487298965454 0.4379870295524597
0.27832305431365967 0.23794782161712646 0.5927325487136841
0.40663638710975647 0.14106667041778564 0.47996988892555237
0.4298381805419922 0.26371365785598755 0.5707922577857971
0.328869104385376 0.288008451461792 0.4835168123245239
0.4864271283149719 0.25813886523246765 0.5680909752845764
0.2630634307861328 0.16439977288246155 0.5673524141311646
0.27453476190567017 0.22226674854755402 0.6205261945724487
0.31200847029685974 0.21637782454490662 0.5966690182685852
0.36857515573501587 0.2848018705844879 0.5538060665130615
0.35596951842308044 0.12344594299793243 0.5724219679832458
0.2633958160877228 0.14843185245990753 0.47075989842414856
0.302767813205719 0.18490077555179596 0.6013674736022949
0.4559553861618042 0.20394736528396606 0.49546170234680176
0.2805897891521454 0.16112078726291656 0.6133268475532532
0.38013747334480286 0.2592419683933258 0.6150215268135071
0.30271580815315247 0.1787712275981903 0.42820629477500916
0.4726412892341614 0.1944102793931961 0.5940150022506714
0.30404210090637207 0.23351699113845825 0.49371567368507385
0.4058469235897064 0.14116448163986206 0.48377668857574463
0.37275931239128113 0.13713733851909637 0.4861164689064026
0.3845873177051544 0.17181798815727234 0.60968416929245
0.33098098635673523 0.2637177109718323 0.5901474356651306
0.3818773329257965 0.11568950861692429 0.44874370098114014
0.4715120196342468 0.26326796412467957 0.5699849128723145
0.4146667420864105 0.12250698357820511 0.5795983672142029
0.36607396602630615 0.26754656434059143 0.5342790484428406
0.4819917678833008 0.2563999891281128 0.48416638374328613
0.4425759017467499 0.18298032879829407 0.549553632736206
0.33182239532470703 0.2110731303691864 0.5729880332946777
0.3461601734161377 0.1380986124277115 0.5737655162811279
0.32951682806015015 0.1673905849456787 0.43934592604637146
0.37373432517051697 0.3045555055141449 0.5973640084266663
0.3338213860988617 0.2430005669593811 0.5583491325378418
0.3298790752887726 0.2997666299343109 0.4582291543483734
0.3769741952419281 0.12394852936267853 0.454250693321228
0.46896108984947205 0.2223837673664093 0.500228226184845
0.339287132024765 0.17260237038135529 0.5433477759361267
0.366764098405838 0.28606390953063965 0.44483131170272827
0.29305189847946167 0.16209399700164795 0.5731630921363831
0.36857515573501587 0.2848018705844879 0.5538060665130615
0.35628199577331543 0.25016161799430847 0.4475775361061096
0.3500739336013794 0.16341106593608856 0.5857647061347961
0.36409538984298706 0.2718779444694519 0.5930295586585999
0.45842841267585754 0.2178325355052948 0.578556478023529
0.3203597664833069 0.19482991099357605 0.5905967354774475
0.3153393268585205 0.32553455233573914 0.47951969504356384
0.4402855932712555 0.19285377860069275 0.5308465361595154
0.2890726625919342 0.1971195638179779 0.6024916172027588
0.47628355026245117 0.23844210803508759 0.5683591365814209
0.31983867287635803 0.20835505425930023 0.4667983949184418
0.4040350317955017 0.18671591579914093 0.47025299072265625
0.34922096133232117 0.18048183619976044 0.46666768193244934
0.3144151270389557 0.23712483048439026 0.5097313523292542
0.25222378969192505 0.1614772528409958 0.451677531003952
0.40892544388771057 0.279414564371109 0.5059850811958313
0.3454347550868988 0.3024670481681824 0.6090949773788452
0.434433251619339 0.2700447142124176 0.49362191557884216
0.2780940532684326 0.15310251712799072 0.5909150838851929
0.3394697308540344 0.15338507294654846 0.6115691661834717
0.30738314986228943 0.3078380227088928 0.4546990394592285
0.42254528403282166 0.19847317039966583 0.5959951877593994
0.3082018196582794 0.19801194965839386 0.48751628398895264
0.35446128249168396 0.2578805983066559 0.5372981429100037
0.44270455837249756 0.2218262255191803 0.5130159854888916
0.32466986775398254 0.3075823485851288 0.5451169013977051
0.2740315794944763 0.1647166609764099 0.607181191444397
0.4426485598087311 0.2643287479877472 0.5810911059379578
0.3630444407463074 0.23987218737602234 0.48180273175239563
0.2913387417793274 0.16605167090892792 0.4813045263290405
0.3765367865562439 0.17863677442073822 0.5500635504722595
0.2610897123813629 0.18369679152965546 0.5856587290763855
0.38874343037605286 0.1827721744775772 0.6109781265258789
0.40283554792404175 0.24587923288345337 0.43484750390052795
0.2514779269695282 0.16004273295402527 0.45926475524902344
0.41334816813468933 0.1596614569425583 0.4317827522754669
0.42504626512527466 0.10856305062770844 0.5393521785736084
0.41968098282814026 0.13128620386123657 0.5464224219322205
0.30404210090637207 0.23351699113845825 0.49371567368507385
0.4058469235897064 0.14116448163986206 0.48377668857574463
0.37275931239128113 0.13713733851909637 0.4861164689064026
0.3845873177051544 0.17181798815727234 0.60968416929245
0.33098098635673523 0.2637177109718323 0.5901474356651306
0.3818773329257965 0.11568950861692429 0.44874370098114014
0.2846822142601013 0.23618599772453308 0.4232046604156494
0.37147998809814453 0.20378251373767853 0.546431303024292
0.2755713164806366 0.16358540952205658 0.44049572944641113
0.2962363362312317 0.2547394335269928 0.6138398051261902
0.31279870867729187 0.12113707512617111 0.47385668754577637
0.4040778577327728 0.11799433827400208 0.5473200082778931
0.32289546728134155 0.22841541469097137 0.43701615929603577
0.4257051944732666 0.1107381135225296 0.5756915807723999
0.40435880422592163 0.2596874237060547 0.5884443521499634
0.390945166349411 0.2592757046222687 0.44065067172050476
0.3828325569629669 0.1286996454000473 0.4591524600982666
0.26224491000175476 0.16532593965530396 0.4748874008655548
0.4270414412021637 0.12450098991394043 0.44070035219192505
0.34316015243530273 0.18907701969146729 0.4473118484020233
0.44680294394493103 0.2168622612953186 0.562189519405365
0.3878818154335022 0.13261133432388306 0.5178222060203552
0.3280581831932068 0.18293093144893646 0.45989757776260376
0.35537412762641907 0.19495463371276855 0.512404203414917
0.36922895908355713 0.26366209983825684 0.6131935715675354
0.3265360891819 0.2214169204235077 0.5585511326789856
0.3044838309288025 0.20889820158481598 0.5437499284744263
0.2633958160877228 0.14843185245990753 0.47075989842414856
0.302767813205719 0.18490077555179596 0.6013674736022949
0.4559553861618042 0.20394736528396606 0.49546170234680176
0.2805897891521454 0.16112078726291656 0.6133268475532532
0.38013747334480286 0.2592419683933258 0.6150215268135071
0.30271580815315247 0.1787712275981903 0.42820629477500916
0.4726412892341614 0.1944102793931961 0.5940150022506714
0.30404210090637207 0.23351699113845825 0.49371567368507385
0.4058469235897064 0.14116448163986206 0.48377668857574463
0.37275931239128113 0.13713733851909637 0.4861164689064026
0.3572036027908325 0.30774861574172974 0.5377662777900696
0.4302496314048767 0.14811326563358307 0.502249002456665
0.4208992123603821 0.20162945985794067 0.5522997975349426
0.4045322835445404 0.18645210564136505 0.5487886667251587
0.4034145772457123 0.155146524310112 0.42652246356010437
0.28822165727615356 0.21346092224121094 0.5543310642242432
0.3212651312351227 0.21246817708015442 0.5769122242927551
0.44738611578941345 0.25751903653144836 0.56751549243927
0.33408454060554504 0.2014760971069336 0.6022586226463318
0.4760708808898926 0.2271316647529602 0.5142937898635864
0.3879401683807373 0.17406530678272247 0.5580689907073975
0.28827711939811707 0.2734326124191284 0.46649986505508423
0.4568251669406891 0.25808653235435486 0.5885977149009705
0.46896108984947205 0.2223837673664093 0.500228226184845
0.339287132024765 0.17260237038135529 0.5433477759361267
0.366764098405838 0.28606390953063965 0.44483131170272827
0.29305189847946167 0.16209399700164795 0.5731630921363831
0.46023616194725037 0.22273674607276917 0.4333324432373047
0.3910086750984192 0.1646723747253418 0.501633882522583
0.3877418339252472 0.19827444851398468 0.5548339486122131
0.3404485583305359 0.30867311358451843 0.6025370955467224
0.3811516761779785 0.2893587648868561 0.47977834939956665
0.3869251012802124 0.2289421409368515 0.5413782596588135
0.43315589427948 0.14253470301628113 0.6121097207069397
0.4141165316104889 0.11851240694522858 0.4173646867275238
0.41598963737487793 0.22448472678661346 0.46229100227355957
0.28271251916885376 0.13817578554153442 0.4498434066772461
0.34295812249183655 0.2857014834880829 0.4305192530155182
0.3053049147129059 0.20160159468650818 0.5664392113685608
0.3017839789390564 0.19365821778774261 0.6005968451499939
0.4274574816226959 0.2603234648704529 0.46377021074295044
0.36906319856643677 0.16113226115703583 0.5930541157722473
0.44143497943878174 0.18834055960178375 0.5171588659286499
0.35585546493530273 0.1671033352613449 0.568342924118042
0.3786506950855255 0.26186123490333557 0.5592326521873474
0.3018999993801117 0.22405913472175598 0.5469412207603455
0.29046040773391724 0.15335853397846222 0.45120158791542053
0.27308204770088196 0.1447751373052597 0.48991522192955017
0.4240805208683014 0.20768700540065765 0.53657066822052
0.4464420974254608 0.2528235614299774 0.5968779921531677
0.31037163734436035 0.1846337467432022 0.43255388736724854
0.31754228472709656 0.207434743642807 0.5218127965927124
0.37145012617111206 0.2660135328769684 0.5010510087013245
0.4441312253475189 0.19643597304821014 0.6172982454299927
0.3562268912792206 0.21315252780914307 0.5962510108947754
0.47659212350845337 0.23202945291996002 0.4584113657474518
0.3309016227722168 0.12266110628843307 0.5143927335739136
0.3823198080062866 0.11080904304981232 0.42083626985549927
0.306323379278183 0.22906720638275146 0.5740827322006226
0.3589298725128174 0.2584463655948639 0.4547398090362549
0.40663984417915344 0.24510081112384796 0.5202476978302002
0.3269619047641754 0.15883013606071472 0.4544049799442291
0.4137204885482788 0.19024880230426788 0.5310668349266052
0.32589825987815857 0.15231570601463318 0.44969892501831055
0.30578377842903137 0.2929048240184784 0.5960123538970947
0.4231664538383484 0.1160137727856636 0.5861644148826599
0.4081433117389679 0.17572186887264252 0.5974321961402893
0.45995956659317017 0.1868588626384735 0.5504929423332214
0.39330193400382996 0.22111834585666656 0.47488707304000854
0.4308769702911377 0.21285612881183624 0.5591296553611755
0.3338148295879364 0.24895186722278595 0.5060416460037231
0.39585623145103455 0.17757752537727356 0.47241246700286865
0.30853718519210815 0.16819943487644196 0.423517107963562
0.393614262342453 0.20629121363162994 0.6131712794303894
0.3509678840637207 0.18351663649082184 0.5100088119506836
0.3716159462928772 0.25582024455070496 0.5524284243583679
0.3609902560710907 0.16956683993339539 0.6012409925460815
0.34349748492240906 0.1825270801782608 0.4911417067050934
0.309010773897171 0.3098912537097931 0.431226521730423
0.4808485507965088 0.2239362597465515 0.6131696701049805
0.4088355302810669 0.17138342559337616 0.4570099413394928
0.4239363372325897 0.12480756640434265 0.5399525165557861
0.44562360644340515 0.13627831637859344 0.5305730700492859
0.3183056116104126 0.11983956396579742 0.513299822807312
0.46347206830978394 0.18317869305610657 0.5998283624649048
0.28316670656204224 0.2298540472984314 0.5505651235580444
0.4368162155151367 0.2700042128562927 0.49845948815345764
0.29603251814842224 0.26731404662132263 0.4670366644859314
0.34995925426483154 0.13668063282966614 0.43033114075660706
0.4377839267253876 0.1652853786945343 0.4903472661972046
0.35503172874450684 0.29444563388824463 0.47720885276794434
0.3649963438510895 0.28974005579948425 0.5038533806800842
0.3383902311325073 0.288210928440094 0.4556504786014557
0.3917382061481476 0.17404723167419434 0.4868972897529602
0.4256628751754761 0.236410990357399 0.5898129940032959
0.42673417925834656 0.1551259458065033 0.5883994102478027
0.41708919405937195 0.1729002445936203 0.6019055247306824
0.3867424726486206 0.2807772755622864 0.5696070194244385
0.49415451288223267 0.2511684000492096 0.6074027419090271
0.37865015864372253 0.2784765660762787 0.4476267397403717
0.3160230219364166 0.24131792783737183 0.582039475440979
0.3525530993938446 0.23645459115505219 0.5686061382293701
0.3198888599872589 0.18996363878250122 0.44735366106033325
0.30959194898605347 0.18487319350242615 0.4366263449192047
0.4645218253135681 0.1955176740884781 0.5569214224815369
0.3592972159385681 0.11583457142114639 0.43695130944252014
0.364422082901001 0.2928581237792969 0.4870019257068634
0.2833627462387085 0.1376742124557495 0.43150264024734497
0.2627640962600708 0.1990649253129959 0.4326820373535156
0.34867405891418457 0.14425499737262726 0.5709781646728516
0.4590160846710205 0.22063827514648438 0.5419402718544006
0.36373046040534973 0.14198654890060425 0.5296323895454407
0.286471962928772 0.26341015100479126 0.5145756006240845
0.30574262142181396 0.13255278766155243 0.43533948063850403
0.3025643527507782 0.3014299273490906 0.48397010564804077
0.4099353551864624 0.19009093940258026 0.4236887991428375
0.4076184034347534 0.1444539874792099 0.543644368648529
0.420658677816391 0.10944759845733643 0.5281137824058533
0.4197360873222351 0.26895615458488464 0.4216330945491791
0.3380815386772156 0.2004956305027008 0.6153215169906616
0.394518107175827 0.17085415124893188 0.48438769578933716
0.4303823709487915 0.25316810607910156 0.5866996645927429
0.38384345173835754 0.19475893676280975 0.5446986556053162
0.47139424085617065 0.26002177596092224 0.49079975485801697
0.26350685954093933 0.17185460031032562 0.5155523419380188
0.29405081272125244 0.18482133746147156 0.6169824600219727
0.38089242577552795 0.23640213906764984 0.5654738545417786
0.3546043932437897 0.1671343594789505 0.47724172472953796
0.2650100886821747 0.20845097303390503 0.5917631387710571
0.46140268445014954 0.2090580314397812 0.4769543707370758
0.45245203375816345 0.16010724008083344 0.6044787168502808
0.3695240914821625 0.25460654497146606 0.49461475014686584
0.3819098472595215 0.26334890723228455 0.48716607689857483
0.45239633321762085 0.14039453864097595 0.6057984828948975
0.47532394528388977 0.2494318187236786 0.4367058277130127
0.2556936740875244 0.1796598583459854 0.6133963465690613
0.41834577918052673 0.20203353464603424 0.5045530200004578
0.4321304261684418 0.11184994876384735 0.5100299119949341
0.3810284733772278 0.1581883579492569 0.4405592083930969
0.3470391035079956 0.14078566431999207 0.611514687538147
0.36677318811416626 0.304021418094635 0.4672287702560425
0.4594903886318207 0.17593792080879211 0.5787584781646729
0.34289154410362244 0.31933775544166565 0.5007350444793701
0.40646639466285706 0.2099592536687851 0.42260587215423584
0.31693896651268005 0.1309957057237625 0.4539097547531128
0.3918914198875427 0.16832536458969116 0.5502777099609375
0.4230000078678131 0.2714870870113373 0.48427310585975647
0.3666103184223175 0.22181659936904907 0.49508005380630493
0.31855976581573486 0.2162054181098938 0.4501285254955292
0.3892194926738739 0.25369760394096375 0.5509893894195557
0.4960203766822815 0.2543341815471649 0.42491042613983154
0.4105381667613983 0.13854658603668213 0.48915550112724304
0.3872068226337433 0.21439942717552185 0.42101895809173584
0.3121581971645355 0.2727324366569519 0.5534915924072266
0.43748554587364197 0.10831883549690247 0.5874155163764954
0.28817257285118103 0.263403981924057 0.48999905586242676
0.2717522084712982 0.14535042643547058 0.4824126362800598
0.4223121106624603 0.21275322139263153 0.47937658429145813
0.35167309641838074 0.2513557970523834 0.46593475341796875
0.40377116203308105 0.24041293561458588 0.5801771283149719
0.40218618512153625 0.15975603461265564 0.427776575088501
0.37623679637908936 0.19235487282276154 0.49698010087013245
0.3740229606628418 0.20047016441822052 0.5081495642662048
0.2822299301624298 0.184909388422966 0.60897296667099
0.310141921043396 0.1567912995815277 0.5964618921279907
0.35081979632377625 0.2999570071697235 0.4635992646217346
0.43336808681488037 0.13036082684993744 0.5227384567260742
0.342395544052124 0.29773691296577454 0.42523378133773804
0.3580174744129181 0.19932664930820465 0.4261435866355896
0.4651859402656555 0.18233199417591095 0.4721531271934509
0.33436861634254456 0.19597527384757996 0.6093609929084778
0.3876841962337494 0.265392005443573 0.43169498443603516
0.3886145353317261 0.1835615187883377 0.5866939425468445
0.3150749206542969 0.21116942167282104 0.5980309844017029
0.31913551688194275 0.20410005748271942 0.5328713059425354
0.3030303120613098 0.2506088316440582 0.5497497320175171
0.35768353939056396 0.1395183652639389 0.43073639273643494
0.3318723440170288 0.20745065808296204 0.5540435314178467
0.409830778837204 0.14129826426506042 0.4169152081012726
0.38496074080467224 0.26964977383613586 0.5622884035110474
0.4043891131877899 0.14591144025325775 0.46058571338653564
0.32409873604774475 0.2560391426086426 0.5814284682273865
0.35005226731300354 0.19651362299919128 0.47769808769226074
0.270780086517334 0.1917218714952469 0.514970600605011
0.4092696011066437 0.12941454350948334 0.48005637526512146
0.2730545401573181 0.1968243420124054 0.4452921748161316
0.33120959997177124 0.3035702109336853 0.5228365659713745
0.3742302358150482 0.2864032983779907 0.5184367299079895
0.2958453297615051 0.2674395740032196 0.6062551140785217
0.2500859498977661 0.1556190699338913 0.4274756908416748
0.3660306930541992 0.2824314832687378 0.533568799495697
0.43727847933769226 0.15025246143341064 0.542631208896637
0.32412970066070557 0.1284996122121811 0.4768889248371124
0.3841570019721985 0.28917011618614197 0.42247074842453003
0.3848908543586731 0.1466180831193924 0.4329893887042999
0.3136770725250244 0.30431532859802246 0.5030684471130371
0.4308817982673645 0.13690009713172913 0.531453549861908
0.2929020822048187 0.17169922590255737 0.5880381464958191
0.38222184777259827 0.16798149049282074 0.5552459955215454
0.4060335159301758 0.13559013605117798 0.5819520354270935
0.372930645942688 0.2475575953722 0.4503490626811981
0.3415542542934418 0.2809419631958008 0.5542652606964111
0.32629692554473877 0.2765253782272339 0.4797336757183075
0.25955498218536377 0.17863847315311432 0.6107556223869324
0.4445798397064209 0.2731706500053406 0.4326583445072174
0.32077986001968384 0.1342611312866211 0.5293565988540649
0.3682372570037842 0.14770273864269257 0.6055182218551636
0.35294458270072937 0.1987975686788559 0.5065062642097473
0.2420119047164917 0.14603330194950104 0.5135496258735657
0.31370094418525696 0.25185954570770264 0.5514938831329346
0.32939475774765015 0.1870783120393753 0.5306313037872314
0.32196682691574097 0.16691209375858307 0.4258370101451874
0.2464057207107544 0.14238497614860535 0.4607844948768616
0.3002668619155884 0.21742334961891174 0.6159482002258301
0.42907246947288513 0.19103285670280457 0.5824476480484009
0.2933976948261261 0.20810934901237488 0.5117916464805603
0.4369407594203949 0.2005893886089325 0.5962750315666199
0.28516361117362976 0.26082706451416016 0.47308480739593506
0.3570984899997711 0.15086548030376434 0.5202232599258423
0.3637404441833496 0.1743449717760086 0.5953149199485779
0.41926640272140503 0.1583433598279953 0.47794562578201294
0.4055306911468506 0.1646648645401001 0.43251410126686096
0.4567314088344574 0.17597158253192902 0.457912415266037
0.35608306527137756 0.18713468313217163 0.43395859003067017
0.3465369641780853 0.17914791405200958 0.4458082914352417
0.46628665924072266 0.18115730583667755 0.5583932995796204
0.2475445568561554 0.14387397468090057 0.4535139799118042
0.25109633803367615 0.1588260978460312 0.43624481558799744
0.3215700387954712 0.15847058594226837 0.5330403447151184
0.4346429109573364 0.22032864391803741 0.4881524443626404
0.4059918224811554 0.22831906378269196 0.4432501494884491
0.27716943621635437 0.1433773636817932 0.42904993891716003
0.3610445559024811 0.3009316623210907 0.4786972999572754
0.38446593284606934 0.148393914103508 0.4263021945953369
0.26181426644325256 0.1467309445142746 0.5734581351280212
0.31586357951164246 0.3094242215156555 0.4470890164375305
0.44664299488067627 0.21484984457492828 0.46150919795036316
0.3566466271877289 0.16834603250026703 0.5285084843635559
0.333182156085968 0.18751056492328644 0.5655662417411804
0.3347141742706299 0.22025234997272491 0.5492522716522217
0.2652888298034668 0.19984914362430573 0.4655074179172516
0.3151322901248932 0.2416539043188095 0.5896931886672974
0.37573447823524475 0.19812485575675964 0.5166426301002502
0.448305606842041 0.20659814774990082 0.5407216548919678
0.38415804505348206 0.15599380433559418 0.4310057759284973
0.37279531359672546 0.20827160775661469 0.6017183661460876
0.3628157675266266 0.3020300567150116 0.5277320146560669
0.34769290685653687 0.2350630760192871 0.4286428391933441
0.4369407594203949 0.2005893886089325 0.5962750315666199
0.28516361117362976 0.26082706451416016 0.47308480739593506
0.3570984899997711 0.15086548030376434 0.5202232599258423
0.3637404441833496 0.1743449717760086 0.5953149199485779
0.41926640272140503 0.1583433598279953 0.47794562578201294
0.4055306911468506 0.1646648645401001 0.43251410126686096
0.4567314088344574 0.17597158253192902 0.457912415266037
0.3910086750984192 0.1646723747253418 0.501633882522583
0.4808485507965088 0.2239362597465515 0.6131696701049805
0.4088355302810669 0.17138342559337616 0.4570099413394928
0.4239363372325897 0.12480756640434265 0.5399525165557861
0.44562360644340515 0.13627831637859344 0.5305730700492859
0.3636004328727722 0.3024159073829651 0.49407413601875305
0.30089884996414185 0.24283887445926666 0.43025127053260803
0.46318310499191284 0.2363974153995514 0.45361584424972534
0.30209535360336304 0.2312689572572708 0.5152222514152527
0.2981579899787903 0.143167644739151 0.45029619336128235
0.43429791927337646 0.11546917259693146 0.60052889585495
0.3208276927471161 0.2776646018028259 0.4674060344696045
0.28713491559028625 0.23665793240070343 0.43014225363731384
0.33188289403915405 0.27313148975372314 0.42189496755599976
0.32244378328323364 0.22456571459770203 0.5715963244438171
0.26748624444007874 0.1887257695198059 0.5650143027305603
0.3002668619155884 0.21742334961891174 0.6159482002258301
0.42907246947288513 0.19103285670280457 0.5824476480484009
0.2933976948261261 0.20810934901237488 0.5117916464805603
0.4369407594203949 0.2005893886089325 0.5962750315666199
0.28516361117362976 0.26082706451416016 0.47308480739593506
0.3570984899997711 0.15086548030376434 0.5202232599258423
0.3637404441833496 0.1743449717760086 0.5953149199485779
0.41926640272140503 0.1583433598279953 0.47794562578201294
0.4055306911468506 0.1646648645401001 0.43251410126686096
0.4567314088344574 0.17597158253192902 0.457912415266037
0.43103715777397156 0.1834060698747635 0.5922455191612244
0.47390949726104736 0.20756390690803528 0.5751224160194397
0.405841201543808 0.2926566004753113 0.5235155820846558
0.3845630884170532 0.2660321295261383 0.4440608322620392
0.3930276036262512 0.13383705914020538 0.6037929654121399
0.37826448678970337 0.1139458566904068 0.42218369245529175
0.27224400639533997 0.16973985731601715 0.5839306712150574
0.3580174744129181 0.19932664930820465 0.4261435866355896
0.4651859402656555 0.18233199417591095 0.4721531271934509
0.33436861634254456 0.19597527384757996 0.6093609929084778
0.35951700806617737 0.15418922901153564 0.5227113962173462
0.40410470962524414 0.2938610017299652 0.5673847794532776
0.25527718663215637 0.1819411814212799 0.5574226379394531
0.4268989861011505 0.18693599104881287 0.5209074020385742
0.3584872782230377 0.3033725619316101 0.6132206320762634
0.3892921805381775 0.19217267632484436 0.6160318851470947
0.3731873333454132 0.1106828823685646 0.4982762932777405
0.35120993852615356 0.15967601537704468 0.5771647691726685
0.36475977301597595 0.3073650002479553 0.5633259415626526
0.38427993655204773 0.11083882302045822 0.42527127265930176
0.43778473138809204 0.14325736463069916 0.444991797208786
0.3064444661140442 0.18219512701034546 0.571367084980011
0.2584707736968994 0.17679452896118164 0.5299674272537231
0.2545328140258789 0.1892262101173401 0.4547923803329468
0.31304171681404114 0.32139742374420166 0.47647809982299805
0.32411256432533264 0.20194414258003235 0.49266496300697327
0.4130527079105377 0.16861121356487274 0.6181170344352722
0.28815293312072754 0.12751851975917816 0.5065268874168396
0.3349352478981018 0.17523545026779175 0.5229777097702026
0.38098931312561035 0.21935264766216278 0.5244982838630676
0.32752659916877747 0.18990424275398254 0.5374494791030884
0.34253379702568054 0.26670628786087036 0.42613229155540466
0.39571210741996765 0.2673981189727783 0.4712629020214081
0.3575425446033478 0.18944919109344482 0.4735140800476074
0.4251783490180969 0.10748609155416489 0.5570352673530579
0.29573488235473633 0.17469970881938934 0.6176745295524597
0.4553126394748688 0.18240311741828918 0.5782107710838318
0.2830129563808441 0.17941808700561523 0.5517247915267944
0.37623679637908936 0.19235487282276154 0.49698010087013245
0.29347458481788635 0.26972299814224243 0.6119057536125183
0.3918183445930481 0.11392175406217575 0.5679623484611511
0.3507058620452881 0.14998288452625275 0.5966768860816956
0.37543684244155884 0.26894158124923706 0.5166842937469482
0.3802618384361267 0.25444090366363525 0.4791325628757477
0.40317466855049133 0.21290898323059082 0.5066801905632019
0.3251585364341736 0.15561117231845856 0.4334496557712555
0.4284214377403259 0.16030946373939514 0.5819881558418274
0.3753812611103058 0.2860104441642761 0.508223295211792
0.38541552424430847 0.2945557236671448 0.44682905077934265
0.4275694489479065 0.14660902321338654 0.5199410319328308
0.42530837655067444 0.19713084399700165 0.5113954544067383
0.397271990776062 0.13110072910785675 0.6023146510124207
0.38747161626815796 0.24056607484817505 0.47517073154449463
0.2987770736217499 0.12715862691402435 0.6152216792106628
0.3002668619155884 0.21742334961891174 0.6159482002258301
0.42907246947288513 0.19103285670280457 0.5824476480484009
0.2933976948261261 0.20810934901237488 0.5117916464805603
0.4369407594203949 0.2005893886089325 0.5962750315666199
0.28516361117362976 0.26082706451416016 0.47308480739593506
0.3570984899997711 0.15086548030376434 0.5202232599258423
0.36972326040267944 0.24992585182189941 0.5067046880722046
0.45385169982910156 0.25631916522979736 0.48193228244781494
0.3091457188129425 0.2746506333351135 0.5016801953315735
0.43323224782943726 0.14344041049480438 0.45261362195014954
0.4138002395629883 0.19854535162448883 0.5030876398086548
0.4688362181186676 0.2664559781551361 0.5996173024177551
0.3653668761253357 0.26863372325897217 0.48314782977104187
0.29826322197914124 0.12388969957828522 0.4247018098831177
0.37821823358535767 0.1159878745675087 0.5796850323677063
0.3981407880783081 0.21038658916950226 0.5140978097915649
0.4242611229419708 0.13258756697177887 0.5911679267883301
0.43976879119873047 0.13400807976722717 0.6222914457321167
0.3074169158935547 0.29566490650177 0.5695990920066833
0.3876841962337494 0.265392005443573 0.43169498443603516
0.3886145353317261 0.1835615187883377 0.5866939425468445
0.3150749206542969 0.21116942167282104 0.5980309844017029
0.31913551688194275 0.20410005748271942 0.5328713059425354
0.3030303120613098 0.2506088316440582 0.5497497320175171
0.35768353939056396 0.1395183652639389 0.43073639273643494
0.3318723440170288 0.20745065808296204 0.5540435314178467
0.3249591886997223 0.13468784093856812 0.5171453356742859
0.4088801443576813 0.17450711131095886 0.4515072703361511
0.4155709147453308 0.15733326971530914 0.5740271210670471
0.2607826590538025 0.1561412811279297 0.460360586643219
0.29338017106056213 0.1906851828098297 0.5371358394622803
0.4277894198894501 0.14544802904129028 0.5380270481109619
0.3133181035518646 0.19784392416477203 0.6133290529251099
0.3646266758441925 0.12451610714197159 0.45550021529197693
0.4136274755001068 0.1123918816447258 0.5304117798805237
0.4065548777580261 0.20229987800121307 0.4550163745880127
0.4449416995048523 0.23846302926540375 0.48867061734199524
0.3304978013038635 0.13331227004528046 0.5692270398139954
0.4530161917209625 0.235585018992424 0.41456466913223267
0.32367315888404846 0.255038321018219 0.5861654877662659
0.4115641415119171 0.1105036661028862 0.5947840809822083
0.2640115022659302 0.18133188784122467 0.5567980408668518
0.46929672360420227 0.2225884050130844 0.45607975125312805
0.32119864225387573 0.24021311104297638 0.5975062847137451
0.3604622483253479 0.260944128036499 0.5861541032791138
0.3881542384624481 0.18604524433612823 0.5527555346488953
0.43482422828674316 0.25274965167045593 0.5784468650817871
0.3688258230686188 0.2762027680873871 0.6158981323242188
0.309010773897171 0.3098912537097931 0.431226521730423
0.44960927963256836 0.2102484554052353 0.42256367206573486
0.4063555598258972 0.16999317705631256 0.5163431763648987
0.46769213676452637 0.21935661137104034 0.4593181312084198
0.40932831168174744 0.23083460330963135 0.43050578236579895
0.40781891345977783 0.21686828136444092 0.4817858040332794
0.43007588386535645 0.169049471616745 0.46728280186653137
0.46660321950912476 0.2410673052072525 0.5920616984367371
0.4316813349723816 0.11316844820976257 0.4537166357040405
0.357170969247818 0.14804401993751526 0.5463348031044006
0.45440253615379333 0.2699107527732849 0.4289059638977051
0.4440245032310486 0.22622089087963104 0.5968468189239502
0.4501553475856781 0.2403694987297058 0.4324861466884613
0.4368678033351898 0.23029664158821106 0.518733561038971
0.3542236089706421 0.17506437003612518 0.4416061341762543
0.36725541949272156 0.18763835728168488 0.571578323841095
0.4814642369747162 0.22398041188716888 0.5220273733139038
0.3718535006046295 0.17251001298427582 0.49097615480422974
0.3850189447402954 0.17965467274188995 0.5600699782371521
0.3826574385166168 0.12075747549533844 0.44045478105545044
0.4378173351287842 0.16261601448059082 0.5717995166778564
0.3173242211341858 0.25872763991355896 0.6078495383262634
0.435352087020874 0.20118728280067444 0.4630681574344635
0.3344660997390747 0.14921869337558746 0.5421711802482605
0.281174898147583 0.1782097965478897 0.47376319766044617
0.4152819514274597 0.17231956124305725 0.4503827393054962
0.40750885009765625 0.22738322615623474 0.6101810932159424
0.40124374628067017 0.22456364333629608 0.614963173866272
0.39330047369003296 0.12566687166690826 0.6124780774116516
0.3341558873653412 0.13003699481487274 0.5185228586196899
0.48648056387901306 0.250984251499176 0.5695067048072815
0.3821214735507965 0.21519213914871216 0.5540382862091064
0.31693896651268005 0.1309957057237625 0.4539097547531128
0.33514097332954407 0.23948732018470764 0.6198619604110718
0.33940666913986206 0.28414425253868103 0.5999146699905396
0.32331517338752747 0.1888578236103058 0.5176722407341003
0.33182230591773987 0.2889197766780853 0.4585500657558441
0.28031080961227417 0.22635868191719055 0.5802026987075806
0.36055973172187805 0.1341017335653305 0.583836019039154
0.46301835775375366 0.23503835499286652 0.5807327032089233
0.43077725172042847 0.11072918027639389 0.5545014142990112
0.3636619448661804 0.2182733565568924 0.5160380601882935
0.3445150554180145 0.13400723040103912 0.5460860133171082
0.33221855759620667 0.13497000932693481 0.6113663911819458
0.31174883246421814 0.3098383843898773 0.6126880049705505
0.33579862117767334 0.19101455807685852 0.4749537408351898
0.3863789141178131 0.193899467587471 0.5763348340988159
0.30362075567245483 0.1899109035730362 0.46379324793815613
0.42021194100379944 0.11028086394071579 0.4585944414138794
0.42308127880096436 0.2741500437259674 0.4303675889968872
0.3728669583797455 0.16953083872795105 0.5341445803642273
0.44942986965179443 0.1812099814414978 0.580638587474823
0.3468523919582367 0.31241941452026367 0.5044768452644348
0.3638392686843872 0.18417267501354218 0.48111751675605774
0.4173979163169861 0.1955953985452652 0.6041455864906311
0.3759254217147827 0.18237222731113434 0.4481845200061798
0.4358198642730713 0.11094953119754791 0.48009711503982544
0.3282349705696106 0.17129863798618317 0.47317826747894287
0.43424421548843384 0.20814068615436554 0.5777660012245178
0.337026447057724 0.2117614448070526 0.44778987765312195
0.4095664322376251 0.230619877576828 0.44627442955970764
0.4080160856246948 0.19984063506126404 0.4240792989730835
0.3276476562023163 0.11934136599302292 0.5260069370269775
0.3374246656894684 0.25877055525779724 0.48673322796821594
0.37622392177581787 0.19364047050476074 0.48491036891937256
0.29405081272125244 0.18482133746147156 0.6169824600219727
0.3483363687992096 0.29953867197036743 0.4607342481613159
0.355033814907074 0.149207204580307 0.5520090460777283
0.3603978753089905 0.1696193665266037 0.4641146659851074
0.42903777956962585 0.10699594020843506 0.5579206943511963
0.3777073323726654 0.24397696554660797 0.5001036524772644
0.35970181226730347 0.12883077561855316 0.5507491827011108
0.3930710554122925 0.2645755112171173 0.5832205414772034
0.3621833920478821 0.22849510610103607 0.6127133369445801
0.485975444316864 0.24221636354923248 0.5031096935272217
0.46092432737350464 0.23446688055992126 0.6023442149162292
0.42442354559898376 0.1885463446378708 0.4929569363594055
0.2666237950325012 0.13847221434116364 0.5810539126396179
0.41192182898521423 0.25643622875213623 0.5990015864372253
0.4548865854740143 0.2288626730442047 0.4142078161239624
0.36666572093963623 0.2249554991722107 0.5345414280891418
0.280902624130249 0.14212986826896667 0.5610955357551575
0.41875985264778137 0.11725587397813797 0.5938346982002258
0.41690370440483093 0.12427988648414612 0.453169047832489
0.3921918272972107 0.13276110589504242 0.478418231010437
0.38746440410614014 0.2155851274728775 0.5272316932678223
0.2545112371444702 0.18763382732868195 0.44791531562805176
0.3532387316226959 0.1802114099264145 0.4912627339363098
0.33512911200523376 0.2207658737897873 0.4935433566570282
0.4109422266483307 0.17555546760559082 0.5427649617195129
0.3981153666973114 0.243183895945549 0.4826861023902893
0.4390903413295746 0.18374381959438324 0.44751375913619995
0.2628975212574005 0.16207532584667206 0.5385375022888184
0.3774302005767822 0.28358137607574463 0.45146116614341736
0.42535242438316345 0.21379414200782776 0.5648029446601868
0.4160291850566864 0.11023745685815811 0.4173925220966339
0.3411988615989685 0.31551527976989746 0.5368688702583313
0.3061436116695404 0.15625745058059692 0.44182243943214417
0.3304404020309448 0.1965799629688263 0.6054408550262451
0.35279685258865356 0.15474990010261536 0.48545193672180176
0.3365800976753235 0.11770325899124146 0.46165770292282104
0.49796226620674133 0.2496822029352188 0.5602338314056396
0.25335466861724854 0.1607079803943634 0.4829087257385254
0.33104580640792847 0.24679884314537048 0.45071467757225037
0.4302898049354553 0.23592978715896606 0.5546305775642395
0.4302099645137787 0.21608367562294006 0.5992909073829651
0.37052062153816223 0.2873874604701996 0.5389278531074524
0.3870061933994293 0.10995426774024963 0.5714423656463623
0.2668396830558777 0.15169641375541687 0.5021984577178955
0.3294576406478882 0.28301334381103516 0.45262765884399414
0.4298664331436157 0.2530234456062317 0.4172399044036865
0.42248809337615967 0.1586407572031021 0.5102946758270264
0.2890336215496063 0.250744104385376 0.42875948548316956
0.3789188265800476 0.19618360698223114 0.5556619763374329
0.34771761298179626 0.24526432156562805 0.571412205696106
0.3035346567630768 0.28268158435821533 0.5776764750480652
0.48566174507141113 0.21663358807563782 0.5600882172584534
0.40587493777275085 0.16964522004127502 0.6116058826446533
0.38285452127456665 0.2414560317993164 0.4599919319152832
0.42580366134643555 0.16639557480812073 0.4480259120464325
0.2916615903377533 0.16824574768543243 0.42594996094703674
0.4177912473678589 0.18377143144607544 0.6121875643730164
0.2686673104763031 0.21421030163764954 0.47770798206329346
0.33317381143569946 0.2771323025226593 0.47834423184394836
0.2912615239620209 0.12847258150577545 0.5063776969909668
0.4243471324443817 0.21728020906448364 0.5337203741073608
0.4801604449748993 0.2345886528491974 0.4952395558357239
0.288016140460968 0.20717576146125793 0.4429345428943634
0.4277894198894501 0.14544802904129028 0.5380270481109619
0.44884172081947327 0.178595632314682 0.4190385341644287
0.33830496668815613 0.17306923866271973 0.5602903366088867
0.4833800792694092 0.2393174171447754 0.4757935404777527
0.4115641415119171 0.1105036661028862 0.5947840809822083
0.2640115022659302 0.18133188784122467 0.5567980408668518
0.46929672360420227 0.2225884050130844 0.45607975125312805
0.32119864225387573 0.24021311104297638 0.5975062847137451
0.3604622483253479 0.260944128036499 0.5861541032791138
0.3881542384624481 0.18604524433612823 0.5527555346488953
0.43482422828674316 0.25274965167045593 0.5784468650817871
0.3688258230686188 0.2762027680873871 0.6158981323242188
0.3737642467021942 0.2063770592212677 0.5365936160087585
0.450715035200119 0.26295700669288635 0.4735254943370819
0.4194160997867584 0.23605330288410187 0.5748627781867981
0.3244401812553406 0.3259187638759613 0.5345454812049866
0.3869687020778656 0.12809313833713531 0.45852407813072205
0.29755210876464844 0.14122837781906128 0.4865710437297821
0.340572714805603 0.3148447871208191 0.42880526185035706
0.46161556243896484 0.24751541018486023 0.5576019883155823
0.30270835757255554 0.22430945932865143 0.5919647812843323
0.3409310579299927 0.2501855492591858 0.47552475333213806
0.3634594678878784 0.2823116183280945 0.5585426092147827
0.4045744240283966 0.1613137423992157 0.6112182140350342
0.33259454369544983 0.1677914708852768 0.5043649673461914
0.28149130940437317 0.1494559347629547 0.5312706828117371
0.38689881563186646 0.1902623027563095 0.4995422065258026
0.324497252702713 0.21106275916099548 0.6133653521537781
0.4771578907966614 0.21119919419288635 0.4823894202709198
0.36447271704673767 0.18577206134796143 0.45460790395736694
0.3353966772556305 0.19803094863891602 0.5487727522850037
0.363766074180603 0.24869316816329956 0.5302857756614685
0.4434153139591217 0.24849587678909302 0.4464695155620575
0.29826322197914124 0.12388969957828522 0.4247018098831177
0.37821823358535767 0.1159878745675087 0.5796850323677063
0.4278313219547272 0.2221660017967224 0.4853611886501312
0.35131755471229553 0.12510636448860168 0.6020113825798035
0.42161139845848083 0.13442076742649078 0.5598653554916382
0.324451744556427 0.27044039964675903 0.5058102011680603
0.32339268922805786 0.22096675634384155 0.6163104772567749
0.4327503442764282 0.281556099653244 0.5585687160491943
0.44958311319351196 0.25784075260162354 0.43174681067466736
0.45987895131111145 0.2370440810918808 0.4880776107311249
0.42583078145980835 0.19284319877624512 0.48119068145751953
0.3297605514526367 0.16550832986831665 0.6116224527359009
0.3088892102241516 0.17176684737205505 0.5485733151435852
0.2644265592098236 0.1628093123435974 0.5395429730415344
0.2731759548187256 0.1347486525774002 0.490168958902359
0.4818347990512848 0.2513267695903778 0.48961514234542847
0.3968040347099304 0.21361352503299713 0.46370530128479004
0.3401908874511719 0.1192890927195549 0.6196488738059998
0.3035346567630768 0.28268158435821533 0.5776764750480652
0.48566174507141113 0.21663358807563782 0.5600882172584534
0.40587493777275085 0.16964522004127502 0.6116058826446533
0.38285452127456665 0.2414560317993164 0.4599919319152832
0.42580366134643555 0.16639557480812073 0.4480259120464325
0.2916615903377533 0.16824574768543243 0.42594996094703674
0.4177912473678589 0.18377143144607544 0.6121875643730164
0.2686673104763031 0.21421030163764954 0.47770798206329346
0.33317381143569946 0.2771323025226593 0.47834423184394836
0.2912615239620209 0.12847258150577545 0.5063776969909668
0.4243471324443817 0.21728020906448364 0.5337203741073608
0.4801604449748993 0.2345886528491974 0.4952395558357239
0.288016140460968 0.20717576146125793 0.4429345428943634
0.4519140422344208 0.22381120920181274 0.46559467911720276
0.4259675443172455 0.1369771957397461 0.5864824652671814
0.3110913038253784 0.3042618930339813 0.6178959608078003
0.267401784658432 0.16795291006565094 0.5974567532539368
0.3805341422557831 0.26777565479278564 0.5090441107749939
0.46550723910331726 0.2146296501159668 0.4705066382884979
0.31683632731437683 0.13332003355026245 0.4903481900691986
0.3369486331939697 0.307036429643631 0.45267385244369507
0.3513147234916687 0.1880272775888443 0.5608158707618713
0.38458868861198425 0.2654160261154175 0.6013177037239075
0.3288104832172394 0.1777103692293167 0.4864543080329895
0.39289048314094543 0.25288650393486023 0.6041043996810913
0.30932506918907166 0.18276117742061615 0.5302996635437012
0.4452640414237976 0.18630363047122955 0.5301194190979004
0.3412033021450043 0.29881101846694946 0.46769291162490845
0.3035346567630768 0.28268158435821533 0.5776764750480652
0.48566174507141113 0.21663358807563782 0.5600882172584534
0.40587493777275085 0.16964522004127502 0.6116058826446533
0.38285452127456665 0.2414560317993164 0.4599919319152832
0.42580366134643555 0.16639557480812073 0.4480259120464325
