ply
format ascii 1.0
element vertex 831
property float x
property float y
property float z
end_header
0.7059769630432129 0.24154596030712128 0.49586454033851624
0.8126176595687866 0.2762690782546997 0.4664422273635864
0.8164991736412048 0.22068436443805695 0.5451282262802124
0.7696778178215027 0.30964580178260803 0.5663956999778748
0.8373557329177856 0.30659595131874084 0.4619198441505432
0.6488013863563538 0.2520739734172821 0.4474219083786011
0.6875028014183044 0.12355561554431915 0.5393797159194946
0.7905011773109436 0.2710736393928528 0.421044260263443
0.8071002960205078 0.232019305229187 0.5356985330581665
0.6689451336860657 0.22979989647865295 0.4311225414276123
0.7629373669624329 0.15340889990329742 0.44126376509666443
0.6689451336860657 0.22979989647865295 0.4311225414276123
0.8217481374740601 0.28588420152664185 0.3958345949649811
0.7682161331176758 0.15039467811584473 0.384529173374176
0.6611975431442261 0.2808161675930023 0.5524370670318604
0.7864287495613098 0.2862832546234131 0.3909178078174591
0.6757426857948303 0.29292887449264526 0.4398828148841858
0.7186911702156067 0.28666841983795166 0.4031727612018585
0.6810224652290344 0.28357088565826416 0.4827909469604492
0.6593997478485107 0.22250840067863464 0.44050735235214233
0.7110630869865417 0.1906866729259491 0.4554993212223053
0.7223256230354309 0.18745478987693787 0.39077064394950867
0.6792551279067993 0.2608453035354614 0.5890262722969055
0.7707830667495728 0.13077695667743683 0.49147072434425354
0.8581762313842773 0.2463940978050232 0.5469483733177185
0.691617488861084 0.17143088579177856 0.502292275428772
0.7233116626739502 0.19371774792671204 0.5625462532043457
0.6655598878860474 0.2961581349372864 0.4144705533981323
0.7162160873413086 0.2661345303058624 0.44281241297721863
0.6655598878860474 0.2961581349372864 0.4144705533981323
0.7836822271347046 0.24547915160655975 0.4975182116031647
0.79489666223526 0.3223485052585602 0.3888397514820099
0.8294865489006042 0.23104307055473328 0.39065122604370117
0.6725771427154541 0.12423913925886154 0.4745634198188782
0.695722758769989 0.17565083503723145 0.509010374546051
0.7706340551376343 0.2562224268913269 0.4591103792190552
0.7052277326583862 0.3026869595050812 0.5531244874000549
0.8038000464439392 0.21923130750656128 0.5253441333770752
0.7872916460037231 0.18971779942512512 0.5195426344871521
0.7167404294013977 0.21345965564250946 0.40660494565963745
0.6858686208724976 0.24638883769512177 0.41719648241996765
0.7371498942375183 0.17438846826553345 0.5727577209472656
0.6721376180648804 0.24311108887195587 0.555060088634491
0.6811405420303345 0.22215662896633148 0.48932188749313354
0.7140868306159973 0.2880460321903229 0.4041626751422882
0.6950047612190247 0.16691464185714722 0.5480346083641052
0.7567132711410522 0.29213133454322815 0.5722277760505676
0.6985877156257629 0.16900207102298737 0.4892999231815338
0.6582580804824829 0.2505080997943878 0.5737856030464172
0.8260684609413147 0.22647219896316528 0.40282246470451355
0.7979225516319275 0.3327370285987854 0.41798144578933716
0.7707830667495728 0.13077695667743683 0.49147072434425354
0.8581762313842773 0.2463940978050232 0.5469483733177185
0.691617488861084 0.17143088579177856 0.502292275428772
0.7233116626739502 0.19371774792671204 0.5625462532043457
0.6714105010032654 0.2975391149520874 0.4034835398197174
0.7203747630119324 0.22825409471988678 0.4936336278915405
0.6984549760818481 0.21004661917686462 0.5307511687278748
0.7737370133399963 0.15763066709041595 0.5074428915977478
0.65895676612854 0.22451919317245483 0.43875476717948914
0.6655598878860474 0.2961581349372864 0.4144705533981323
0.7836822271347046 0.24547915160655975 0.4975182116031647
0.79489666223526 0.3223485052585602 0.3888397514820099
0.8294865489006042 0.23104307055473328 0.39065122604370117
0.6725771427154541 0.12423913925886154 0.4745634198188782
0.695722758769989 0.17565083503723145 0.509010374546051
0.7706340551376343 0.2562224268913269 0.4591103792190552
0.7052277326583862 0.3026869595050812 0.5531244874000549
0.8038000464439392 0.21923130750656128 0.5253441333770752
0.7872916460037231 0.18971779942512512 0.5195426344871521
0.7167404294013977 0.21345965564250946 0.40660494565963745
0.7479993104934692 0.16557766497135162 0.48059701919555664
0.8430189490318298 0.3046887218952179 0.5703396797180176
0.8062491416931152 0.3150726556777954 0.55964195728302
0.8176257014274597 0.23675046861171722 0.4496396481990814
0.7108402848243713 0.2670164704322815 0.41965869069099426
0.7091497778892517 0.24044828116893768 0.4693709909915924
0.8045822978019714 0.18916569650173187 0.4297959506511688
0.8220803737640381 0.3040080964565277 0.5106889605522156
0.6637841463088989 0.14532670378684998 0.39061596989631653
0.6423746347427368 0.2646438777446747 0.43742281198501587
0.8186100125312805 0.27168503403663635 0.43590211868286133
0.6673820614814758 0.27153846621513367 0.4736253023147583
0.7898576855659485 0.32442018389701843 0.5728127360343933
0.7818282246589661 0.17950640618801117 0.4504689872264862
0.8021919131278992 0.31556960940361023 0.3890545964241028
0.6923734545707703 0.1931920200586319 0.5210373997688293
0.76339191198349 0.24813000857830048 0.43226316571235657
0.7501258850097656 0.1650899201631546 0.4781217575073242
0.7782369256019592 0.20181125402450562 0.5275418758392334
0.7716493010520935 0.21072529256343842 0.3742017149925232
0.6782491207122803 0.27113035321235657 0.4328480362892151
0.7620627284049988 0.16443166136741638 0.5249250531196594
0.7158784866333008 0.13497556746006012 0.5431146621704102
0.7041789889335632 0.2594224512577057 0.5174500942230225
0.6511483788490295 0.2892935276031494 0.5074859857559204
0.7203369736671448 0.3099181056022644 0.40577176213264465
0.6593997478485107 0.22250840067863464 0.44050735235214233
0.7110630869865417 0.1906866729259491 0.4554993212223053
0.7223256230354309 0.18745478987693787 0.39077064394950867
0.6792551279067993 0.2608453035354614 0.5890262722969055
0.7707830667495728 0.13077695667743683 0.49147072434425354
0.8581762313842773 0.2463940978050232 0.5469483733177185
0.691617488861084 0.17143088579177856 0.502292275428772
0.7233116626739502 0.19371774792671204 0.5625462532043457
0.6714105010032654 0.2975391149520874 0.4034835398197174
0.7203747630119324 0.22825409471988678 0.4936336278915405
0.6984549760818481 0.21004661917686462 0.5307511687278748
0.7737370133399963 0.15763066709041595 0.5074428915977478
0.65895676612854 0.22451919317245483 0.43875476717948914
0.6655598878860474 0.2961581349372864 0.4144705533981323
0.7836822271347046 0.24547915160655975 0.4975182116031647
0.79489666223526 0.3223485052585602 0.3888397514820099
0.8294865489006042 0.23104307055473328 0.39065122604370117
0.6724728941917419 0.1709655523300171 0.42915329337120056
0.8046870231628418 0.26423379778862 0.3802769184112549
0.8032426238059998 0.3142954409122467 0.41216757893562317
0.8314273357391357 0.28699174523353577 0.4447081983089447
0.7549325227737427 0.26955729722976685 0.5713570713996887
0.6930182576179504 0.1356474906206131 0.5547211766242981
0.8109702467918396 0.21207061409950256 0.5317776203155518
0.7951656579971313 0.15027865767478943 0.5544534921646118
0.8074095845222473 0.15023082494735718 0.4876682758331299
0.7147939801216125 0.2664336860179901 0.4540029764175415
0.7881451845169067 0.142918661236763 0.5103516578674316
0.6681432127952576 0.26701071858406067 0.593259871006012
0.8011911511421204 0.29940128326416016 0.47781500220298767
0.8099738359451294 0.2911485433578491 0.5467096567153931
0.6600991487503052 0.30146539211273193 0.47820672392845154
0.8208200335502625 0.1738438606262207 0.4175929129123688
0.7911477088928223 0.24822480976581573 0.5298253297805786
0.6950047612190247 0.16691464185714722 0.5480346083641052
0.6645483374595642 0.18059684336185455 0.4819931089878082
0.7645395398139954 0.3025614619255066 0.39472496509552
0.6813780665397644 0.2691674530506134 0.5458654165267944
0.8362287282943726 0.18988457322120667 0.5220527648925781
0.8149057030677795 0.331764280796051 0.53696608543396
0.7424167394638062 0.24267414212226868 0.5568650364875793
0.7911967635154724 0.14431138336658478 0.44228118658065796
0.8209304809570312 0.1991899162530899 0.5305887460708618
0.6430605053901672 0.3114491403102875 0.41076579689979553
0.7162154912948608 0.1669199913740158 0.4634651243686676
0.7356558442115784 0.22383858263492584 0.39282357692718506
0.7839556932449341 0.2614293098449707 0.38392817974090576
0.690880537033081 0.14483924210071564 0.5729579329490662
0.7157882452011108 0.15633097290992737 0.5368772149085999
0.8405207991600037 0.22118805348873138 0.5053409934043884
0.750702977180481 0.2570142447948456 0.5385183095932007
0.7605214715003967 0.28942495584487915 0.49618321657180786
0.6509029269218445 0.24100731313228607 0.43135616183280945
0.7297505140304565 0.12975339591503143 0.4111696183681488
0.8121657371520996 0.20862232148647308 0.5619112253189087
0.7454270124435425 0.1418464332818985 0.4794861972332001
0.6983305811882019 0.15805841982364655 0.4324963688850403
0.6408396363258362 0.2936260998249054 0.48857858777046204
0.7602585554122925 0.21773210167884827 0.44965848326683044
0.7996501922607422 0.1397787481546402 0.4687270522117615
0.6692932844161987 0.14043278992176056 0.3845765292644501
0.7016147971153259 0.2549126148223877 0.49776729941368103
0.7757970094680786 0.3201409876346588 0.580186128616333
0.6645389199256897 0.20657648146152496 0.40878260135650635
0.833756685256958 0.1900237500667572 0.36756929755210876
0.6728194355964661 0.18450625240802765 0.40861111879348755
0.8246162533760071 0.2785862386226654 0.40944617986679077
0.7636092305183411 0.21739932894706726 0.5208396911621094
0.6676511168479919 0.2103458195924759 0.432431161403656
0.7850583791732788 0.22911934554576874 0.5299872756004333
0.6988910436630249 0.19820791482925415 0.47021907567977905
0.7100348472595215 0.3123966455459595 0.3920331299304962
0.7100348472595215 0.3123966455459595 0.3920331299304962
0.6738762855529785 0.14621223509311676 0.42977654933929443
0.6984918713569641 0.1476077437400818 0.4423459470272064
0.6687505841255188 0.1741728037595749 0.4131549894809723
0.7342348694801331 0.2047528326511383 0.3837439715862274
0.7541324496269226 0.19226424396038055 0.5497786998748779
0.7965669631958008 0.15994767844676971 0.5053996443748474
0.7965669631958008 0.15994767844676971 0.5053996443748474
0.721531093120575 0.277860164642334 0.40304258465766907
0.8439378142356873 0.22399191558361053 0.39488327503204346
0.7041789889335632 0.2594224512577057 0.5174500942230225
0.6511483788490295 0.2892935276031494 0.5074859857559204
0.8002304434776306 0.23693493008613586 0.39700597524642944
0.7203369736671448 0.3099181056022644 0.40577176213264465
0.6593997478485107 0.22250840067863464 0.44050735235214233
0.7110630869865417 0.1906866729259491 0.4554993212223053
0.7223256230354309 0.18745478987693787 0.39077064394950867
0.6792551279067993 0.2608453035354614 0.5890262722969055
0.7707830667495728 0.13077695667743683 0.49147072434425354
0.8581762313842773 0.2463940978050232 0.5469483733177185
0.691617488861084 0.17143088579177856 0.502292275428772
0.7233116626739502 0.19371774792671204 0.5625462532043457
0.6714105010032654 0.2975391149520874 0.4034835398197174
0.7203747630119324 0.22825409471988678 0.4936336278915405
0.6984549760818481 0.21004661917686462 0.5307511687278748
0.6454306840896606 0.23740680515766144 0.4258510172367096
0.7529104351997375 0.2631279528141022 0.39251136779785156
0.7261021137237549 0.18957681953907013 0.5761536955833435
0.6728705167770386 0.23769336938858032 0.4690651595592499
0.7082946300506592 0.2673513889312744 0.4277411699295044
0.82679283618927 0.15344662964344025 0.3952626883983612
0.7394229769706726 0.21559786796569824 0.5428171157836914
0.6944571137428284 0.19721417129039764 0.42509976029396057
0.8046870231628418 0.26423379778862 0.3802769184112549
0.7401164174079895 0.30283597111701965 0.4712198078632355
0.7600023746490479 0.18008680641651154 0.4522729516029358
0.7589284777641296 0.2331879734992981 0.3999316096305847
0.7394521832466125 0.17624008655548096 0.42163094878196716
0.8018015027046204 0.26355642080307007 0.492301344871521
0.6653410792350769 0.2948419749736786 0.4284306764602661
0.8135050535202026 0.25879350304603577 0.5381170511245728
0.8316595554351807 0.2219560742378235 0.4627392292022705
0.6714105010032654 0.2975391149520874 0.4034835398197174
0.7203747630119324 0.22825409471988678 0.4936336278915405
0.6984549760818481 0.21004661917686462 0.5307511687278748
0.7737370133399963 0.15763066709041595 0.5074428915977478
0.65895676612854 0.22451919317245483 0.43875476717948914
0.6655598878860474 0.2961581349372864 0.4144705533981323
0.8509294390678406 0.23146352171897888 0.5085048675537109
0.8633231520652771 0.22541813552379608 0.5385366082191467
0.6660413146018982 0.2324596494436264 0.5603513717651367
0.8443242311477661 0.23511482775211334 0.38774341344833374
0.6836052536964417 0.21339231729507446 0.5164147615432739
0.682132363319397 0.2100297510623932 0.412924200296402
0.8374902009963989 0.2728894054889679 0.40830546617507935
0.7932579517364502 0.23628278076648712 0.5410072803497314
0.6662564873695374 0.20840126276016235 0.5574585199356079
0.6840918064117432 0.19266989827156067 0.4616797864437103
0.6398919224739075 0.2952297627925873 0.4413593113422394
0.7910594344139099 0.24501794576644897 0.5245643258094788
0.7417188882827759 0.21605125069618225 0.5331087708473206
0.6716547012329102 0.13242489099502563 0.39757856726646423
0.8419317007064819 0.2502504289150238 0.48345890641212463
0.7444174289703369 0.26132121682167053 0.5595429539680481
0.6747838258743286 0.19730593264102936 0.431961327791214
0.800708532333374 0.2512874901294708 0.5169982314109802
0.6706188321113586 0.29995280504226685 0.5082703828811646
0.8047764897346497 0.28131303191185 0.4885009825229645
0.8215128779411316 0.2893761992454529 0.505530834197998
0.802994430065155 0.29350772500038147 0.4876423478126526
0.8513646125793457 0.2259865254163742 0.5580688118934631
0.6887205839157104 0.2309664487838745 0.44475147128105164
0.8115219473838806 0.14500804245471954 0.4779609739780426
0.8260886073112488 0.2920095920562744 0.37486445903778076
0.6619781255722046 0.19428089261054993 0.3900044560432434
0.7246877551078796 0.24678216874599457 0.4820171892642975
0.810397744178772 0.1620112657546997 0.5469831824302673
0.7779203653335571 0.14024072885513306 0.5470081567764282
0.804176390171051 0.13710278272628784 0.5663236379623413
0.7874169945716858 0.16996563971042633 0.515342116355896
0.6729110479354858 0.18127772212028503 0.550330400466919
0.7150180339813232 0.3184845447540283 0.40398135781288147
0.7903344035148621 0.21385851502418518 0.4281426966190338
0.7993974089622498 0.22945217788219452 0.4815404713153839
0.7546818256378174 0.33091965317726135 0.44887927174568176
0.8423032760620117 0.23657028377056122 0.4416484534740448
0.8470196723937988 0.19767820835113525 0.4528632164001465
0.856726348400116 0.20129673182964325 0.47317320108413696
0.7589967250823975 0.13107116520404816 0.5076050162315369
0.7210230827331543 0.23702342808246613 0.5692511200904846
0.7103633284568787 0.24157001078128815 0.503831684589386
0.7821133136749268 0.13318489491939545 0.49337658286094666
0.8197272419929504 0.2877856492996216 0.48302462697029114
0.6764602661132812 0.1877884864807129 0.3967985212802887
0.8110811114311218 0.24470017850399017 0.4622536301612854
0.7485929131507874 0.3289255201816559 0.4112672507762909
0.8377842903137207 0.17629967629909515 0.38527360558509827
0.77434241771698 0.14250105619430542 0.5425204634666443
0.6777892112731934 0.22763897478580475 0.4333750903606415
0.7771308422088623 0.2408442348241806 0.5350987315177917
0.6983320713043213 0.15027712285518646 0.4066617488861084
0.6720640659332275 0.24228419363498688 0.5507879257202148
0.7812551259994507 0.14752858877182007 0.5050606727600098
0.791663408279419 0.25634580850601196 0.37420958280563354
0.8008149862289429 0.23251400887966156 0.5213587880134583
0.7705284357070923 0.16628481447696686 0.37697505950927734
0.6655598878860474 0.2961581349372864 0.4144705533981323
0.7836822271347046 0.24547915160655975 0.4975182116031647
0.79489666223526 0.3223485052585602 0.3888397514820099
0.8294865489006042 0.23104307055473328 0.39065122604370117
0.6725771427154541 0.12423913925886154 0.4745634198188782
0.695722758769989 0.17565083503723145 0.509010374546051
0.7706340551376343 0.2562224268913269 0.4591103792190552
0.7052277326583862 0.3026869595050812 0.5531244874000549
0.8038000464439392 0.21923130750656128 0.5253441333770752
0.7872916460037231 0.18971779942512512 0.5195426344871521
0.7167404294013977 0.21345965564250946 0.40660494565963745
0.7479993104934692 0.16557766497135162 0.48059701919555664
0.8430189490318298 0.3046887218952179 0.5703396797180176
0.8062491416931152 0.3150726556777954 0.55964195728302
0.8176257014274597 0.23675046861171722 0.4496396481990814
0.7108402848243713 0.2670164704322815 0.41965869069099426
0.8325074911117554 0.2437746226787567 0.4525127112865448
0.764014482498169 0.2589009702205658 0.5115436911582947
0.6720085144042969 0.1586511731147766 0.4982295334339142
0.8005078434944153 0.14419569075107574 0.40437746047973633
0.8308480381965637 0.18008141219615936 0.38285622000694275
0.6888644099235535 0.18022717535495758 0.5754378437995911
0.7088631987571716 0.2325855940580368 0.4964950978755951
0.795108437538147 0.18914400041103363 0.5654076933860779
0.8203291296958923 0.21303360164165497 0.5260111689567566
0.7762494087219238 0.3188769519329071 0.46462514996528625
0.7213258147239685 0.2737685441970825 0.48971083760261536
0.6758577823638916 0.2127545177936554 0.45271018147468567
0.7465904355049133 0.3156876862049103 0.41720104217529297
0.6681075692176819 0.2908686697483063 0.505160927772522
0.8662141561508179 0.16498501598834991 0.5542285442352295
0.6789872646331787 0.27224814891815186 0.5763916373252869
0.6655598878860474 0.2961581349372864 0.4144705533981323
0.7836822271347046 0.24547915160655975 0.4975182116031647
0.79489666223526 0.3223485052585602 0.3888397514820099
0.8294865489006042 0.23104307055473328 0.39065122604370117
0.6725771427154541 0.12423913925886154 0.4745634198188782
0.695722758769989 0.17565083503723145 0.509010374546051
0.7706340551376343 0.2562224268913269 0.4591103792190552
0.7052277326583862 0.3026869595050812 0.5531244874000549
0.8038000464439392 0.21923130750656128 0.5253441333770752
0.7872916460037231 0.18971779942512512 0.5195426344871521
0.7167404294013977 0.21345965564250946 0.40660494565963745
0.7479993104934692 0.16557766497135162 0.48059701919555664
0.8430189490318298 0.3046887218952179 0.5703396797180176
0.8062491416931152 0.3150726556777954 0.55964195728302
0.8176257014274597 0.23675046861171722 0.4496396481990814
0.7108402848243713 0.2670164704322815 0.41965869069099426
0.8325074911117554 0.2437746226787567 0.4525127112865448
0.764014482498169 0.2589009702205658 0.5115436911582947
0.742182731628418 0.12078455835580826 0.5587056279182434
0.8052598237991333 0.23139545321464539 0.4210565984249115
0.7817147970199585 0.2872833013534546 0.5403029322624207
0.6968808174133301 0.14855985343456268 0.5180716514587402
0.7458922863006592 0.32014375925064087 0.39695626497268677
0.7983055114746094 0.24980810284614563 0.5645191669464111
0.7576828598976135 0.1841578334569931 0.4225847125053406
0.7300936579704285 0.2701433598995209 0.46947646141052246
0.7762494087219238 0.3188769519329071 0.46462514996528625
0.6911446452140808 0.3020956218242645 0.4454400837421417
0.7288925051689148 0.12078742682933807 0.5512468218803406
0.8515885472297668 0.2731136977672577 0.5601187348365784
0.8074095845222473 0.15023082494735718 0.4876682758331299
0.800299882888794 0.3207530379295349 0.5513148903846741
0.6988910436630249 0.19820791482925415 0.47021907567977905
0.6470900774002075 0.21353714168071747 0.42363816499710083
0.702625572681427 0.16565869748592377 0.4140474498271942
0.7342348694801331 0.2047528326511383 0.3837439715862274
0.7541324496269226 0.19226424396038055 0.5497786998748779
0.7965669631958008 0.15994767844676971 0.5053996443748474
0.721531093120575 0.277860164642334 0.40304258465766907
0.8475722074508667 0.17039553821086884 0.3771759271621704
0.6922036409378052 0.27119696140289307 0.5487646460533142
0.6777759194374084 0.17973576486110687 0.462842732667923
0.6669283509254456 0.267607182264328 0.47236689925193787
0.7818282246589661 0.17950640618801117 0.4504689872264862
0.8021919131278992 0.31556960940361023 0.3890545964241028
0.6923734545707703 0.1931920200586319 0.5210373997688293
0.76339191198349 0.24813000857830048 0.43226316571235657
0.7501258850097656 0.1650899201631546 0.4781217575073242
0.7782369256019592 0.20181125402450562 0.5275418758392334
0.7716493010520935 0.21072529256343842 0.3742017149925232
0.6782491207122803 0.27113035321235657 0.4328480362892151
0.7620627284049988 0.16443166136741638 0.5249250531196594
0.7158784866333008 0.13497556746006012 0.5431146621704102
0.7041789889335632 0.2594224512577057 0.5174500942230225
0.6511483788490295 0.2892935276031494 0.5074859857559204
0.7203369736671448 0.3099181056022644 0.40577176213264465
0.6593997478485107 0.22250840067863464 0.44050735235214233
0.7110630869865417 0.1906866729259491 0.4554993212223053
0.742182731628418 0.12078455835580826 0.5587056279182434
0.8052598237991333 0.23139545321464539 0.4210565984249115
0.7817147970199585 0.2872833013534546 0.5403029322624207
0.6968808174133301 0.14855985343456268 0.5180716514587402
0.7458922863006592 0.32014375925064087 0.39695626497268677
0.7831550240516663 0.19930553436279297 0.4258548617362976
0.8513646125793457 0.2259865254163742 0.5580688118934631
0.754936933517456 0.25368958711624146 0.40875867009162903
0.844893217086792 0.19698859751224518 0.4461324214935303
0.8397380113601685 0.16938157379627228 0.5402040481567383
0.7140868306159973 0.2880460321903229 0.4041626751422882
0.6950047612190247 0.16691464185714722 0.5480346083641052
0.6645483374595642 0.18059684336185455 0.4819931089878082
0.7645395398139954 0.3025614619255066 0.39472496509552
0.6813780665397644 0.2691674530506134 0.5458654165267944
0.8362287282943726 0.18988457322120667 0.5220527648925781
0.8149057030677795 0.331764280796051 0.53696608543396
0.7424167394638062 0.24267414212226868 0.5568650364875793
0.7911967635154724 0.14431138336658478 0.44228118658065796
0.8209304809570312 0.1991899162530899 0.5305887460708618
0.6430605053901672 0.3114491403102875 0.41076579689979553
0.6668182611465454 0.28981727361679077 0.49420323967933655
0.8537824749946594 0.2223719358444214 0.4792816936969757
0.840718150138855 0.14762206375598907 0.5616010427474976
0.6688416600227356 0.15439331531524658 0.4233424961566925
0.818818211555481 0.23998545110225677 0.5232751369476318
0.690057098865509 0.19940729439258575 0.5832797288894653
0.7162154912948608 0.1669199913740158 0.4634651243686676
0.8428053855895996 0.1548573076725006 0.4044843018054962
0.6872546672821045 0.1605055034160614 0.4012612998485565
0.7329633235931396 0.28095024824142456 0.4050918221473694
0.7839556932449341 0.2614293098449707 0.38392817974090576
0.7386102080345154 0.19429238140583038 0.5026528239250183
0.7834240794181824 0.27064695954322815 0.40738192200660706
0.7157882452011108 0.15633097290992737 0.5368772149085999
0.672354519367218 0.2577062249183655 0.43813958764076233
0.7981393337249756 0.20404012501239777 0.4008118510246277
0.6922036409378052 0.27119696140289307 0.5487646460533142
0.8011911511421204 0.29940128326416016 0.47781500220298767
0.8099738359451294 0.2911485433578491 0.5467096567153931
0.8161593675613403 0.2169010192155838 0.5699598789215088
0.6950047612190247 0.16691464185714722 0.5480346083641052
0.6645483374595642 0.18059684336185455 0.4819931089878082
0.7645395398139954 0.3025614619255066 0.39472496509552
0.8501356840133667 0.1562340408563614 0.37255367636680603
0.6601969003677368 0.14250080287456512 0.40203428268432617
0.7854894399642944 0.2215428203344345 0.4048299193382263
0.7924960851669312 0.2983268201351166 0.4908095896244049
0.6567076444625854 0.24442309141159058 0.40321505069732666
0.763458788394928 0.20786124467849731 0.4946219027042389
0.7162154912948608 0.1669199913740158 0.4634651243686676
0.8428053855895996 0.1548573076725006 0.4044843018054962
0.6872546672821045 0.1605055034160614 0.4012612998485565
0.7329633235931396 0.28095024824142456 0.4050918221473694
0.7839556932449341 0.2614293098449707 0.38392817974090576
0.690880537033081 0.14483924210071564 0.5729579329490662
0.7157882452011108 0.15633097290992737 0.5368772149085999
0.672354519367218 0.2577062249183655 0.43813958764076233
0.7981393337249756 0.20404012501239777 0.4008118510246277
0.7755064368247986 0.16383647918701172 0.4777674973011017
0.832726001739502 0.2488558441400528 0.5686414837837219
0.6696308255195618 0.24507981538772583 0.5598465204238892
0.6647450923919678 0.2191074937582016 0.5057508945465088
0.7357096076011658 0.2967450022697449 0.41530168056488037
0.6782525181770325 0.2121475487947464 0.42879149317741394
0.7909061908721924 0.28523290157318115 0.5693937540054321
0.6851959228515625 0.14880503714084625 0.5262202024459839
0.7319175004959106 0.20389823615550995 0.5733979940414429
0.6825451254844666 0.29698827862739563 0.4253941774368286
0.7167404294013977 0.21345965564250946 0.40660494565963745
0.8515885472297668 0.2731136977672577 0.5601187348365784
0.8074095845222473 0.15023082494735718 0.4876682758331299
0.7147939801216125 0.2664336860179901 0.4540029764175415
0.6633641123771667 0.2914670705795288 0.527458667755127
0.8059401512145996 0.2340930849313736 0.4335334002971649
0.7443104982376099 0.1534285694360733 0.4924003779888153
0.7169241309165955 0.12209689617156982 0.4675705134868622
0.7188147306442261 0.17627796530723572 0.3919190466403961
0.7404417395591736 0.3050752878189087 0.5281203985214233
0.8560408353805542 0.24687187373638153 0.5326100587844849
0.6966264843940735 0.2611757218837738 0.49309611320495605
0.7776364088058472 0.2407885193824768 0.5492180585861206
0.8087299466133118 0.33410605788230896 0.5081995129585266
0.7841360569000244 0.1952330321073532 0.5205808281898499
0.6454282999038696 0.2975412607192993 0.47983595728874207
0.8114672899246216 0.27058348059654236 0.4596650302410126
0.6395750641822815 0.2834513485431671 0.45334550738334656
0.6838050484657288 0.2567530870437622 0.5477041006088257
0.7440502047538757 0.17449189722537994 0.5409083366394043
0.7328810095787048 0.23456460237503052 0.44455060362815857
0.7875658869743347 0.1639205813407898 0.5402690768241882
0.832726001739502 0.2488558441400528 0.5686414837837219
0.6696308255195618 0.24507981538772583 0.5598465204238892
0.6647450923919678 0.2191074937582016 0.5057508945465088
0.7357096076011658 0.2967450022697449 0.41530168056488037
0.6782525181770325 0.2121475487947464 0.42879149317741394
0.7909061908721924 0.28523290157318115 0.5693937540054321
0.6851959228515625 0.14880503714084625 0.5262202024459839
0.8225218653678894 0.2326096147298813 0.46114590764045715
0.6825451254844666 0.29698827862739563 0.4253941774368286
0.7595543265342712 0.18292604386806488 0.5533196926116943
0.8297432065010071 0.27936357259750366 0.48152777552604675
0.8101579546928406 0.1383407562971115 0.49860644340515137
0.6784300804138184 0.248074471950531 0.4669610857963562
0.8144561648368835 0.1930752843618393 0.44245123863220215
0.8536490797996521 0.17027686536312103 0.41487711668014526
0.8035397529602051 0.23123207688331604 0.39773300290107727
0.7881451845169067 0.142918661236763 0.5103516578674316
0.6681432127952576 0.26701071858406067 0.593259871006012
0.8011911511421204 0.29940128326416016 0.47781500220298767
0.8099738359451294 0.2911485433578491 0.5467096567153931
0.6600991487503052 0.30146539211273193 0.47820672392845154
0.8208200335502625 0.1738438606262207 0.4175929129123688
0.7911477088928223 0.24822480976581573 0.5298253297805786
0.828718900680542 0.15053899586200714 0.5162546038627625
0.7739630937576294 0.20285028219223022 0.46397504210472107
0.7443104982376099 0.1534285694360733 0.4924003779888153
0.7169241309165955 0.12209689617156982 0.4675705134868622
0.7188147306442261 0.17627796530723572 0.3919190466403961
0.7810884714126587 0.28624236583709717 0.4784631133079529
0.7526248097419739 0.23519964516162872 0.488645076751709
0.7168213129043579 0.15905392169952393 0.3875265121459961
0.7419399619102478 0.20873558521270752 0.49819856882095337
0.7400722503662109 0.2354343682527542 0.45273634791374207
0.7745847702026367 0.24231135845184326 0.46071866154670715
0.728698194026947 0.23068277537822723 0.5734809041023254
0.7305694222450256 0.19918642938137054 0.5281445384025574
0.7670943140983582 0.158321812748909 0.5522346496582031
0.8321826457977295 0.2609211206436157 0.4952014684677124
0.7941205501556396 0.24077939987182617 0.4356987774372101
0.6660701632499695 0.2923246920108795 0.4415060877799988
0.6934706568717957 0.302839994430542 0.3939482867717743
0.716509997844696 0.24571260809898376 0.46464142203330994
0.8016235828399658 0.16075409948825836 0.3719041049480438
0.7149081826210022 0.2617321312427521 0.413583904504776
0.6915202140808105 0.27806612849235535 0.42041102051734924
0.7211113572120667 0.25827619433403015 0.5166587829589844
0.8138614892959595 0.30189549922943115 0.4305848777294159
0.8067485094070435 0.16063474118709564 0.5046939849853516
0.7312108278274536 0.2575136721134186 0.4996982216835022
0.7086247801780701 0.2294749915599823 0.41170820593833923
0.8363810777664185 0.17842186987400055 0.4127240777015686
0.6681910753250122 0.3111964166164398 0.3983997106552124
0.7130315899848938 0.21025711297988892 0.49968215823173523
0.7810884714126587 0.28624236583709717 0.4784631133079529
0.7526248097419739 0.23519964516162872 0.488645076751709
0.7168213129043579 0.15905392169952393 0.3875265121459961
0.7419399619102478 0.20873558521270752 0.49819856882095337
0.7400722503662109 0.2354343682527542 0.45273634791374207
0.7745847702026367 0.24231135845184326 0.46071866154670715
0.728698194026947 0.23068277537822723 0.5734809041023254
0.7305694222450256 0.19918642938137054 0.5281445384025574
0.7670943140983582 0.158321812748909 0.5522346496582031
0.8321826457977295 0.2609211206436157 0.4952014684677124
0.7009016275405884 0.2853921949863434 0.5414222478866577
0.7547439336776733 0.3075295388698578 0.38504621386528015
0.7305669784545898 0.2681137025356293 0.5751010775566101
0.7391558885574341 0.3008808195590973 0.5374795794487
0.711673378944397 0.1792699694633484 0.5464668273925781
0.6741492748260498 0.1462077647447586 0.40134793519973755
0.760886013507843 0.3090747594833374 0.5632428526878357
0.719406008720398 0.14493918418884277 0.4898655116558075
0.7939644455909729 0.21617650985717773 0.529916524887085
0.6621327996253967 0.13365904986858368 0.40124082565307617
0.8105825185775757 0.208030566573143 0.40573564171791077
0.766319215297699 0.13632184267044067 0.5374213457107544
0.6715100407600403 0.2729986906051636 0.4047234356403351
0.6803537011146545 0.24575014412403107 0.518437922000885
0.7665883302688599 0.28482547402381897 0.43026453256607056
0.750262439250946 0.31137579679489136 0.5234395265579224
0.8351601958274841 0.16237913072109222 0.4589664936065674
0.7187017202377319 0.23142215609550476 0.5599532127380371
0.6788965463638306 0.23664255440235138 0.410143107175827
0.8696650266647339 0.15830332040786743 0.471967488527298
0.8277320265769958 0.26265496015548706 0.5112983584403992
0.6893198490142822 0.29101982712745667 0.4181409478187561
0.7635520100593567 0.15892170369625092 0.45386815071105957
0.774026095867157 0.14360156655311584 0.49560320377349854
0.784759521484375 0.3252617418766022 0.4418689012527466
0.8301110863685608 0.18037381768226624 0.4945625364780426
0.6622995734214783 0.27418118715286255 0.5931243300437927
0.7142303586006165 0.315396785736084 0.5029655694961548
0.7476282119750977 0.27123594284057617 0.5147404074668884
0.7334919571876526 0.16895510256290436 0.5133369565010071
0.6955309510231018 0.14723074436187744 0.4857308864593506
0.8266969919204712 0.3259805738925934 0.49574026465415955
0.724452793598175 0.21308533847332 0.5495963096618652
0.6768120527267456 0.29425048828125 0.40311723947525024
0.7078014612197876 0.12176390737295151 0.48300793766975403
0.7615764737129211 0.32339298725128174 0.4363998472690582
0.7265026569366455 0.25016266107559204 0.5671221613883972
0.7319642305374146 0.2432389259338379 0.533037006855011
0.7877951264381409 0.16418717801570892 0.4425421357154846
0.7921987175941467 0.19427737593650818 0.4135189354419708
0.7104455828666687 0.24927930533885956 0.4665006399154663
0.818955659866333 0.3277552127838135 0.43640950322151184
0.7138595581054688 0.26542937755584717 0.5245348215103149
0.791663408279419 0.25634580850601196 0.37420958280563354
0.767167329788208 0.1768621802330017 0.4974324703216553
0.8125683665275574 0.30338427424430847 0.5058570504188538
0.7472392320632935 0.1336134821176529 0.5551019906997681
0.7871344089508057 0.2727104723453522 0.4101264774799347
0.8163757920265198 0.24517033994197845 0.4309498071670532
0.6765836477279663 0.16729310154914856 0.4261344075202942
0.810255765914917 0.3279610872268677 0.4208832383155823
0.7832213640213013 0.28312963247299194 0.5348023772239685
0.8132433891296387 0.20824630558490753 0.3986698389053345
0.7013723254203796 0.15396632254123688 0.40551143884658813
0.6827726364135742 0.19585281610488892 0.5245612859725952
0.8216503858566284 0.2926870286464691 0.5158473253250122
0.807542085647583 0.2061062753200531 0.5142379999160767
0.8227306008338928 0.1488964706659317 0.4554416835308075
0.8217703700065613 0.16145165264606476 0.4888942241668701
0.6675130724906921 0.18613287806510925 0.41239503026008606
0.7345376014709473 0.18501417338848114 0.38462546467781067
0.8417219519615173 0.18415038287639618 0.5283917188644409
0.7087768912315369 0.3050019443035126 0.5236271023750305
0.8337463736534119 0.2752816081047058 0.5229514837265015
0.7849360108375549 0.33423539996147156 0.43854057788848877
0.727959394454956 0.17201299965381622 0.5122356414794922
0.8450465798377991 0.2612723410129547 0.44414669275283813
0.680993914604187 0.20729981362819672 0.4944177567958832
0.8481490015983582 0.1593971997499466 0.5497381091117859
0.730381965637207 0.1871756762266159 0.46976906061172485
0.7195890545845032 0.13611210882663727 0.39031362533569336
0.7445906400680542 0.20924991369247437 0.4163513481616974
0.7559475302696228 0.25889477133750916 0.3933236300945282
0.8297562599182129 0.25473687052726746 0.4023612439632416
0.8031961917877197 0.21031537652015686 0.41357436776161194
0.7424167394638062 0.24267414212226868 0.5568650364875793
0.7305694222450256 0.19918642938137054 0.5281445384025574
0.7441781163215637 0.2088325470685959 0.45490702986717224
0.8146539330482483 0.31381237506866455 0.39132335782051086
0.8073724508285522 0.18670068681240082 0.4923999607563019
0.8380165100097656 0.317253977060318 0.5560540556907654
0.8080361485481262 0.22623443603515625 0.5348696708679199
0.7530876398086548 0.2324817180633545 0.5238696932792664
0.7900539636611938 0.19881288707256317 0.4523070454597473
0.8099870085716248 0.21870800852775574 0.475836843252182
0.8121297359466553 0.18929725885391235 0.3739475905895233
0.8365641236305237 0.15325336158275604 0.5180572271347046
0.7295674085617065 0.2921273112297058 0.5534687042236328
0.7213447093963623 0.23553909361362457 0.5658844709396362
0.8316283822059631 0.2135217934846878 0.38752707839012146
0.8158788084983826 0.20356017351150513 0.515355110168457
0.7093527913093567 0.2608320713043213 0.40266722440719604
0.7276724576950073 0.2626265287399292 0.49585139751434326
0.8224553465843201 0.18800480663776398 0.37500905990600586
0.7988719940185547 0.20107556879520416 0.46463343501091003
0.785484790802002 0.229648157954216 0.39100027084350586
0.8507976531982422 0.3157450556755066 0.5528013706207275
0.8439314961433411 0.2380179464817047 0.4374704360961914
0.8273335695266724 0.17202864587306976 0.44614195823669434
0.8195358514785767 0.2938937842845917 0.4077533483505249
0.7325458526611328 0.31393423676490784 0.5576395988464355
0.7319642305374146 0.2432389259338379 0.533037006855011
0.7877951264381409 0.16418717801570892 0.4425421357154846
0.7921987175941467 0.19427737593650818 0.4135189354419708
0.7104455828666687 0.24927930533885956 0.4665006399154663
0.818955659866333 0.3277552127838135 0.43640950322151184
0.7138595581054688 0.26542937755584717 0.5245348215103149
0.7443104982376099 0.1534285694360733 0.4924003779888153
0.7168213129043579 0.15905392169952393 0.3875265121459961
0.7419399619102478 0.20873558521270752 0.49819856882095337
0.7400722503662109 0.2354343682527542 0.45273634791374207
0.7223276495933533 0.22412654757499695 0.5672487616539001
0.7566261291503906 0.2128273993730545 0.50628262758255
0.7506844401359558 0.13248246908187866 0.44192060828208923
0.8077887892723083 0.29852309823036194 0.5195323824882507
0.7049282193183899 0.2566688060760498 0.5185612440109253
0.7908685803413391 0.2533729672431946 0.4058925211429596
0.657698929309845 0.29255732893943787 0.5960182547569275
0.8570423722267151 0.18763770163059235 0.4800336956977844
0.6892901062965393 0.15892384946346283 0.5071602463722229
0.8325077295303345 0.24469643831253052 0.39548149704933167
0.7488102316856384 0.3177264928817749 0.4242572784423828
0.7771338820457458 0.2541898190975189 0.41394662857055664
0.824786901473999 0.1923130750656128 0.5200122594833374
0.867393970489502 0.19630445539951324 0.5599769353866577
0.8112522959709167 0.14269085228443146 0.5031863451004028
0.7796823978424072 0.27660587430000305 0.485893577337265
0.7037761211395264 0.31681495904922485 0.48183560371398926
0.7730922102928162 0.20228810608386993 0.5713506937026978
0.7803096175193787 0.3093690872192383 0.4761112332344055
0.7004932761192322 0.17095384001731873 0.44001930952072144
0.672241747379303 0.24245384335517883 0.5817775130271912
0.6476641297340393 0.22529809176921844 0.4094051122665405
0.7866610288619995 0.2178904414176941 0.4719858467578888
0.6894853115081787 0.13835188746452332 0.43004125356674194
0.7196678519248962 0.3146938383579254 0.45725148916244507
0.7624163627624512 0.20988015830516815 0.4848712682723999
0.6656882166862488 0.24919749796390533 0.42645734548568726
0.7095456123352051 0.2647848427295685 0.3897322416305542
0.7169241309165955 0.12209689617156982 0.4675705134868622
0.8031961917877197 0.21031537652015686 0.41357436776161194
0.764471709728241 0.329955518245697 0.4212583601474762
0.7176384329795837 0.13420610129833221 0.5305434465408325
0.6940730810165405 0.14307132363319397 0.5702540278434753
0.7860000133514404 0.3291377127170563 0.4633488655090332
0.821564793586731 0.22096633911132812 0.38176971673965454
0.7087922692298889 0.2549970746040344 0.45571810007095337
0.6876250505447388 0.2598963677883148 0.4896688461303711
0.7667835354804993 0.1967797577381134 0.41211560368537903
0.7284897565841675 0.2931090295314789 0.5346193313598633
0.7632468342781067 0.3044702410697937 0.45124194025993347
0.7584823966026306 0.25611412525177 0.44341281056404114
0.8014724850654602 0.3333461880683899 0.38375529646873474
0.7781586050987244 0.2571735084056854 0.5604262351989746
0.7149081826210022 0.2617321312427521 0.413583904504776
0.6915202140808105 0.27806612849235535 0.42041102051734924
0.7211113572120667 0.25827619433403015 0.5166587829589844
0.8138614892959595 0.30189549922943115 0.4305848777294159
0.8067485094070435 0.16063474118709564 0.5046939849853516
0.7312108278274536 0.2575136721134186 0.4996982216835022
0.7086247801780701 0.2294749915599823 0.41170820593833923
0.8363810777664185 0.17842186987400055 0.4127240777015686
0.6681910753250122 0.3111964166164398 0.3983997106552124
0.7130315899848938 0.21025711297988892 0.49968215823173523
0.7810884714126587 0.28624236583709717 0.4784631133079529
0.7526248097419739 0.23519964516162872 0.488645076751709
0.7168213129043579 0.15905392169952393 0.3875265121459961
0.7419399619102478 0.20873558521270752 0.49819856882095337
0.7400722503662109 0.2354343682527542 0.45273634791374207
0.7745847702026367 0.24231135845184326 0.46071866154670715
0.728698194026947 0.23068277537822723 0.5734809041023254
0.7169241309165955 0.12209689617156982 0.4675705134868622
0.7312108278274536 0.2575136721134186 0.4996982216835022
0.7086247801780701 0.2294749915599823 0.41170820593833923
0.8363810777664185 0.17842186987400055 0.4127240777015686
0.6681910753250122 0.3111964166164398 0.3983997106552124
0.7130315899848938 0.21025711297988892 0.49968215823173523
0.7434232831001282 0.18633858859539032 0.5161116719245911
0.7740469574928284 0.3094791769981384 0.45295822620391846
0.730833888053894 0.23132498562335968 0.5394691824913025
0.7107278108596802 0.21216018497943878 0.42030641436576843
0.800987958908081 0.29598432779312134 0.4680631160736084
0.853377640247345 0.2023923546075821 0.5590021014213562
0.7063747048377991 0.1916525959968567 0.44725480675697327
0.6760505437850952 0.2362900674343109 0.4166584014892578
0.7478634119033813 0.21385666728019714 0.3910941183567047
0.7840116024017334 0.24486148357391357 0.43281951546669006
0.8555321097373962 0.16352611780166626 0.5138276815414429
0.7811723947525024 0.2768949568271637 0.4464868903160095
0.8455639481544495 0.17304083704948425 0.4717771112918854
0.8034182786941528 0.13854724168777466 0.4431951642036438
0.7902030348777771 0.19992491602897644 0.4961080551147461
0.7584556341171265 0.2804165780544281 0.42039480805397034
0.7286778688430786 0.15608157217502594 0.5280972719192505
0.819485604763031 0.21832837164402008 0.5001764893531799
0.771234929561615 0.21366551518440247 0.5766070485115051
0.8283641934394836 0.22981028258800507 0.5665604472160339
0.7757085561752319 0.21172012388706207 0.4441719949245453
0.7196189165115356 0.25158390402793884 0.4171903431415558
0.7566789984703064 0.33451327681541443 0.39072251319885254
0.671051025390625 0.2277202010154724 0.49956557154655457
0.7246793508529663 0.1691693514585495 0.46901828050613403
0.6958975195884705 0.2782233655452728 0.47094008326530457
0.7963037490844727 0.3135397434234619 0.4438864588737488
0.8492597341537476 0.22853943705558777 0.47302916646003723
0.7539247870445251 0.14067280292510986 0.510513186454773
0.7142329812049866 0.23570770025253296 0.5794541239738464
0.6771418452262878 0.173350527882576 0.38597869873046875
0.7731308937072754 0.3068206310272217 0.43439117074012756
0.776264488697052 0.22801366448402405 0.5332908630371094
0.7070556282997131 0.19162558019161224 0.5045352578163147
0.8341748118400574 0.31098610162734985 0.5384480953216553
0.781784176826477 0.3181537985801697 0.4365667998790741
0.693469762802124 0.14363984763622284 0.4526250660419464
0.7231319546699524 0.19376584887504578 0.4147630035877228
0.781784176826477 0.3181537985801697 0.4365667998790741
0.693469762802124 0.14363984763622284 0.4526250660419464
0.7549867033958435 0.14577819406986237 0.5125421285629272
0.6579898595809937 0.29348793625831604 0.5396057963371277
0.7909442782402039 0.22312770783901215 0.5254153609275818
0.6807988286018372 0.23429305851459503 0.4073522388935089
0.6579898595809937 0.29348793625831604 0.5396057963371277
0.7909442782402039 0.22312770783901215 0.5254153609275818
0.6807988286018372 0.23429305851459503 0.4073522388935089
0.77156001329422 0.2986793518066406 0.5554682016372681
0.6947655081748962 0.18630948662757874 0.5628506541252136
0.7160137891769409 0.2251168042421341 0.3852941393852234
0.7160137891769409 0.2251168042421341 0.3852941393852234
0.7065526247024536 0.281999409198761 0.5229424238204956
0.8236363530158997 0.29378050565719604 0.5496309399604797
0.6634832620620728 0.2795497179031372 0.40369516611099243
0.7333776950836182 0.2590402662754059 0.4115193486213684
0.7280011177062988 0.18871448934078217 0.5351075530052185
0.8017131686210632 0.2627642750740051 0.43045729398727417
0.746404767036438 0.29899853467941284 0.45671316981315613
0.7875658869743347 0.1639205813407898 0.5402690768241882
0.7480292916297913 0.28671884536743164 0.3964017927646637
0.6915491223335266 0.2649487257003784 0.39473578333854675
0.824861466884613 0.1424209177494049 0.4859648048877716
0.8113232254981995 0.2231467366218567 0.47598692774772644
0.7860195636749268 0.20401859283447266 0.48816627264022827
0.6820077300071716 0.16432081162929535 0.5138365626335144
0.764471709728241 0.1814303994178772 0.4024190306663513
0.7473951578140259 0.1657048910856247 0.5327858924865723
0.7369310259819031 0.262072890996933 0.4151848256587982
0.7884790897369385 0.1463872492313385 0.5055743455886841
0.6950491070747375 0.12448129802942276 0.4823177456855774
0.7041692137718201 0.15608356893062592 0.5534679889678955
0.7472087740898132 0.2173575460910797 0.49151262640953064
0.7873840928077698 0.26209884881973267 0.5597836375236511
0.761450469493866 0.1794499158859253 0.49195024371147156
0.669888436794281 0.2810555100440979 0.4156055748462677
0.8132758140563965 0.20560845732688904 0.5190707445144653
0.7019018530845642 0.19663681089878082 0.44318273663520813
0.7688537836074829 0.17565174400806427 0.561630129814148
0.8527681827545166 0.1601160317659378 0.5574151277542114
0.8265978693962097 0.24224786460399628 0.5604537129402161
0.7968276739120483 0.2679804861545563 0.45822834968566895
0.8416835069656372 0.16331356763839722 0.4624038636684418
0.6896535754203796 0.3108680248260498 0.44821763038635254
0.7995049953460693 0.2912643849849701 0.5386662483215332
0.7330021858215332 0.25855469703674316 0.4366568326950073
0.6605185866355896 0.2581019401550293 0.5751054286956787
0.6923174858093262 0.14542359113693237 0.573042094707489
0.6662271022796631 0.15614773333072662 0.45958536863327026
0.7351765036582947 0.1274183988571167 0.5324302315711975
0.8126554489135742 0.31059160828590393 0.3990286588668823
0.739636242389679 0.2040087729692459 0.4541674852371216
0.8154038190841675 0.22203943133354187 0.4456019103527069
0.8127454519271851 0.20224276185035706 0.4002513587474823
0.7687817811965942 0.32221436500549316 0.48017337918281555
0.8001394867897034 0.20309637486934662 0.42994871735572815
0.8001394867897034 0.20309637486934662 0.42994871735572815
0.8475463390350342 0.20249632000923157 0.503495991230011
0.6951593160629272 0.29583144187927246 0.4276355504989624
0.7378646731376648 0.30479156970977783 0.5651424527168274
0.7648341655731201 0.2099941372871399 0.48915958404541016
0.6608549952507019 0.27693355083465576 0.5014669299125671
0.8145532608032227 0.3197872042655945 0.5423704981803894
0.6478736996650696 0.29554593563079834 0.41428208351135254
0.744013786315918 0.292636513710022 0.42025455832481384
0.744013786315918 0.292636513710022 0.42025455832481384
0.6827254295349121 0.3017991781234741 0.4540964365005493
0.6994316577911377 0.13242879509925842 0.44123032689094543
0.8368825912475586 0.16529302299022675 0.5073146820068359
0.8064337372779846 0.2969917356967926 0.38818517327308655
0.7706314921379089 0.2809869945049286 0.5250517725944519
0.7628100514411926 0.15058495104312897 0.4887336492538452
0.7628100514411926 0.15058495104312897 0.4887336492538452
0.6937001943588257 0.2510378658771515 0.4794712960720062
0.713930070400238 0.12741722166538239 0.39117830991744995
0.7871101498603821 0.3072263300418854 0.45741698145866394
0.8340817093849182 0.188168004155159 0.47354206442832947
0.6681921482086182 0.1633482128381729 0.3937433958053589
0.6681921482086182 0.1633482128381729 0.3937433958053589
0.8511675596237183 0.17462140321731567 0.5396337509155273
0.7797122001647949 0.24395771324634552 0.49975407123565674
0.7665244936943054 0.2138359695672989 0.4270290434360504
0.7215302586555481 0.32912391424179077 0.39090803265571594
0.6659547090530396 0.1551675945520401 0.4661388397216797
0.777488648891449 0.16395801305770874 0.3940393924713135
0.7031421661376953 0.26088881492614746 0.547906756401062
0.845558226108551 0.16732752323150635 0.3636663556098938
0.7683241367340088 0.2290104776620865 0.521329939365387
0.7326250672340393 0.1965513378381729 0.43432435393333435
0.7657142281532288 0.15951494872570038 0.5137268900871277
0.8138303756713867 0.2645188868045807 0.5193802714347839
0.8128671050071716 0.26738059520721436 0.40139901638031006
0.7945650815963745 0.2327566146850586 0.5733374357223511
0.692253589630127 0.22578737139701843 0.4961134195327759
0.7861020565032959 0.30003267526626587 0.4632251560688019
0.808215856552124 0.2911308705806732 0.38531357049942017
