ply
format ascii 1.0
element vertex 824
property float x
property float y
property float z
end_header
0.29788342118263245 0.17997710406780243 0.5375157594680786
0.3254927098751068 0.12250378727912903 0.5107003450393677
0.3234948217868805 0.21252131462097168 0.4259389340877533
0.40228530764579773 0.13553857803344727 0.46208134293556213
0.45965576171875 0.2104639858007431 0.4840335249900818
0.3202742636203766 0.2060989886522293 0.433264821767807
0.3229129910469055 0.12744101881980896 0.498601496219635
0.41886547207832336 0.17810729146003723 0.5522577166557312
0.25724175572395325 0.12380082160234451 0.432897686958313
0.4047994911670685 0.2098560631275177 0.4810795485973358
0.326139360666275 0.18513885140419006 0.4767628312110901
0.4220467507839203 0.21240076422691345 0.4610743522644043
0.38574495911598206 0.20574864745140076 0.4514196813106537
0.40233114361763 0.1869809478521347 0.45739948749542236
0.23066872358322144 0.13534393906593323 0.466992050409317
0.32483628392219543 0.11726018786430359 0.5057183504104614
0.25239747762680054 0.12431048601865768 0.5084912776947021
0.39913907647132874 0.10337602347135544 0.5413088202476501
0.3081605136394501 0.1594681739807129 0.5572706460952759
0.25890493392944336 0.12021847814321518 0.45047417283058167
0.2970472574234009 0.23140758275985718 0.567135214805603
0.35745880007743835 0.2640630602836609 0.4434504508972168
0.4340587556362152 0.2423236072063446 0.5675203204154968
0.3321276903152466 0.20407314598560333 0.5124701857566833
0.42854225635528564 0.12127138674259186 0.4564323127269745
0.3192077875137329 0.12457981705665588 0.4900515675544739
0.41886547207832336 0.17810729146003723 0.5522577166557312
0.354544073343277 0.26073819398880005 0.5852932333946228
0.28419190645217896 0.11547020822763443 0.467740535736084
0.38067689538002014 0.1921464055776596 0.50279700756073
0.3544009029865265 0.22419095039367676 0.5573351383209229
0.3416577875614166 0.18146419525146484 0.503578782081604
0.4054456055164337 0.23698127269744873 0.4620182514190674
0.349297434091568 0.11993077397346497 0.45576274394989014
0.28755632042884827 0.11422497779130936 0.5841090083122253
0.25952643156051636 0.21773791313171387 0.6172780990600586
0.3220144808292389 0.17095687985420227 0.5630942583084106
0.32810232043266296 0.27661433815956116 0.5678861141204834
0.2684679329395294 0.2176753133535385 0.6033498048782349
0.3707377016544342 0.147901251912117 0.5152203440666199
0.3054625988006592 0.20292900502681732 0.4994734227657318
0.3937642574310303 0.20153582096099854 0.47608447074890137
0.4656616747379303 0.2557777464389801 0.6104147434234619
0.30020859837532043 0.2829344868659973 0.4564375877380371
0.43558117747306824 0.2354426234960556 0.460345596075058
0.4600045680999756 0.228675976395607 0.45934003591537476
0.3664596676826477 0.18656934797763824 0.5454737544059753
0.28858011960983276 0.23638683557510376 0.47622257471084595
0.28279444575309753 0.2525152266025543 0.4450768530368805
0.35418394207954407 0.15097466111183167 0.6208641529083252
0.33705583214759827 0.25255098938941956 0.4577261209487915
0.37386879324913025 0.11405310034751892 0.622230589389801
0.3013988733291626 0.1436457484960556 0.4609508514404297
0.28144603967666626 0.11690633744001389 0.5938782095909119
0.449189692735672 0.23677557706832886 0.494265615940094
0.22725290060043335 0.12834401428699493 0.477504700422287
0.3186565637588501 0.16888925433158875 0.5464735627174377
0.3355029225349426 0.20354561507701874 0.5274378061294556
0.4422813057899475 0.16543686389923096 0.4565012753009796
0.3055959641933441 0.24700257182121277 0.45459023118019104
0.33900558948516846 0.26689988374710083 0.5445475578308105
0.4023113250732422 0.20419251918792725 0.476617693901062
0.3968179225921631 0.18915486335754395 0.5134328603744507
0.3158097267150879 0.17522746324539185 0.43052244186401367
0.2673218846321106 0.1462559998035431 0.535764217376709
0.3414216935634613 0.17799197137355804 0.595319390296936
0.361192911863327 0.17347675561904907 0.5399351716041565
0.23863086104393005 0.16647116839885712 0.5702497363090515
0.26949936151504517 0.24767179787158966 0.4605095088481903
0.3338398337364197 0.19424870610237122 0.6126182675361633
0.2606179416179657 0.17728455364704132 0.4995517134666443
0.28485211730003357 0.2553735375404358 0.5608972907066345
0.43558117747306824 0.2354426234960556 0.460345596075058
0.29464879631996155 0.1669081300497055 0.5380356311798096
0.26947465538978577 0.145080104470253 0.47460997104644775
0.40598830580711365 0.20349834859371185 0.46419471502304077
0.2928217351436615 0.11041341722011566 0.5030340552330017
0.3326522707939148 0.13486720621585846 0.5406809449195862
0.4181365966796875 0.17388354241847992 0.5927224159240723
0.37884828448295593 0.24839507043361664 0.5788484811782837
0.35961028933525085 0.18369078636169434 0.49513518810272217
0.3165663480758667 0.20956271886825562 0.439462274312973
0.4329206943511963 0.24961650371551514 0.5950188636779785
0.43268874287605286 0.1256272941827774 0.5088589191436768
0.34295666217803955 0.11615046113729477 0.44932132959365845
0.23751138150691986 0.12195120751857758 0.4463855028152466
0.4249640703201294 0.19059699773788452 0.49509114027023315
0.4436556100845337 0.19673150777816772 0.5370320081710815
0.36378270387649536 0.25292372703552246 0.45758670568466187
0.39710184931755066 0.11180458962917328 0.45156925916671753
0.28419190645217896 0.11547020822763443 0.467740535736084
0.28485211730003357 0.2553735375404358 0.5608972907066345
0.3416577875614166 0.18146419525146484 0.503578782081604
0.4054456055164337 0.23698127269744873 0.4620182514190674
0.349297434091568 0.11993077397346497 0.45576274394989014
0.28755632042884827 0.11422497779130936 0.5841090083122253
0.3174195885658264 0.1402752697467804 0.5795224905014038
0.3398037254810333 0.21855352818965912 0.42649346590042114
0.3564722239971161 0.145292267203331 0.5674552917480469
0.35135984420776367 0.11234621703624725 0.5516058802604675
0.27543380856513977 0.21295414865016937 0.5372598171234131
0.4632267951965332 0.22835773229599 0.42228761315345764
0.3945128917694092 0.18066905438899994 0.4259120225906372
0.26993414759635925 0.13151530921459198 0.4461917579174042
0.3896489441394806 0.11432842910289764 0.5871797204017639
0.28144603967666626 0.11690633744001389 0.5938782095909119
0.449189692735672 0.23677557706832886 0.494265615940094
0.22725290060043335 0.12834401428699493 0.477504700422287
0.3186565637588501 0.16888925433158875 0.5464735627174377
0.3355029225349426 0.20354561507701874 0.5274378061294556
0.4422813057899475 0.16543686389923096 0.4565012753009796
0.3055959641933441 0.24700257182121277 0.45459023118019104
0.33900558948516846 0.26689988374710083 0.5445475578308105
0.4023113250732422 0.20419251918792725 0.476617693901062
0.4398207664489746 0.21138642728328705 0.44285160303115845
0.4231730103492737 0.11309341341257095 0.5471680164337158
0.3381426930427551 0.15742331743240356 0.5279920101165771
0.4167322516441345 0.11441617459058762 0.6030552983283997
0.26582327485084534 0.17024995386600494 0.5241754651069641
0.31163522601127625 0.16219757497310638 0.5324074625968933
0.2561054825782776 0.20945769548416138 0.5223120450973511
0.4094104468822479 0.16736085712909698 0.45915377140045166
0.2827998101711273 0.21723045408725739 0.6038174033164978
0.3759722113609314 0.1572544425725937 0.4394666254520416
0.3412981331348419 0.20206603407859802 0.4625100791454315
0.30602172017097473 0.1156616285443306 0.5466148257255554
0.44361892342567444 0.20570547878742218 0.4823843538761139
0.37443745136260986 0.21391837298870087 0.46938595175743103
0.38486942648887634 0.24156680703163147 0.518908679485321
0.305781751871109 0.2744083106517792 0.5194922685623169
0.4068876802921295 0.19602613151073456 0.5218482613563538
0.25246793031692505 0.20192377269268036 0.522038459777832
0.3667535185813904 0.11725106835365295 0.4258371591567993
0.38878333568573 0.13447415828704834 0.5979775786399841
0.23365342617034912 0.15982377529144287 0.5008347034454346
0.3497322201728821 0.27733302116394043 0.600745677947998
0.43558117747306824 0.2354426234960556 0.460345596075058
0.28144603967666626 0.11690633744001389 0.5938782095909119
0.449189692735672 0.23677557706832886 0.494265615940094
0.22725290060043335 0.12834401428699493 0.477504700422287
0.3186565637588501 0.16888925433158875 0.5464735627174377
0.3355029225349426 0.20354561507701874 0.5274378061294556
0.4422813057899475 0.16543686389923096 0.4565012753009796
0.3055959641933441 0.24700257182121277 0.45459023118019104
0.33900558948516846 0.26689988374710083 0.5445475578308105
0.4023113250732422 0.20419251918792725 0.476617693901062
0.3968179225921631 0.18915486335754395 0.5134328603744507
0.3158097267150879 0.17522746324539185 0.43052244186401367
0.2673218846321106 0.1462559998035431 0.535764217376709
0.3414216935634613 0.17799197137355804 0.595319390296936
0.361192911863327 0.17347675561904907 0.5399351716041565
0.23863086104393005 0.16647116839885712 0.5702497363090515
0.26949936151504517 0.24767179787158966 0.4605095088481903
0.3338398337364197 0.19424870610237122 0.6126182675361633
0.2606179416179657 0.17728455364704132 0.4995517134666443
0.28485211730003357 0.2553735375404358 0.5608972907066345
0.3416577875614166 0.18146419525146484 0.503578782081604
0.4054456055164337 0.23698127269744873 0.4620182514190674
0.349297434091568 0.11993077397346497 0.45576274394989014
0.28755632042884827 0.11422497779130936 0.5841090083122253
0.3174195885658264 0.1402752697467804 0.5795224905014038
0.3398037254810333 0.21855352818965912 0.42649346590042114
0.3564722239971161 0.145292267203331 0.5674552917480469
0.4274173378944397 0.15425479412078857 0.6086347103118896
0.32905852794647217 0.2626689374446869 0.5786157846450806
0.3761245608329773 0.22830499708652496 0.5470567345619202
0.32898765802383423 0.1119292676448822 0.46558520197868347
0.2774162292480469 0.25979670882225037 0.5140446424484253
0.3898029625415802 0.1546337902545929 0.6202503442764282
0.28144603967666626 0.11690633744001389 0.5938782095909119
0.3070599436759949 0.16059447824954987 0.5250357985496521
0.2422310709953308 0.11281231790781021 0.44627803564071655
0.22358161211013794 0.1338689923286438 0.43812111020088196
0.2848004996776581 0.139222651720047 0.567785918712616
0.27972713112831116 0.25636863708496094 0.5709704756736755
0.42840152978897095 0.11301814764738083 0.5888810157775879
0.4296097457408905 0.11278150230646133 0.585568368434906
0.4444788992404938 0.2051919549703598 0.44803908467292786
0.3531123697757721 0.21964414417743683 0.6173402070999146
0.2796420156955719 0.2800542712211609 0.4475763142108917
0.24818651378154755 0.13034631311893463 0.4677061140537262
0.40051859617233276 0.17179977893829346 0.4417707622051239
0.4121553301811218 0.14497412741184235 0.5067530870437622
0.3087747395038605 0.20951223373413086 0.4994618892669678
0.3580479025840759 0.11216535419225693 0.5454092621803284
0.43308863043785095 0.17214283347129822 0.5068826675415039
0.3792143762111664 0.1246287152171135 0.5311760306358337
0.25952643156051636 0.21773791313171387 0.6172780990600586
0.2881603538990021 0.1084086075425148 0.5314037799835205
0.39036592841148376 0.2499658614397049 0.4323725998401642
0.3204525113105774 0.22368620336055756 0.43121591210365295
0.33977705240249634 0.10770102590322495 0.4478656053543091
0.25381073355674744 0.18822309374809265 0.4800487458705902
0.28548526763916016 0.14285117387771606 0.43642130494117737
0.32357871532440186 0.1996479630470276 0.5156047344207764
0.3694012463092804 0.12634114921092987 0.4388834834098816
0.3445795774459839 0.2199534773826599 0.49034592509269714
0.3995411992073059 0.15811969339847565 0.5588697195053101
0.29872453212738037 0.22896820306777954 0.5282070636749268
0.41410064697265625 0.1518273800611496 0.5256717801094055
0.28858011960983276 0.23638683557510376 0.47622257471084595
0.26578566431999207 0.24095959961414337 0.45877987146377563
0.3417150378227234 0.17537745833396912 0.4290408790111542
0.3145187199115753 0.16881029307842255 0.5209097862243652
0.30694615840911865 0.1261816918849945 0.4680156409740448
0.3675852417945862 0.16804848611354828 0.49430936574935913
0.22988490760326385 0.1394888460636139 0.45112940669059753
0.41451454162597656 0.10709790140390396 0.4810073673725128
0.3558283746242523 0.1880146712064743 0.5892441868782043
0.33577290177345276 0.16108167171478271 0.5556427240371704
0.33533212542533875 0.17168480157852173 0.5688526034355164
0.3575649559497833 0.21469762921333313 0.47355344891548157
0.4077463150024414 0.13562358915805817 0.48402687907218933
0.4122120440006256 0.17498528957366943 0.5764304995536804
0.3604598641395569 0.21867714822292328 0.610727846622467
0.2467004358768463 0.13393940031528473 0.550047755241394
0.39719492197036743 0.1516621708869934 0.5463449358940125
0.4479397237300873 0.21016588807106018 0.5062220096588135
0.43896037340164185 0.13872750103473663 0.5480399131774902
0.3010733127593994 0.2033655196428299 0.6080896258354187
0.3024899661540985 0.26696962118148804 0.5551814436912537
0.38957202434539795 0.1331779956817627 0.46695995330810547
0.2833523452281952 0.13692066073417664 0.43426159024238586
0.2721584737300873 0.16309337317943573 0.4323582947254181
0.3074425160884857 0.20812638103961945 0.5246329307556152
0.4217078983783722 0.2257840782403946 0.4459691643714905
0.43847939372062683 0.1981646716594696 0.6033128499984741
0.3527255952358246 0.12243859469890594 0.6181633472442627
0.41327735781669617 0.14155107736587524 0.519875705242157
0.38650068640708923 0.19522100687026978 0.49976256489753723
0.2954951524734497 0.2606329023838043 0.5540022253990173
0.22902217507362366 0.12657664716243744 0.4931171238422394
0.3155072331428528 0.12185937166213989 0.5432758331298828
0.3408477008342743 0.2632017135620117 0.5288146138191223
0.296294242143631 0.1124238669872284 0.6336841583251953
0.32917320728302 0.22491545975208282 0.46610620617866516
0.3609558045864105 0.17070621252059937 0.5241320729255676
0.2686668932437897 0.18441882729530334 0.5928137898445129
0.43264272809028625 0.1637609601020813 0.5536789894104004
0.4366384446620941 0.2234770804643631 0.44874921441078186
0.3666166663169861 0.1324916034936905 0.549248456954956
0.3084601163864136 0.2141856551170349 0.5808306932449341
0.2697376012802124 0.21803776919841766 0.5865603089332581
0.34884318709373474 0.26886454224586487 0.5704662799835205
0.38329219818115234 0.2166694700717926 0.46651408076286316
0.32047373056411743 0.262761652469635 0.4686698615550995
0.23102274537086487 0.1202370673418045 0.4792271554470062
0.42680272459983826 0.15644243359565735 0.4708499610424042
0.3480824828147888 0.2530412971973419 0.4656662046909332
0.35062897205352783 0.2652859389781952 0.5767073035240173
0.41942694783210754 0.11132793128490448 0.4196745455265045
0.40234580636024475 0.1632533073425293 0.5702642798423767
0.2783699333667755 0.23387591540813446 0.587249219417572
0.35557764768600464 0.11760961264371872 0.5989524126052856
0.2587350606918335 0.22815431654453278 0.4640679955482483
0.30751368403434753 0.1593945026397705 0.5161457061767578
0.4452037215232849 0.25409218668937683 0.5582466125488281
0.33069875836372375 0.2417590320110321 0.5465558171272278
0.44630303978919983 0.18009541928768158 0.5908768177032471
0.3374415934085846 0.1102668046951294 0.5792200565338135
0.2498384416103363 0.12160060554742813 0.4344553053379059
0.29691648483276367 0.14168959856033325 0.5616652965545654
0.2928614020347595 0.13370707631111145 0.5120756030082703
0.3365667164325714 0.12401001155376434 0.535211980342865
0.2723352611064911 0.12247738242149353 0.4391879737377167
0.3451308310031891 0.26353904604911804 0.6015613675117493
0.32892006635665894 0.11602213233709335 0.4219890236854553
0.36360183358192444 0.26960399746894836 0.4616343379020691
0.3570494055747986 0.21622632443904877 0.5720586180686951
0.27310043573379517 0.23027461767196655 0.4970642328262329
0.4469139575958252 0.17489752173423767 0.422023206949234
0.3283606171607971 0.20481926202774048 0.5278275012969971
0.4220476448535919 0.21719682216644287 0.6008902788162231
0.46013641357421875 0.23409873247146606 0.4634380638599396
0.35368505120277405 0.11558462679386139 0.5742316842079163
0.4484821557998657 0.2133084088563919 0.5379970669746399
0.3305264115333557 0.18215838074684143 0.5674736499786377
0.29502901434898376 0.2754485607147217 0.5995535850524902
0.4183620512485504 0.12690892815589905 0.5664030909538269
0.4178919196128845 0.1225384920835495 0.5937396287918091
0.3197648525238037 0.2317117601633072 0.5812817811965942
0.28803426027297974 0.1973026841878891 0.6063154339790344
0.4269298017024994 0.2174663245677948 0.558786928653717
0.3708285987377167 0.1801590919494629 0.5492177605628967
0.3896532654762268 0.18331025540828705 0.5652709603309631
0.4098213315010071 0.2213047593832016 0.602125883102417
0.2469707578420639 0.17415359616279602 0.6246231198310852
0.42713895440101624 0.16484248638153076 0.52098149061203
0.3046450912952423 0.14768438041210175 0.5320119857788086
0.365436851978302 0.22755369544029236 0.44515156745910645
0.32052767276763916 0.2035614252090454 0.5621269941329956
0.2360382229089737 0.17547546327114105 0.4288381338119507
0.333584189414978 0.23325997591018677 0.42802101373672485
0.2941441535949707 0.1961619108915329 0.5249212980270386
0.2498675137758255 0.15141449868679047 0.44020169973373413
0.3911651074886322 0.2434738129377365 0.49396899342536926
0.3355029225349426 0.20354561507701874 0.5274378061294556
0.3416577875614166 0.18146419525146484 0.503578782081604
0.4054456055164337 0.23698127269744873 0.4620182514190674
0.349297434091568 0.11993077397346497 0.45576274394989014
0.28755632042884827 0.11422497779130936 0.5841090083122253
0.3174195885658264 0.1402752697467804 0.5795224905014038
0.3398037254810333 0.21855352818965912 0.42649346590042114
0.4438004791736603 0.22252599895000458 0.5882083177566528
0.4499399960041046 0.2138502597808838 0.4154800772666931
0.32437270879745483 0.1739145964384079 0.540859580039978
0.35600370168685913 0.13799059391021729 0.5806815028190613
0.3738544285297394 0.19777099788188934 0.5046354532241821
0.31992214918136597 0.2169366329908371 0.563418447971344
0.29841962456703186 0.1685710996389389 0.5887596607208252
0.3542785942554474 0.1339450180530548 0.48480942845344543
0.4598971903324127 0.22419370710849762 0.5374395251274109
0.30379730463027954 0.210586279630661 0.4546981155872345
0.2510186731815338 0.11544469743967056 0.6210080981254578
0.27925267815589905 0.17899388074874878 0.4285343289375305
0.3306650221347809 0.21734614670276642 0.5128259658813477
0.42010992765426636 0.12956154346466064 0.4610983729362488
0.37982988357543945 0.12834469974040985 0.569007396697998
0.36451318860054016 0.17088213562965393 0.49456533789634705
0.3981660008430481 0.21382395923137665 0.4815213680267334
0.29350465536117554 0.12425932288169861 0.5486894845962524
0.3523356318473816 0.253629595041275 0.6130276918411255
0.43866199254989624 0.15111353993415833 0.5044156312942505
0.2979362905025482 0.2684677541255951 0.5256889462471008
0.38935932517051697 0.1372641921043396 0.49832987785339355
0.3307455778121948 0.1423700898885727 0.4315086305141449
0.2580612003803253 0.21189096570014954 0.44562503695487976
0.28082701563835144 0.28836682438850403 0.46822965145111084
0.4391251802444458 0.2206566482782364 0.4504948854446411
0.3842407464981079 0.17260883748531342 0.5249178409576416
0.4438004791736603 0.22252599895000458 0.5882083177566528
0.4499399960041046 0.2138502597808838 0.4154800772666931
0.32437270879745483 0.1739145964384079 0.540859580039978
0.33269280195236206 0.14640197157859802 0.530968427658081
0.2818422019481659 0.23992420732975006 0.45775333046913147
0.39738011360168457 0.1549936980009079 0.46514320373535156
0.3557053506374359 0.2659321129322052 0.616887092590332
0.327978253364563 0.13066735863685608 0.496768057346344
0.27038174867630005 0.1731179654598236 0.5451330542564392
0.3387635052204132 0.18605084717273712 0.592453122138977
0.32100990414619446 0.2174862176179886 0.4635373651981354
0.2722773253917694 0.157009556889534 0.48364436626434326
0.34463831782341003 0.16562658548355103 0.6087499856948853
0.4031093716621399 0.12597455084323883 0.4574149549007416
0.4140307605266571 0.18775378167629242 0.617287814617157
0.324393630027771 0.2000037580728531 0.5135897994041443
0.42590561509132385 0.132807195186615 0.5803385972976685
0.407824844121933 0.21896319091320038 0.5622330904006958
0.35520634055137634 0.15953928232192993 0.4843345284461975
0.3721104562282562 0.16952462494373322 0.5222404599189758
0.4142778515815735 0.24275973439216614 0.609266459941864
0.3156694173812866 0.24051718413829803 0.458526611328125
0.28329741954803467 0.21896354854106903 0.5857386589050293
0.39602404832839966 0.2326260358095169 0.45004093647003174
0.2694907486438751 0.20047372579574585 0.5792139768600464
0.31236758828163147 0.1120007261633873 0.5390484929084778
0.2809273600578308 0.2616124153137207 0.47245192527770996
0.31761252880096436 0.2087382823228836 0.5697558522224426
0.23459231853485107 0.1150059774518013 0.5388439297676086
0.34769463539123535 0.12593281269073486 0.4307844042778015
0.28419190645217896 0.11547020822763443 0.467740535736084
0.32810232043266296 0.27661433815956116 0.5678861141204834
0.2684679329395294 0.2176753133535385 0.6033498048782349
0.42237865924835205 0.22102627158164978 0.522638738155365
0.39468973875045776 0.11652319878339767 0.41901731491088867
0.4106419086456299 0.10955493152141571 0.4758957624435425
0.2438563108444214 0.12184637784957886 0.628320574760437
0.3077704608440399 0.22353564202785492 0.5321888327598572
0.37734025716781616 0.23182405531406403 0.5340383648872375
0.32379862666130066 0.24876146018505096 0.5018550753593445
0.2601169943809509 0.12029234319925308 0.4344060719013214
0.3100457489490509 0.13205485045909882 0.513523519039154
0.4514608681201935 0.1778661012649536 0.5573156476020813
0.34470778703689575 0.1482124626636505 0.5244846343994141
0.35245880484580994 0.16486184298992157 0.42470839619636536
0.3703456521034241 0.2522014081478119 0.518685519695282
0.43437978625297546 0.1450290083885193 0.49308741092681885
0.3634973466396332 0.11177296936511993 0.4463157057762146
0.2837255001068115 0.21485938131809235 0.5370917320251465
0.2379780113697052 0.12688374519348145 0.5062892436981201
0.41905176639556885 0.14509980380535126 0.5456780195236206
0.32812830805778503 0.25331851840019226 0.5932384133338928
0.3544711470603943 0.19294799864292145 0.5874772071838379
0.4561476707458496 0.22748777270317078 0.561673641204834
0.3412628769874573 0.27519121766090393 0.6020141243934631
0.41682013869285583 0.1888837218284607 0.4874611794948578
0.33793410658836365 0.22563470900058746 0.5504041910171509
0.34007391333580017 0.25191402435302734 0.5897248387336731
0.3423328399658203 0.25940990447998047 0.5392870903015137
0.36785751581192017 0.1848076432943344 0.47224631905555725
0.26665499806404114 0.17288491129875183 0.4556734263896942
0.3662106394767761 0.20070475339889526 0.49030184745788574
0.4054456055164337 0.23698127269744873 0.4620182514190674
0.36092835664749146 0.26862388849258423 0.5230445861816406
0.29486292600631714 0.2765498757362366 0.48854613304138184
0.4236297905445099 0.16842474043369293 0.5178622007369995
0.2555905282497406 0.13543987274169922 0.5829339623451233
0.2738506495952606 0.2099119871854782 0.5567086935043335
0.36133378744125366 0.16381365060806274 0.6086657047271729
0.3863508403301239 0.15663330256938934 0.5628089904785156
0.3003345727920532 0.17112314701080322 0.547991931438446
0.38872331380844116 0.1093028336763382 0.5150195360183716
0.39330533146858215 0.17045243084430695 0.42328187823295593
0.42893797159194946 0.18458351492881775 0.5864397287368774
0.3440649211406708 0.22968436777591705 0.5705147385597229
0.361248254776001 0.1265583336353302 0.565598726272583
0.39840519428253174 0.20325346291065216 0.44641369581222534
0.28044649958610535 0.2218390703201294 0.5674346089363098
0.25500479340553284 0.20117129385471344 0.5553543567657471
0.34119123220443726 0.16214878857135773 0.5336664915084839
0.43660733103752136 0.21256642043590546 0.5969758033752441
0.4124487042427063 0.14200946688652039 0.6005886793136597
0.29238858819007874 0.25864794850349426 0.5975168347358704
0.41403689980506897 0.2597198784351349 0.5512266159057617
0.33754226565361023 0.19345396757125854 0.47274094820022583
0.32901954650878906 0.11236368864774704 0.46362122893333435
0.29813626408576965 0.15673208236694336 0.5070595145225525
0.39758598804473877 0.1489563137292862 0.5367229580879211
0.37500500679016113 0.17470680177211761 0.440139502286911
0.24485257267951965 0.13853442668914795 0.4512082636356354
0.39611226320266724 0.11048905551433563 0.5959444046020508
0.26283571124076843 0.19444142282009125 0.4482933282852173
0.3488074839115143 0.19529573619365692 0.5836325883865356
0.3811880648136139 0.18795379996299744 0.605032205581665
0.4106419086456299 0.10955493152141571 0.4758957624435425
0.4514608681201935 0.1778661012649536 0.5573156476020813
0.34470778703689575 0.1482124626636505 0.5244846343994141
0.29037731885910034 0.2751277685165405 0.5086665749549866
0.3040606677532196 0.20595389604568481 0.576076865196228
0.2845643162727356 0.23393917083740234 0.45440995693206787
0.4161381721496582 0.112826868891716 0.4362872838973999
0.43918630480766296 0.16080884635448456 0.5359092354774475
0.24546334147453308 0.13372592628002167 0.6284746527671814
0.41638824343681335 0.14956669509410858 0.5531198382377625
0.2973725199699402 0.23087406158447266 0.5677911043167114
0.3598707616329193 0.2230755239725113 0.4547630548477173
0.3153432011604309 0.17988134920597076 0.44798868894577026
0.41114673018455505 0.10378219187259674 0.47691285610198975
0.2657960057258606 0.1121453195810318 0.6030454039573669
0.3074685037136078 0.25684458017349243 0.426533579826355
0.27047768235206604 0.1798996776342392 0.48238950967788696
0.2674608528614044 0.22312714159488678 0.5980706214904785
0.4058819115161896 0.10643212497234344 0.4981478154659271
0.3165101706981659 0.12735536694526672 0.5336035490036011
0.2593718469142914 0.1191653311252594 0.6322627663612366
0.275016188621521 0.14325539767742157 0.5454643964767456
0.3701954782009125 0.1858140081167221 0.4304489493370056
0.23670271039009094 0.1668100208044052 0.4897569417953491
0.36661532521247864 0.1764831244945526 0.6239668130874634
0.3005572557449341 0.11626288294792175 0.614104688167572
0.2770596742630005 0.2697228193283081 0.4333224296569824
0.3695279657840729 0.26979151368141174 0.4945802092552185
0.4013853371143341 0.24759609997272491 0.592646598815918
0.35782894492149353 0.11001378297805786 0.5942857265472412
0.3870542645454407 0.18507838249206543 0.5214893817901611
0.4249298870563507 0.12355060875415802 0.6297682523727417
0.3003345727920532 0.17112314701080322 0.547991931438446
0.3741948902606964 0.1345948874950409 0.6116001009941101
0.32475095987319946 0.18761761486530304 0.6157212257385254
0.31483402848243713 0.11889222264289856 0.5849460959434509
0.32255929708480835 0.2629772424697876 0.492875874042511
0.3203382194042206 0.22269494831562042 0.5507140755653381
0.30867865681648254 0.23764380812644958 0.4448341131210327
0.34925198554992676 0.24691469967365265 0.5562273263931274
0.32404735684394836 0.14858387410640717 0.5493618845939636
0.31006574630737305 0.28630703687667847 0.5311833024024963
0.41523411870002747 0.15286390483379364 0.46517303586006165
0.2914578914642334 0.15300226211547852 0.43937426805496216
0.29189252853393555 0.1775946021080017 0.49114587903022766
0.2672828435897827 0.12556906044483185 0.4675244390964508
0.4490243196487427 0.19479486346244812 0.48470616340637207
0.43041563034057617 0.23404009640216827 0.4526393413543701
0.27752798795700073 0.12372869998216629 0.6194475889205933
0.39758598804473877 0.1489563137292862 0.5367229580879211
0.37500500679016113 0.17470680177211761 0.440139502286911
0.24485257267951965 0.13853442668914795 0.4512082636356354
0.39611226320266724 0.11048905551433563 0.5959444046020508
0.26283571124076843 0.19444142282009125 0.4482933282852173
0.3488074839115143 0.19529573619365692 0.5836325883865356
0.3811880648136139 0.18795379996299744 0.605032205581665
0.46080660820007324 0.20400282740592957 0.46571052074432373
0.4239192306995392 0.13067205250263214 0.43683579564094543
0.3232845067977905 0.15815883874893188 0.4714082181453705
0.3798063099384308 0.18343320488929749 0.5734757781028748
0.3544202744960785 0.24833476543426514 0.4286235570907593
0.3679943382740021 0.24387824535369873 0.488790363073349
0.2668042480945587 0.1517411172389984 0.44228142499923706
0.37752723693847656 0.25106021761894226 0.5258397459983826
0.2768940031528473 0.2198263555765152 0.510825514793396
0.35318756103515625 0.11792556196451187 0.5652143359184265
0.4561963975429535 0.2539414167404175 0.5562630891799927
0.3842761516571045 0.13372482359409332 0.4341161549091339
0.40499353408813477 0.10732829570770264 0.5878430008888245
0.25763294100761414 0.1813877373933792 0.49665558338165283
0.4103724956512451 0.14883776009082794 0.5624877214431763
0.33439943194389343 0.1540748029947281 0.5673847794532776
0.4524707496166229 0.1901029795408249 0.5859500169754028
0.44784611463546753 0.1764673888683319 0.4440784752368927
0.32637807726860046 0.12397605180740356 0.4405812621116638
0.43217748403549194 0.15096953511238098 0.5809856057167053
0.43488001823425293 0.24305497109889984 0.42386582493782043
0.3900621831417084 0.22301805019378662 0.4717269539833069
0.35451558232307434 0.25455722212791443 0.5611214637756348
0.2550612688064575 0.17136119306087494 0.5529980659484863
0.4434024393558502 0.1972806751728058 0.5943162441253662
0.29213985800743103 0.1873914748430252 0.42748650908470154
0.31301072239875793 0.21367090940475464 0.4311135709285736
0.389218807220459 0.1856536865234375 0.605932891368866
0.3713613450527191 0.1824607402086258 0.5847857594490051
0.3980754613876343 0.1212415024638176 0.43032702803611755
0.2785416543483734 0.20801366865634918 0.5321283340454102
0.39538878202438354 0.20072828233242035 0.558831512928009
0.34836041927337646 0.26100900769233704 0.5617557764053345
0.22243085503578186 0.11475764960050583 0.45524707436561584
0.2927810549736023 0.2030356377363205 0.5602198243141174
0.3051362931728363 0.21878661215305328 0.6068770289421082
0.2371501475572586 0.14123207330703735 0.5482860207557678
0.4100301265716553 0.2227753847837448 0.4407363831996918
0.32334083318710327 0.19802021980285645 0.555787205696106
0.29237285256385803 0.16805101931095123 0.5543220639228821
0.35168027877807617 0.23943395912647247 0.4680336117744446
0.3661958575248718 0.13453783094882965 0.6094557046890259
0.3720684349536896 0.12799465656280518 0.44230735301971436
0.34225165843963623 0.14810122549533844 0.4987923800945282
0.3023192882537842 0.15752747654914856 0.5212965607643127
0.4007370173931122 0.13824154436588287 0.5297213196754456
0.43068528175354004 0.11757372319698334 0.5023902058601379
0.23670271039009094 0.1668100208044052 0.4897569417953491
0.36661532521247864 0.1764831244945526 0.6239668130874634
0.3024899661540985 0.26696962118148804 0.5551814436912537
0.3928968012332916 0.2122959941625595 0.4805748462677002
0.2721584737300873 0.16309337317943573 0.4323582947254181
0.26086121797561646 0.2227044701576233 0.5016850233078003
0.36715149879455566 0.1319948136806488 0.4580954611301422
0.29081133008003235 0.12043069303035736 0.49764105677604675
0.4330478012561798 0.26402050256729126 0.5877081155776978
0.36203399300575256 0.16160888969898224 0.4241717755794525
0.439945787191391 0.2170029729604721 0.5671958923339844
0.4250485301017761 0.13291633129119873 0.5131992101669312
0.3028873801231384 0.20848411321640015 0.5737380385398865
0.33026695251464844 0.11192398518323898 0.47181251645088196
0.3377869725227356 0.24862316250801086 0.5839215517044067
0.4012867212295532 0.1501063108444214 0.5059380531311035
0.31883278489112854 0.13790585100650787 0.43147432804107666
0.23598501086235046 0.12802082300186157 0.44677793979644775
0.3553089499473572 0.21010367572307587 0.46927303075790405
0.32029232382774353 0.2395167499780655 0.5638694763183594
0.4473724365234375 0.18268251419067383 0.44506415724754333
0.40638092160224915 0.21975859999656677 0.562419056892395
0.4238687753677368 0.13901418447494507 0.6120460629463196
0.28523018956184387 0.15252307057380676 0.5542305111885071
0.37016478180885315 0.1609291434288025 0.4835447669029236
0.40234580636024475 0.1632533073425293 0.5702642798423767
0.3713613450527191 0.1824607402086258 0.5847857594490051
0.3980754613876343 0.1212415024638176 0.43032702803611755
0.2785416543483734 0.20801366865634918 0.5321283340454102
0.39538878202438354 0.20072828233242035 0.558831512928009
0.34836041927337646 0.26100900769233704 0.5617557764053345
0.22243085503578186 0.11475764960050583 0.45524707436561584
0.2927810549736023 0.2030356377363205 0.5602198243141174
0.3051362931728363 0.21878661215305328 0.6068770289421082
0.2371501475572586 0.14123207330703735 0.5482860207557678
0.4100301265716553 0.2227753847837448 0.4407363831996918
0.32334083318710327 0.19802021980285645 0.555787205696106
0.29986608028411865 0.16109243035316467 0.6105836629867554
0.4044274687767029 0.14830251038074493 0.5149271488189697
0.3257821500301361 0.23762167990207672 0.49821364879608154
0.41046014428138733 0.1551690399646759 0.5125999450683594
0.3979365825653076 0.2382873296737671 0.47151657938957214
0.375730037689209 0.11372964084148407 0.4219769537448883
0.29945001006126404 0.2704389691352844 0.4456017315387726
0.30735063552856445 0.20886966586112976 0.5752778053283691
0.2343813180923462 0.11789547652006149 0.47742995619773865
0.42158323526382446 0.11369652301073074 0.6180545091629028
0.3796606957912445 0.1888713240623474 0.5727906227111816
0.2984645366668701 0.28465303778648376 0.5056917667388916
0.3620229661464691 0.23308534920215607 0.5208694338798523
0.33783623576164246 0.2472154051065445 0.46436387300491333
0.2424861490726471 0.1775265485048294 0.5078856348991394
0.2362888902425766 0.11920441687107086 0.4907014071941376
0.26031801104545593 0.11961019784212112 0.44172900915145874
0.2855325937271118 0.24277637898921967 0.47440603375434875
0.4478662312030792 0.16106313467025757 0.5933759808540344
0.36098915338516235 0.2229827344417572 0.5431981682777405
0.2467004358768463 0.13393940031528473 0.550047755241394
0.29213985800743103 0.1873914748430252 0.42748650908470154
0.31301072239875793 0.21367090940475464 0.4311135709285736
0.389218807220459 0.1856536865234375 0.605932891368866
0.3713613450527191 0.1824607402086258 0.5847857594490051
0.3980754613876343 0.1212415024638176 0.43032702803611755
0.2785416543483734 0.20801366865634918 0.5321283340454102
0.39538878202438354 0.20072828233242035 0.558831512928009
0.34836041927337646 0.26100900769233704 0.5617557764053345
0.22243085503578186 0.11475764960050583 0.45524707436561584
0.2927810549736023 0.2030356377363205 0.5602198243141174
0.3051362931728363 0.21878661215305328 0.6068770289421082
0.2371501475572586 0.14123207330703735 0.5482860207557678
0.4100301265716553 0.2227753847837448 0.4407363831996918
0.32334083318710327 0.19802021980285645 0.555787205696106
0.29237285256385803 0.16805101931095123 0.5543220639228821
0.2519550621509552 0.11936914920806885 0.5347369313240051
0.3993341028690338 0.18158842623233795 0.48718833923339844
0.24971064925193787 0.2013990432024002 0.4589938521385193
0.35832712054252625 0.14919845759868622 0.47040271759033203
0.3744741678237915 0.19251669943332672 0.5154604911804199
0.3827717900276184 0.12059425562620163 0.4836122989654541
0.4000306725502014 0.10944025218486786 0.6303402185440063
0.4628244638442993 0.24533192813396454 0.5150377154350281
0.24201445281505585 0.169313445687294 0.5230194330215454
0.357506662607193 0.22458510100841522 0.48317334055900574
0.3284861743450165 0.16531892120838165 0.5105103254318237
0.44912511110305786 0.23782436549663544 0.5399221181869507
0.42876070737838745 0.21108980476856232 0.4463525712490082
0.33541879057884216 0.18559952080249786 0.5750499963760376
0.3226832449436188 0.11991214007139206 0.4464541971683502
0.23902156949043274 0.1739834100008011 0.5170387029647827
0.46308234333992004 0.24099323153495789 0.48329728841781616
0.35782894492149353 0.11001378297805786 0.5942857265472412
0.44871389865875244 0.2331426441669464 0.5774186849594116
0.3811880648136139 0.18795379996299744 0.605032205581665
0.46080660820007324 0.20400282740592957 0.46571052074432373
0.4239192306995392 0.13067205250263214 0.43683579564094543
0.3232845067977905 0.15815883874893188 0.4714082181453705
0.31960710883140564 0.1946350634098053 0.5111446976661682
0.28653693199157715 0.20335623621940613 0.5938192009925842
0.2789352238178253 0.1592472642660141 0.4742707312107086
0.42611029744148254 0.13261528313159943 0.5400755405426025
0.34950199723243713 0.22968994081020355 0.5254195928573608
0.4666156768798828 0.21931014955043793 0.4716580808162689
0.34331899881362915 0.22425046563148499 0.4256322383880615
0.40891823172569275 0.11929520964622498 0.43328550457954407
0.2811923325061798 0.21139413118362427 0.4933468699455261
0.339018851518631 0.25999027490615845 0.4906546473503113
0.4350205361843109 0.12813645601272583 0.6182140707969666
0.4322991967201233 0.2147148847579956 0.6144366264343262
0.3539181649684906 0.157828688621521 0.5126585960388184
0.3155156075954437 0.2210170328617096 0.59458988904953
0.3012533485889435 0.12947966158390045 0.5717038512229919
0.328510582447052 0.25097209215164185 0.4711557626724243
0.3542456328868866 0.11071138828992844 0.47284427285194397
0.39236342906951904 0.2608315050601959 0.44185495376586914
0.3095972537994385 0.11285556107759476 0.5095760226249695
0.2532999515533447 0.1417161524295807 0.5119139552116394
0.36782142519950867 0.23670771718025208 0.5973023772239685
0.3598646819591522 0.19436529278755188 0.5919362902641296
0.22881367802619934 0.14408324658870697 0.4925457239151001
0.29890888929367065 0.28558534383773804 0.45526832342147827
0.39094090461730957 0.22193899750709534 0.5685830116271973
0.22743716835975647 0.14230012893676758 0.43655166029930115
0.2721584737300873 0.16309337317943573 0.4323582947254181
0.3074425160884857 0.20812638103961945 0.5246329307556152
0.4217078983783722 0.2257840782403946 0.4459691643714905
0.26787954568862915 0.12083283066749573 0.4348022937774658
0.3619789183139801 0.25470471382141113 0.5151475071907043
0.3400353789329529 0.21754834055900574 0.48302486538887024
0.3312735855579376 0.11052791774272919 0.5238896012306213
0.3743337094783783 0.1558368057012558 0.453841894865036
0.39091581106185913 0.12608176469802856 0.5494331121444702
0.39934608340263367 0.22721359133720398 0.5633846521377563
0.4119105935096741 0.10413678735494614 0.49877744913101196
0.378911554813385 0.11243835091590881 0.6168604493141174
0.3341606557369232 0.16448968648910522 0.6102219820022583
0.42179641127586365 0.15343698859214783 0.5233213901519775
0.2722848355770111 0.16263088583946228 0.6241064667701721
0.41544580459594727 0.10162496566772461 0.4729444086551666
0.32461073994636536 0.24805580079555511 0.511619508266449
0.38764896988868713 0.183333158493042 0.6214378476142883
0.3203504979610443 0.11767834424972534 0.6242697238922119
0.3471231460571289 0.2094355821609497 0.47483038902282715
0.4418773055076599 0.21789120137691498 0.4777432978153229
0.3264838457107544 0.12762339413166046 0.5324245691299438
0.39228522777557373 0.12414200603961945 0.6314247846603394
0.2904464304447174 0.14286589622497559 0.6197919249534607
0.36335355043411255 0.2583670914173126 0.5087818503379822
0.33947423100471497 0.14114408195018768 0.5619056820869446
0.46722155809402466 0.24877461791038513 0.5380412936210632
0.29063063859939575 0.28223365545272827 0.43137115240097046
0.25896260142326355 0.20979377627372742 0.5911989808082581
0.3296014666557312 0.16372813284397125 0.44357365369796753
0.46975618600845337 0.2369382530450821 0.5450344681739807
0.2550612688064575 0.17136119306087494 0.5529980659484863
0.43284621834754944 0.2558821439743042 0.5351775884628296
0.3687772750854492 0.22944863140583038 0.5998131632804871
0.25710225105285645 0.11722421646118164 0.545016884803772
0.3400353789329529 0.21754834055900574 0.48302486538887024
0.3312735855579376 0.11052791774272919 0.5238896012306213
0.3743337094783783 0.1558368057012558 0.453841894865036
0.40909284353256226 0.11374291777610779 0.5676985383033752
0.3747496008872986 0.2505476772785187 0.5303996801376343
0.42917150259017944 0.19677306711673737 0.5547465085983276
0.4069148004055023 0.11342553049325943 0.44762030243873596
0.3064507842063904 0.260897159576416 0.48442837595939636
0.319934606552124 0.17864173650741577 0.580041229724884
0.33813613653182983 0.10877056419849396 0.5178773999214172
0.33291497826576233 0.21624282002449036 0.4644603133201599
0.408924400806427 0.1088070422410965 0.49005499482154846
0.3992348611354828 0.15075279772281647 0.4388726055622101
0.3538026809692383 0.2727682292461395 0.5554385781288147
0.31005123257637024 0.23029568791389465 0.5583013296127319
0.32451149821281433 0.1380777508020401 0.4219157099723816
0.2763282358646393 0.25982266664505005 0.5061366558074951
0.4004485011100769 0.18155038356781006 0.6027761697769165
0.44574370980262756 0.1764868050813675 0.6163705587387085
0.32640594244003296 0.18521955609321594 0.5511344075202942
0.3886260390281677 0.2624630928039551 0.5094674825668335
0.46253666281700134 0.23812739551067352 0.5776702761650085
0.4696073532104492 0.24272824823856354 0.5706492066383362
0.3078135848045349 0.1182878166437149 0.4350132644176483
0.4086228907108307 0.18171094357967377 0.5863593220710754
0.36579805612564087 0.2041999250650406 0.5293493866920471
0.3744463324546814 0.2603672742843628 0.5711444020271301
0.3124105930328369 0.12353353202342987 0.5540205836296082
0.3811880648136139 0.18795379996299744 0.605032205581665
0.46080660820007324 0.20400282740592957 0.46571052074432373
0.4239192306995392 0.13067205250263214 0.43683579564094543
0.3232845067977905 0.15815883874893188 0.4714082181453705
0.3798063099384308 0.18343320488929749 0.5734757781028748
0.3544202744960785 0.24833476543426514 0.4286235570907593
0.3679943382740021 0.24387824535369873 0.488790363073349
0.2668042480945587 0.1517411172389984 0.44228142499923706
0.37752723693847656 0.25106021761894226 0.5258397459983826
0.42611029744148254 0.13261528313159943 0.5400755405426025
0.34950199723243713 0.22968994081020355 0.5254195928573608
0.4632135331630707 0.21693751215934753 0.47452598810195923
0.30367228388786316 0.27360841631889343 0.47696685791015625
0.35616225004196167 0.11969052255153656 0.6028994917869568
0.36787149310112 0.16343936324119568 0.5376678705215454
0.3413566052913666 0.16523025929927826 0.5263646245002747
0.43214526772499084 0.1986883580684662 0.5258126854896545
0.28301236033439636 0.2727636992931366 0.5334435701370239
0.41238829493522644 0.1501850038766861 0.4568103849887848
0.21983498334884644 0.12090080976486206 0.47616568207740784
0.36533910036087036 0.24319253861904144 0.46738332509994507
0.39840632677078247 0.17421875894069672 0.5156741142272949
0.25534555315971375 0.18724791705608368 0.4426168203353882
0.2532999515533447 0.1417161524295807 0.5119139552116394
0.36782142519950867 0.23670771718025208 0.5973023772239685
0.27409523725509644 0.13672420382499695 0.5222883224487305
0.28170692920684814 0.2361784428358078 0.6019822359085083
0.22881367802619934 0.14408324658870697 0.4925457239151001
0.24775390326976776 0.11966366320848465 0.6063607335090637
0.39094090461730957 0.22193899750709534 0.5685830116271973
0.3101249039173126 0.2289588302373886 0.5348266959190369
0.434398353099823 0.12688961625099182 0.5259906649589539
0.35328611731529236 0.2519047260284424 0.5373267531394958
0.34416884183883667 0.25769665837287903 0.5177931785583496
0.32538527250289917 0.12594623863697052 0.5424641966819763
0.28867828845977783 0.10949055850505829 0.502044141292572
0.3327919840812683 0.1358366161584854 0.6216462850570679
0.3232104778289795 0.219447061419487 0.48124927282333374
0.30437973141670227 0.1990075558423996 0.44565555453300476
0.4272707402706146 0.11178326606750488 0.5225446820259094
0.34883323311805725 0.27101755142211914 0.508920431137085
0.3175523579120636 0.20245608687400818 0.4624162018299103
0.4244720935821533 0.2452133446931839 0.5030454993247986
0.4205121099948883 0.2094314694404602 0.5832507610321045
0.36782142519950867 0.23670771718025208 0.5973023772239685
0.27409523725509644 0.13672420382499695 0.5222883224487305
0.28170692920684814 0.2361784428358078 0.6019822359085083
0.24721111357212067 0.1239732876420021 0.6322481036186218
0.3587243854999542 0.16275569796562195 0.5238325595855713
0.3601979911327362 0.12788096070289612 0.5253406763076782
0.42098990082740784 0.2066386193037033 0.5311551690101624
0.45150408148765564 0.18114390969276428 0.4522284269332886
0.36412715911865234 0.16542863845825195 0.46730849146842957
0.41301167011260986 0.238897904753685 0.5294423699378967
0.41026514768600464 0.12013276666402817 0.453093558549881
0.40980514883995056 0.18276764452457428 0.5589673519134521
0.4534907341003418 0.2436072677373886 0.5478744506835938
0.4217216670513153 0.17719916999340057 0.45000070333480835
0.3080632984638214 0.11099517345428467 0.4847492277622223
0.349737286567688 0.2081037163734436 0.5419321656227112
0.2786608934402466 0.15160097181797028 0.44324755668640137
0.4471732974052429 0.22930027544498444 0.43231597542762756
0.2995530366897583 0.1646994799375534 0.447419673204422
0.3712409436702728 0.2357875108718872 0.5212859511375427
0.36222538352012634 0.2053712159395218 0.5767776966094971
0.37752723693847656 0.25106021761894226 0.5258397459983826
0.3016650974750519 0.2298881858587265 0.6050494313240051
0.3466721475124359 0.15728558599948883 0.4291142225265503
0.29974085092544556 0.21963678300380707 0.5818017721176147
0.4243164658546448 0.2025604099035263 0.43248599767684937
0.3932516872882843 0.21613827347755432 0.5620750188827515
0.38419994711875916 0.1177152544260025 0.537115216255188
0.32314902544021606 0.20232895016670227 0.5272104740142822
0.3200753331184387 0.14703357219696045 0.6093872785568237
0.3910709023475647 0.19782401621341705 0.46179503202438354
0.3875848948955536 0.1806427389383316 0.4508384168148041
0.37835273146629333 0.21476590633392334 0.5403062105178833
0.2684137225151062 0.11462248861789703 0.4783460795879364
0.41090184450149536 0.10775832086801529 0.6183199286460876
0.32822561264038086 0.16774140298366547 0.5496065020561218
0.29321804642677307 0.23864082992076874 0.5045276284217834
0.2886653542518616 0.2017543613910675 0.5254380702972412
0.3540704846382141 0.27028658986091614 0.43107423186302185
0.29278698563575745 0.15198655426502228 0.5295069813728333
0.4023209512233734 0.24215780198574066 0.43662431836128235
0.43259111046791077 0.24332907795906067 0.54384845495224
0.40477001667022705 0.14125485718250275 0.5154446959495544
0.40785059332847595 0.17310255765914917 0.6082893013954163
0.34310057759284973 0.2747390568256378 0.4984208643436432
0.3107186257839203 0.1435444951057434 0.5598315596580505
0.2678014934062958 0.1683730036020279 0.6067741513252258
0.4226935803890228 0.14714379608631134 0.42423123121261597
0.26305028796195984 0.1494811773300171 0.47790440917015076
0.27519339323043823 0.2536478340625763 0.5485382080078125
0.3127082586288452 0.23788684606552124 0.5962135195732117
0.4044361710548401 0.12796831130981445 0.6090061664581299
0.3484593629837036 0.19436132907867432 0.5923992991447449
0.31195810437202454 0.13036271929740906 0.5492066144943237
0.33755865693092346 0.25063443183898926 0.43487703800201416
0.356190949678421 0.1787739098072052 0.5335780382156372
0.2603563070297241 0.18943168222904205 0.44467273354530334
0.39518722891807556 0.12779632210731506 0.4530281126499176
0.2773863971233368 0.16064795851707458 0.6241199970245361
0.2830313742160797 0.11473199725151062 0.5284857749938965
0.40599045157432556 0.16944484412670135 0.5651934742927551
0.38360336422920227 0.10873788595199585 0.5522212386131287
0.4135687053203583 0.10628955811262131 0.5997572541236877
0.3297428488731384 0.23248858749866486 0.4787212312221527
0.2863852381706238 0.148509219288826 0.5532326102256775
0.4146495461463928 0.1201867163181305 0.5113614201545715
0.3461433947086334 0.19355346262454987 0.53781658411026
0.2622692883014679 0.1698065996170044 0.4405847191810608
