ply
format ascii 1.0
element vertex 829
property float x
property float y
property float z
end_header
0.7194523215293884 0.12613222002983093 0.5684760808944702
0.8477041721343994 0.12729322910308838 0.4062736928462982
0.7181910872459412 0.12858650088310242 0.43647950887680054
0.7406278252601624 0.17235490679740906 0.5783293843269348
0.8506624698638916 0.1514337956905365 0.40209734439849854
0.7259833812713623 0.12770363688468933 0.5789379477500916
0.8372625112533569 0.25594520568847656 0.4570961594581604
0.8282068967819214 0.12088929861783981 0.453040212392807
0.8706343770027161 0.11683984845876694 0.5136479735374451
0.8031819462776184 0.23922014236450195 0.5180888772010803
0.706430971622467 0.27722546458244324 0.42145806550979614
0.6582366228103638 0.2250528782606125 0.4428623616695404
0.7562214732170105 0.24192529916763306 0.404164582490921
0.706677258014679 0.2726258933544159 0.4073110520839691
0.7813881635665894 0.26410821080207825 0.3932514786720276
0.6954200267791748 0.16902302205562592 0.502748429775238
0.7212269902229309 0.24506738781929016 0.44171592593193054
0.8247154951095581 0.15890461206436157 0.37560319900512695
0.8674331903457642 0.13567791879177094 0.5128515362739563
0.8492154479026794 0.16781866550445557 0.5262118577957153
0.7132300138473511 0.18533402681350708 0.388522744178772
0.8744890689849854 0.13894185423851013 0.5132813453674316
0.801180899143219 0.1294560432434082 0.5231084227561951
0.7075035572052002 0.21498072147369385 0.5027742385864258
0.7442526817321777 0.20207887887954712 0.5059167742729187
0.8460602164268494 0.15438634157180786 0.42557600140571594
0.783639669418335 0.11638300865888596 0.4395260810852051
0.7037522792816162 0.24125191569328308 0.5580587387084961
0.6746225953102112 0.24098220467567444 0.5052381157875061
0.8189656138420105 0.18951605260372162 0.4159791171550751
0.7487972378730774 0.23333784937858582 0.40777549147605896
0.8103050589561462 0.1519521325826645 0.4964560568332672
0.8149741291999817 0.25674235820770264 0.45657357573509216
0.7029252052307129 0.16286399960517883 0.46281135082244873
0.7037688493728638 0.11453092843294144 0.45921313762664795
0.7914635539054871 0.11575327068567276 0.41157805919647217
0.7059788107872009 0.143442302942276 0.543682873249054
0.7368085980415344 0.24404944479465485 0.5026934742927551
0.8244789838790894 0.11046678572893143 0.5520356297492981
0.7265728712081909 0.24058504402637482 0.4204913079738617
0.8066693544387817 0.13729380071163177 0.5399282574653625
0.7782885432243347 0.27306294441223145 0.4513486325740814
0.7757003903388977 0.22832085192203522 0.4069439768791199
0.7102319002151489 0.22626036405563354 0.5872266888618469
0.7411250472068787 0.10847456008195877 0.5255563855171204
0.7962795495986938 0.20426996052265167 0.45813342928886414
0.7687334418296814 0.19311189651489258 0.47267264127731323
0.7108297944068909 0.1542121320962906 0.533082127571106
0.8047382831573486 0.270650714635849 0.4246072471141815
0.8001949191093445 0.15607091784477234 0.5042294859886169
0.7260044813156128 0.2695907652378082 0.41710785031318665
0.7501052021980286 0.27163589000701904 0.39428508281707764
0.8335166573524475 0.24540482461452484 0.3823573887348175
0.8620254397392273 0.1649102419614792 0.4040127098560333
0.7314671874046326 0.13471882045269012 0.4096164405345917
0.785751461982727 0.10817061364650726 0.5239965319633484
0.7660350799560547 0.178618922829628 0.47581154108047485
0.7448347806930542 0.15282461047172546 0.411060094833374
0.7078148126602173 0.2425723671913147 0.463309109210968
0.7819116115570068 0.1744876354932785 0.5332282781600952
0.7911754250526428 0.2669607698917389 0.4543578624725342
0.7472838163375854 0.14193600416183472 0.3892822265625
0.7263164520263672 0.23822104930877686 0.40290921926498413
0.7788907289505005 0.24814151227474213 0.4066828787326813
0.8529596328735352 0.20343747735023499 0.5260491967201233
0.71280837059021 0.11015576124191284 0.38839972019195557
0.7515814304351807 0.2706129550933838 0.5777958035469055
0.7822038531303406 0.11030934005975723 0.4066123962402344
0.7558967471122742 0.19100964069366455 0.5536156296730042
0.868364155292511 0.13442501425743103 0.4430035948753357
0.6979035139083862 0.18081849813461304 0.4244484305381775
0.7976327538490295 0.2278539091348648 0.5644627809524536
0.7848024964332581 0.26119863986968994 0.4971088171005249
0.8376984596252441 0.1800970882177353 0.3820618689060211
0.8323967456817627 0.18356561660766602 0.37066975235939026
0.7058940529823303 0.22615540027618408 0.474372923374176
0.6727197766304016 0.2596752643585205 0.4618634879589081
0.780159592628479 0.14890258014202118 0.4776281416416168
0.8578863739967346 0.11698323488235474 0.45539334416389465
0.7219398021697998 0.1134495958685875 0.5562340021133423
0.7694297432899475 0.1488240510225296 0.5466079115867615
0.7274790406227112 0.23210646212100983 0.5208592414855957
0.7106268405914307 0.2220001369714737 0.4577845335006714
0.7962795495986938 0.20426996052265167 0.45813342928886414
0.7687334418296814 0.19311189651489258 0.47267264127731323
0.765177845954895 0.15857236087322235 0.4836162030696869
0.8391104340553284 0.11518404632806778 0.4083344638347626
0.7322991490364075 0.11865964531898499 0.4239552319049835
0.8273133635520935 0.1351635903120041 0.5513356924057007
0.729491114616394 0.2339053601026535 0.4020138680934906
0.6986541152000427 0.24846388399600983 0.5144060850143433
0.8489445447921753 0.1540439873933792 0.41369444131851196
0.7660069465637207 0.2077750712633133 0.482003778219223
0.8327566385269165 0.14170688390731812 0.5565855503082275
0.8417222499847412 0.11624708771705627 0.4035177528858185
0.7650890946388245 0.10858096927404404 0.4975334107875824
0.7628856897354126 0.1114434003829956 0.37367045879364014
0.7000782489776611 0.25486940145492554 0.5162492394447327
0.841521143913269 0.15103520452976227 0.4779075086116791
0.727138102054596 0.11209643632173538 0.5428619384765625
0.7370568513870239 0.25752314925193787 0.5454712510108948
0.6741452813148499 0.20493872463703156 0.46516942977905273
0.7579562664031982 0.14049914479255676 0.5602377653121948
0.8081726431846619 0.2057918906211853 0.5010702013969421
0.8466235995292664 0.26848822832107544 0.4774593412876129
0.716027557849884 0.11241348087787628 0.509608805179596
0.8347539901733398 0.24195842444896698 0.3821074366569519
0.7308080196380615 0.14650166034698486 0.4955727458000183
0.8091943264007568 0.12124420702457428 0.40741485357284546
0.7475969791412354 0.13260512053966522 0.386402428150177
0.866879940032959 0.12024201452732086 0.5153781175613403
0.7303075194358826 0.18658901751041412 0.4609655737876892
0.7520454525947571 0.19456084072589874 0.5199460983276367
0.8123244643211365 0.25897207856178284 0.4372354745864868
0.6913373470306396 0.22883768379688263 0.4429340660572052
0.713396430015564 0.18220509588718414 0.4907987117767334
0.7973775267601013 0.22048185765743256 0.4447551667690277
0.8160809874534607 0.2135309875011444 0.5113031268119812
0.776541531085968 0.22569920122623444 0.4907245635986328
0.8128157258033752 0.2583784759044647 0.4167414605617523
0.7277389764785767 0.23617355525493622 0.5844477415084839
0.8744890689849854 0.13894185423851013 0.5132813453674316
0.8414609432220459 0.20750868320465088 0.45700791478157043
0.7995625138282776 0.11323705315589905 0.5545110702514648
0.8448492288589478 0.24981558322906494 0.5330724716186523
0.7128961086273193 0.1408945471048355 0.39314016699790955
0.7449779510498047 0.12855248153209686 0.4009677469730377
0.7307240962982178 0.19855712354183197 0.5293933153152466
0.8034473657608032 0.19520795345306396 0.39458733797073364
0.804088830947876 0.2501486539840698 0.4250221848487854
0.678027868270874 0.1808561235666275 0.4098392128944397
0.7724296450614929 0.15900900959968567 0.515300452709198
0.7367507219314575 0.23367522656917572 0.4617724120616913
0.8507652282714844 0.18284296989440918 0.5301385521888733
0.6821697950363159 0.10574459284543991 0.4249213933944702
0.688690185546875 0.23354706168174744 0.5900295972824097
0.7725178003311157 0.15794514119625092 0.46508514881134033
0.7464500665664673 0.23845858871936798 0.5372274518013
0.6948181986808777 0.22350624203681946 0.5318444967269897
0.7578548789024353 0.17843294143676758 0.39015620946884155
0.7575260996818542 0.11821576207876205 0.4713398516178131
0.6762161254882812 0.25932183861732483 0.5897566080093384
0.8511366844177246 0.14147411286830902 0.5039845705032349
0.8165382146835327 0.26699188351631165 0.5697081685066223
0.805203914642334 0.2728724777698517 0.5113052129745483
0.8100932240486145 0.11431904137134552 0.47262752056121826
0.8628828525543213 0.17631450295448303 0.4930606186389923
0.8330747485160828 0.2541964054107666 0.45733341574668884
0.8190196752548218 0.11749567836523056 0.4981575012207031
0.7479968070983887 0.24907132983207703 0.5319051146507263
0.669546365737915 0.26306697726249695 0.43856003880500793
0.8079848289489746 0.11805731058120728 0.40623846650123596
0.725350558757782 0.11682962626218796 0.44918981194496155
0.6829971671104431 0.18869177997112274 0.5177091360092163
0.6621522307395935 0.26529720425605774 0.4807063639163971
0.7221429944038391 0.18995103240013123 0.4250652492046356
0.7961733341217041 0.16689516603946686 0.5663095116615295
0.7784785032272339 0.27342545986175537 0.4232842028141022
0.7522330284118652 0.20981021225452423 0.551663339138031
0.7920687794685364 0.14650171995162964 0.47542455792427063
0.8260831832885742 0.11835065484046936 0.5074689984321594
0.703632116317749 0.2702588438987732 0.5082831978797913
0.7298517227172852 0.15637394785881042 0.49161118268966675
0.7521634697914124 0.13608025014400482 0.5177125930786133
0.8504848480224609 0.12445136159658432 0.4758283197879791
0.8132271766662598 0.25204235315322876 0.5342392325401306
0.7757003903388977 0.22832085192203522 0.4069439768791199
0.7191161513328552 0.23985889554023743 0.5746936798095703
0.716296911239624 0.18085192143917084 0.5776436924934387
0.6835131645202637 0.1482132524251938 0.4460490643978119
0.7938067317008972 0.18208372592926025 0.5169777274131775
0.8497500419616699 0.16801442205905914 0.5163158178329468
0.7882570028305054 0.12212353199720383 0.5296111702919006
0.706677258014679 0.2726258933544159 0.4073110520839691
0.7813881635665894 0.26410821080207825 0.3932514786720276
0.6954200267791748 0.16902302205562592 0.502748429775238
0.7212269902229309 0.24506738781929016 0.44171592593193054
0.8247154951095581 0.15890461206436157 0.37560319900512695
0.6803320646286011 0.2712298333644867 0.443478524684906
0.72164386510849 0.18221674859523773 0.4762205183506012
0.801180899143219 0.1294560432434082 0.5231084227561951
0.7075035572052002 0.21498072147369385 0.5027742385864258
0.7442526817321777 0.20207887887954712 0.5059167742729187
0.7240334153175354 0.1792604774236679 0.5834519863128662
0.7037522792816162 0.24125191569328308 0.5580587387084961
0.6746225953102112 0.24098220467567444 0.5052381157875061
0.8189656138420105 0.18951605260372162 0.4159791171550751
0.7487972378730774 0.23333784937858582 0.40777549147605896
0.8103050589561462 0.1519521325826645 0.4964560568332672
0.8149741291999817 0.25674235820770264 0.45657357573509216
0.7029252052307129 0.16286399960517883 0.46281135082244873
0.7037688493728638 0.11453092843294144 0.45921313762664795
0.7914635539054871 0.11575327068567276 0.41157805919647217
0.7986962795257568 0.22955666482448578 0.4712616503238678
0.6887654066085815 0.1734967976808548 0.5403412580490112
0.7810619473457336 0.27117156982421875 0.45255357027053833
0.6988794803619385 0.22347933053970337 0.4629828631877899
0.8066693544387817 0.13729380071163177 0.5399282574653625
0.7289925813674927 0.15506628155708313 0.5740623474121094
0.8132271766662598 0.25204235315322876 0.5342392325401306
0.8661988973617554 0.11683189868927002 0.4292423725128174
0.8024274110794067 0.18455009162425995 0.5719830393791199
0.8337316513061523 0.22799567878246307 0.44738662242889404
0.8700568079948425 0.13474197685718536 0.42397937178611755
0.7119752764701843 0.1590922325849533 0.5132424831390381
0.7450149655342102 0.2052597999572754 0.4082780182361603
0.8377937078475952 0.11117419600486755 0.4721360504627228
0.789913535118103 0.12721741199493408 0.4975903034210205
0.8244345188140869 0.13401098549365997 0.49238187074661255
0.84189772605896 0.11832081526517868 0.41907158493995667
0.8170928359031677 0.13491053879261017 0.46631941199302673
0.8334264159202576 0.15633133053779602 0.4165990352630615
0.7671005725860596 0.11511410027742386 0.39167270064353943
0.7720775604248047 0.25323498249053955 0.42643874883651733
0.8300276398658752 0.12188263982534409 0.4356757700443268
0.6775158643722534 0.24811361730098724 0.45865216851234436
0.7612267136573792 0.18840385973453522 0.5462907552719116
0.8641123175621033 0.20231720805168152 0.5069610476493835
0.7835097908973694 0.2587532699108124 0.5012083649635315
0.7187531590461731 0.16293025016784668 0.5606052279472351
0.6927902698516846 0.19776222109794617 0.526960015296936
0.72776198387146 0.24014385044574738 0.5039178729057312
0.8311202526092529 0.1076391264796257 0.5127821564674377
0.7507617473602295 0.11912470310926437 0.37356388568878174
0.6987443566322327 0.1442313939332962 0.44352367520332336
0.7999571561813354 0.23392724990844727 0.4642452299594879
0.7880876660346985 0.14486198127269745 0.39664751291275024
0.7997444868087769 0.2418777346611023 0.4204612672328949
0.7941545248031616 0.17552046477794647 0.5593315362930298
0.7579531669616699 0.11274876445531845 0.48376715183258057
0.6815255880355835 0.12723441421985626 0.3883498013019562
0.7932968139648438 0.1266574263572693 0.5390165448188782
0.8094831109046936 0.23593787848949432 0.5409494638442993
0.7346678376197815 0.1282069832086563 0.49714094400405884
0.8211803436279297 0.26661255955696106 0.4385562241077423
0.8048744201660156 0.2012738138437271 0.4275701642036438
0.7989513874053955 0.16035394370555878 0.4063783586025238
0.8169437646865845 0.2742810547351837 0.40036144852638245
0.8536574244499207 0.18788380920886993 0.537507951259613
0.7027707695960999 0.18540126085281372 0.4034882187843323
0.6853826642036438 0.16204194724559784 0.46178874373435974
0.7542033791542053 0.12520453333854675 0.38561737537384033
0.6969174742698669 0.19123931229114532 0.5851988792419434
0.787317156791687 0.16889452934265137 0.4530499577522278
0.7257144451141357 0.11182833462953568 0.500328779220581
0.795351505279541 0.11145910620689392 0.5582872629165649
0.7453320622444153 0.14861756563186646 0.4968380928039551
0.858273983001709 0.22700321674346924 0.4808727204799652
0.6557018160820007 0.2607291042804718 0.41086193919181824
0.8323421478271484 0.19513429701328278 0.5618203282356262
0.6912049055099487 0.1796647161245346 0.487115740776062
0.7095046639442444 0.18515413999557495 0.48354795575141907
0.7516757845878601 0.24180476367473602 0.43528813123703003
0.8174285888671875 0.1703440546989441 0.42729461193084717
0.7286099791526794 0.1390967220067978 0.468727171421051
0.7064543962478638 0.17172524333000183 0.4337596595287323
0.8263833522796631 0.24844250082969666 0.5382933616638184
0.8439799547195435 0.2637045681476593 0.4012768864631653
0.8557671308517456 0.19286584854125977 0.3778846859931946
0.732119619846344 0.14882983267307281 0.5412108302116394
0.7665408849716187 0.11558668315410614 0.52989262342453
0.7342167496681213 0.2723032534122467 0.4485569894313812
0.681411623954773 0.247489333152771 0.41817325353622437
0.8179691433906555 0.11104883998632431 0.5309842228889465
0.6778366565704346 0.17869506776332855 0.4539521634578705
0.8136528134346008 0.24089927971363068 0.5170629024505615
0.823991060256958 0.2051338404417038 0.5624687075614929
0.75724858045578 0.2555071711540222 0.5287896394729614
0.7775915265083313 0.14687864482402802 0.49919068813323975
0.855220377445221 0.15669561922550201 0.5436282753944397
0.8352593779563904 0.23067913949489594 0.4791129231452942
0.706677258014679 0.2726258933544159 0.4073110520839691
0.8297119736671448 0.2319151759147644 0.4372127652168274
0.7674535512924194 0.1391037255525589 0.5416123867034912
0.7034015655517578 0.16598881781101227 0.38989976048469543
0.8166342377662659 0.2888987362384796 0.39218005537986755
0.7154290676116943 0.12115489691495895 0.5371996164321899
0.787317156791687 0.16889452934265137 0.4530499577522278
0.7257144451141357 0.11182833462953568 0.500328779220581
0.795351505279541 0.11145910620689392 0.5582872629165649
0.7453320622444153 0.14861756563186646 0.4968380928039551
0.858273983001709 0.22700321674346924 0.4808727204799652
0.7129715085029602 0.22096289694309235 0.45647257566452026
0.773365318775177 0.1625146120786667 0.3981435298919678
0.7662158608436584 0.2386055439710617 0.5492472052574158
0.7675888538360596 0.1604207307100296 0.44596952199935913
0.6707667112350464 0.22080747783184052 0.5210625529289246
0.750964343547821 0.14648883044719696 0.5605746507644653
0.7743057012557983 0.27879631519317627 0.4425704777240753
0.8218923211097717 0.2694387137889862 0.5600113868713379
0.7174646258354187 0.24503585696220398 0.4992196559906006
0.7244980335235596 0.12747207283973694 0.4912688136100769
0.7960697412490845 0.2623852491378784 0.43073371052742004
0.7373443245887756 0.1214875802397728 0.5487284064292908
0.726718008518219 0.10750239342451096 0.5245481133460999
0.6845765113830566 0.25726595520973206 0.5283074975013733
0.8595226407051086 0.14440277218818665 0.3786293864250183
0.8048591017723083 0.20273829996585846 0.4044419229030609
0.7958179712295532 0.27700239419937134 0.5746820569038391
0.8223947882652283 0.22747448086738586 0.45831793546676636
0.855220377445221 0.15669561922550201 0.5436282753944397
0.8352593779563904 0.23067913949489594 0.4791129231452942
0.706677258014679 0.2726258933544159 0.4073110520839691
0.7813881635665894 0.26410821080207825 0.3932514786720276
0.6954200267791748 0.16902302205562592 0.502748429775238
0.7212269902229309 0.24506738781929016 0.44171592593193054
0.8247154951095581 0.15890461206436157 0.37560319900512695
0.8674331903457642 0.13567791879177094 0.5128515362739563
0.8492154479026794 0.16781866550445557 0.5262118577957153
0.7132300138473511 0.18533402681350708 0.388522744178772
0.8497159481048584 0.1876373291015625 0.48217108845710754
0.730791449546814 0.1287025809288025 0.51930832862854
0.822051465511322 0.22776968777179718 0.5048275589942932
0.7339000701904297 0.19920283555984497 0.44384998083114624
0.7662158608436584 0.2386055439710617 0.5492472052574158
0.7675888538360596 0.1604207307100296 0.44596952199935913
0.7342320680618286 0.18165205419063568 0.5590735077857971
0.6938505172729492 0.11826726049184799 0.4958747923374176
0.8010140657424927 0.2491593360900879 0.46833011507987976
0.8471120595932007 0.24316568672657013 0.5242136120796204
0.7522530555725098 0.2718808650970459 0.5568154454231262
0.7026798725128174 0.12161076813936234 0.5145688056945801
0.7915558218955994 0.23962123692035675 0.4602983295917511
0.7611381411552429 0.10855274647474289 0.5767133235931396
0.7151169180870056 0.14564093947410583 0.5543956756591797
0.8233950138092041 0.17437903583049774 0.47121307253837585
0.7056660652160645 0.2568744421005249 0.3910629451274872
0.8717191219329834 0.14710436761379242 0.5484545826911926
0.8159162998199463 0.28818219900131226 0.45929887890815735
0.799630343914032 0.22257287800312042 0.47894880175590515
0.784366250038147 0.1775655299425125 0.41459399461746216
0.8335254788398743 0.1989343911409378 0.3759957551956177
0.6969174742698669 0.19123931229114532 0.5851988792419434
0.858273983001709 0.22700321674346924 0.4808727204799652
0.7129715085029602 0.22096289694309235 0.45647257566452026
0.773365318775177 0.1625146120786667 0.3981435298919678
0.7662158608436584 0.2386055439710617 0.5492472052574158
0.7675888538360596 0.1604207307100296 0.44596952199935913
0.6707667112350464 0.22080747783184052 0.5210625529289246
0.750964343547821 0.14648883044719696 0.5605746507644653
0.7743057012557983 0.27879631519317627 0.4425704777240753
0.8218923211097717 0.2694387137889862 0.5600113868713379
0.7174646258354187 0.24503585696220398 0.4992196559906006
0.7244980335235596 0.12747207283973694 0.4912688136100769
0.7960697412490845 0.2623852491378784 0.43073371052742004
0.7373443245887756 0.1214875802397728 0.5487284064292908
0.726718008518219 0.10750239342451096 0.5245481133460999
0.6845765113830566 0.25726595520973206 0.5283074975013733
0.8595226407051086 0.14440277218818665 0.3786293864250183
0.8048591017723083 0.20273829996585846 0.4044419229030609
0.7958179712295532 0.27700239419937134 0.5746820569038391
0.8223947882652283 0.22747448086738586 0.45831793546676636
0.7098349332809448 0.2300701141357422 0.3939461410045624
0.7038474678993225 0.19054444134235382 0.47994130849838257
0.7442499995231628 0.28475189208984375 0.3931882977485657
0.7665793895721436 0.12259922176599503 0.5344289541244507
0.8120652437210083 0.11289411783218384 0.46191611886024475
0.7320839166641235 0.15007717907428741 0.48441585898399353
0.8140116930007935 0.2111683487892151 0.5177746415138245
0.7275243997573853 0.18592621386051178 0.5666295886039734
0.6892675161361694 0.16761624813079834 0.46144258975982666
0.7685811519622803 0.21093764901161194 0.49546101689338684
0.7745208740234375 0.22771671414375305 0.39546170830726624
0.779789388179779 0.15791483223438263 0.46068108081817627
0.7724296450614929 0.15900900959968567 0.515300452709198
0.7897817492485046 0.2598935067653656 0.40622541308403015
0.8171348571777344 0.22510254383087158 0.5163483619689941
0.8448194265365601 0.2237408310174942 0.4773169159889221
0.7514181733131409 0.13469046354293823 0.5018485188484192
0.7099145650863647 0.2714388072490692 0.5165352821350098
0.7040295004844666 0.17872168123722076 0.4599735736846924
0.7326375246047974 0.15830856561660767 0.48020443320274353
0.7306659817695618 0.14843663573265076 0.4499880373477936
0.6958122253417969 0.14054305851459503 0.5231537222862244
0.7556197643280029 0.19984346628189087 0.48579996824264526
0.8383589386940002 0.2559792101383209 0.5480201244354248
0.6870032548904419 0.1806046962738037 0.48994237184524536
0.6574010848999023 0.24081332981586456 0.4179370403289795
0.7341060042381287 0.14451202750205994 0.5758587718009949
0.7951057553291321 0.1415441930294037 0.41703057289123535
0.7160636186599731 0.27167433500289917 0.49322956800460815
0.7170374989509583 0.11014242470264435 0.4338103234767914
0.7998542189598083 0.18714658915996552 0.405388742685318
0.8645673990249634 0.1152675673365593 0.40450623631477356
0.8340178728103638 0.24906687438488007 0.4133419692516327
0.7770971655845642 0.195417121052742 0.46612900495529175
0.7384963631629944 0.23721633851528168 0.4194697439670563
0.8222265839576721 0.1654665768146515 0.4405660033226013
0.8421604037284851 0.12806519865989685 0.5118083357810974
0.7136067152023315 0.18163152039051056 0.39304056763648987
0.7437220811843872 0.255104124546051 0.46787595748901367
0.7265462279319763 0.1120530292391777 0.4217885434627533
0.7115294337272644 0.2579038441181183 0.44312337040901184
0.8007274270057678 0.22234822809696198 0.4486340582370758
0.7501320838928223 0.13614065945148468 0.5521489977836609
0.748123288154602 0.19039283692836761 0.4456334710121155
0.7784785032272339 0.27342545986175537 0.4232842028141022
0.8202304244041443 0.12357702106237411 0.3672789931297302
0.868402361869812 0.14672823250293732 0.5495171546936035
0.6943013668060303 0.27095139026641846 0.42607396841049194
0.7433627247810364 0.14706791937351227 0.4889290928840637
0.803834080696106 0.1776277869939804 0.5519841313362122
0.7747199535369873 0.18980418145656586 0.5040290355682373
0.6761839985847473 0.14525124430656433 0.4440195858478546
0.7038388252258301 0.15080790221691132 0.4814459979534149
0.8253219723701477 0.1905941218137741 0.44513699412345886
0.8337316513061523 0.22799567878246307 0.44738662242889404
0.8700568079948425 0.13474197685718536 0.42397937178611755
0.6838851571083069 0.14104361832141876 0.4224989414215088
0.6894322633743286 0.2685362696647644 0.4135189354419708
0.7791303992271423 0.1559411734342575 0.5729925036430359
0.8105416893959045 0.22568842768669128 0.4594181776046753
0.716705858707428 0.2672360837459564 0.5509584546089172
0.8353410363197327 0.11385532468557358 0.4028804898262024
0.7639832496643066 0.28321218490600586 0.410530686378479
0.7574257254600525 0.26573964953422546 0.42963218688964844
0.8361433744430542 0.11622092872858047 0.4243547320365906
0.7115774154663086 0.2565321922302246 0.5208612680435181
0.7251843214035034 0.22493630647659302 0.39623942971229553
0.7590655088424683 0.10716506838798523 0.5468105673789978
0.8113685846328735 0.17933014035224915 0.47408202290534973
0.7149673104286194 0.12123358249664307 0.3801323473453522
0.8415236473083496 0.1828737109899521 0.5276500582695007
0.8564448356628418 0.13670650124549866 0.5416017174720764
0.8369626402854919 0.23276622593402863 0.47989004850387573
0.7744017839431763 0.22646717727184296 0.49475806951522827
0.6896799802780151 0.20836575329303741 0.39094945788383484
0.8108811974525452 0.2033519148826599 0.5267133712768555
0.7641984820365906 0.21508821845054626 0.4186072051525116
0.8146864771842957 0.1930885761976242 0.38371390104293823
0.7766183614730835 0.2663052976131439 0.5283109545707703
0.6761052012443542 0.17653851211071014 0.4243297874927521
0.8447650074958801 0.20297664403915405 0.4562857449054718
0.855687141418457 0.189981609582901 0.554105281829834
0.8298160433769226 0.27384936809539795 0.3775489628314972
0.7112951874732971 0.19158923625946045 0.5160302519798279
0.8471173048019409 0.1927248239517212 0.4147477149963379
0.7205365300178528 0.18675969541072845 0.5798773169517517
0.8530113101005554 0.1990920454263687 0.5393372178077698
0.7235711216926575 0.2234250158071518 0.43036818504333496
0.7481293082237244 0.15907780826091766 0.5356119871139526
0.8666691184043884 0.1216844767332077 0.45931750535964966
0.8186653852462769 0.22534896433353424 0.4688425064086914
0.6915643811225891 0.23392723500728607 0.5399572253227234
0.6950898170471191 0.25230592489242554 0.5004501342773438
0.7997027635574341 0.19722191989421844 0.4816299080848694
0.8287379741668701 0.13604535162448883 0.4073947072029114
0.7710156440734863 0.21265909075737 0.5078277587890625
0.7765020728111267 0.21982741355895996 0.39077383279800415
0.773209810256958 0.1524782031774521 0.49491143226623535
0.8511232733726501 0.21450398862361908 0.38278600573539734
0.8007019758224487 0.11205936223268509 0.5021064281463623
0.8474894762039185 0.15518902242183685 0.4966435432434082
0.7350960373878479 0.22349484264850616 0.5086232423782349
0.685989499092102 0.12730081379413605 0.4888130724430084
0.7864075303077698 0.25830304622650146 0.3822406232357025
0.7583898305892944 0.17718075215816498 0.5650163292884827
0.8439163565635681 0.1124829351902008 0.49771547317504883
0.6947528123855591 0.1271284520626068 0.484422504901886
0.6969467997550964 0.23326925933361053 0.42286187410354614
0.8337316513061523 0.22799567878246307 0.44738662242889404
0.7471769452095032 0.1516055166721344 0.48816803097724915
0.8082070350646973 0.1736007034778595 0.3874843418598175
0.695351779460907 0.25904902815818787 0.5270630121231079
0.7829452157020569 0.1077701598405838 0.43050315976142883
0.6783204674720764 0.13702240586280823 0.44251903891563416
0.7708773612976074 0.2263217270374298 0.562886655330658
0.8547376394271851 0.1755100041627884 0.3731849193572998
0.706864595413208 0.26650765538215637 0.5653253197669983
0.6826872825622559 0.21799638867378235 0.4255715608596802
0.8421288132667542 0.17880800366401672 0.5252937078475952
0.702419102191925 0.12715467810630798 0.41197922825813293
0.7820800542831421 0.25983428955078125 0.4915577471256256
0.7820800542831421 0.25983428955078125 0.4915577471256256
0.7847514152526855 0.2418982833623886 0.5502803921699524
0.8468140959739685 0.1983765959739685 0.4185243248939514
0.7750323414802551 0.19083942472934723 0.39512524008750916
0.7174192667007446 0.1178433820605278 0.4957808554172516
0.7928583025932312 0.12424809485673904 0.47365307807922363
0.7358005046844482 0.11648517847061157 0.5207806825637817
0.6685333847999573 0.1515723019838333 0.4215695261955261
0.8523170948028564 0.17891931533813477 0.4070260226726532
0.6754305958747864 0.26803115010261536 0.4737238883972168
0.8087303638458252 0.27368682622909546 0.47674116492271423
0.7502686977386475 0.1417774260044098 0.5661394596099854
0.7008011937141418 0.24278488755226135 0.5377702713012695
0.7082488536834717 0.2593519687652588 0.4450075626373291
0.7609758377075195 0.21542514860630035 0.4556807279586792
0.8354076743125916 0.223173588514328 0.4954169690608978
0.8223192691802979 0.2752293348312378 0.520856499671936
0.7296563982963562 0.1863371729850769 0.44217541813850403
0.8539513945579529 0.17273853719234467 0.5646634697914124
0.8335254788398743 0.1989343911409378 0.3759957551956177
0.8547376394271851 0.1755100041627884 0.3731849193572998
0.706864595413208 0.26650765538215637 0.5653253197669983
0.6826872825622559 0.21799638867378235 0.4255715608596802
0.8421288132667542 0.17880800366401672 0.5252937078475952
0.702419102191925 0.12715467810630798 0.41197922825813293
0.7820800542831421 0.25983428955078125 0.4915577471256256
0.859345555305481 0.22679442167282104 0.5159018039703369
0.7912325859069824 0.16558584570884705 0.5011393427848816
0.7959131598472595 0.25909775495529175 0.5159167647361755
0.7183764576911926 0.22725287079811096 0.4640720784664154
0.7785102128982544 0.20334117114543915 0.5700975060462952
0.8249704837799072 0.13160522282123566 0.4948068857192993
0.8266534209251404 0.19242557883262634 0.4920039474964142
0.7036645412445068 0.11461339145898819 0.5335400700569153
0.8354076743125916 0.223173588514328 0.4954169690608978
0.8223192691802979 0.2752293348312378 0.520856499671936
0.7257357835769653 0.19943144917488098 0.4463031589984894
0.8146864771842957 0.1930885761976242 0.38371390104293823
0.7766183614730835 0.2663052976131439 0.5283109545707703
0.6761052012443542 0.17653851211071014 0.4243297874927521
0.8447650074958801 0.20297664403915405 0.4562857449054718
0.855687141418457 0.189981609582901 0.554105281829834
0.8298160433769226 0.27384936809539795 0.3775489628314972
0.7112951874732971 0.19158923625946045 0.5160302519798279
0.8471173048019409 0.1927248239517212 0.4147477149963379
0.7205365300178528 0.18675969541072845 0.5798773169517517
0.8530113101005554 0.1990920454263687 0.5393372178077698
0.7235711216926575 0.2234250158071518 0.43036818504333496
0.7481293082237244 0.15907780826091766 0.5356119871139526
0.8666691184043884 0.1216844767332077 0.45931750535964966
0.8186653852462769 0.22534896433353424 0.4688425064086914
0.7039282917976379 0.12040790915489197 0.43828973174095154
0.8564448356628418 0.13670650124549866 0.5416017174720764
0.8369626402854919 0.23276622593402863 0.47989004850387573
0.7744017839431763 0.22646717727184296 0.49475806951522827
0.6896799802780151 0.20836575329303741 0.39094945788383484
0.7753621935844421 0.11585906893014908 0.4974508583545685
0.8016138076782227 0.23676206171512604 0.45951101183891296
0.7491539120674133 0.18026426434516907 0.41917335987091064
0.6919763088226318 0.13383474946022034 0.4381154477596283
0.7055478692054749 0.19407933950424194 0.5461929440498352
0.7094473242759705 0.10733672231435776 0.49304065108299255
0.6857849955558777 0.1575322300195694 0.4743519723415375
0.837369978427887 0.19175398349761963 0.47256043553352356
0.8212353587150574 0.16201287508010864 0.39508235454559326
0.8639513254165649 0.18351300060749054 0.4345695972442627
0.6969286203384399 0.14145715534687042 0.5425974130630493
0.7236677408218384 0.17977045476436615 0.41021469235420227
0.7178806662559509 0.1336074322462082 0.5192502737045288
0.7405892610549927 0.14826005697250366 0.5426028370857239
0.7488593459129333 0.1747615486383438 0.4198444187641144
0.710708498954773 0.25072774291038513 0.5461016297340393
0.6882303953170776 0.1528160572052002 0.42124706506729126
0.8763059377670288 0.13322153687477112 0.5154722929000854
0.6903584003448486 0.2252916842699051 0.5862957239151001
0.8676055073738098 0.10812262445688248 0.5315602421760559
0.8652405142784119 0.16233216226100922 0.4147937297821045
0.7475801110267639 0.17649619281291962 0.48703697323799133
0.6877889633178711 0.2567920982837677 0.4319005012512207
0.7585086226463318 0.1770506650209427 0.57928466796875
0.7436469793319702 0.13765846192836761 0.5514428019523621
0.703944981098175 0.14342652261257172 0.40902766585350037
0.8687174916267395 0.18923990428447723 0.46192002296447754
0.8595226407051086 0.14440277218818665 0.3786293864250183
0.7471769452095032 0.1516055166721344 0.48816803097724915
0.8082070350646973 0.1736007034778595 0.3874843418598175
0.704541027545929 0.24830296635627747 0.5316182971000671
0.7672193646430969 0.11832377314567566 0.3947823643684387
0.7708773612976074 0.2263217270374298 0.562886655330658
0.8547376394271851 0.1755100041627884 0.3731849193572998
0.706864595413208 0.26650765538215637 0.5653253197669983
0.8664401173591614 0.18240463733673096 0.545289933681488
0.6977905035018921 0.10790464282035828 0.5279703140258789
0.6849138736724854 0.21560624241828918 0.5824531316757202
0.692112386226654 0.19831709563732147 0.4390014708042145
0.7372449040412903 0.20442359149456024 0.4050752818584442
0.6682621836662292 0.2588910460472107 0.4431583285331726
0.7358005046844482 0.11648517847061157 0.5207806825637817
0.7685815095901489 0.18963174521923065 0.5590600967407227
0.7314092516899109 0.1356566697359085 0.5226790904998779
0.8266534209251404 0.19242557883262634 0.4920039474964142
0.7036645412445068 0.11461339145898819 0.5335400700569153
0.8354076743125916 0.223173588514328 0.4954169690608978
0.8223192691802979 0.2752293348312378 0.520856499671936
0.7257357835769653 0.19943144917488098 0.4463031589984894
0.8146864771842957 0.1930885761976242 0.38371390104293823
0.7766183614730835 0.2663052976131439 0.5283109545707703
0.6761052012443542 0.17653851211071014 0.4243297874927521
0.8447650074958801 0.20297664403915405 0.4562857449054718
0.855687141418457 0.189981609582901 0.554105281829834
0.8298160433769226 0.27384936809539795 0.3775489628314972
0.7340039610862732 0.25545117259025574 0.5557628273963928
0.7877825498580933 0.23637570440769196 0.5681582093238831
0.8101016283035278 0.27639490365982056 0.40240663290023804
0.8067993521690369 0.1365487426519394 0.5053921341896057
0.8383589386940002 0.2559792101383209 0.5480201244354248
0.8666691184043884 0.1216844767332077 0.45931750535964966
0.8186653852462769 0.22534896433353424 0.4688425064086914
0.7235711216926575 0.2234250158071518 0.43036818504333496
0.7481293082237244 0.15907780826091766 0.5356119871139526
0.8666691184043884 0.1216844767332077 0.45931750535964966
0.7481293082237244 0.15907780826091766 0.5356119871139526
0.8666691184043884 0.1216844767332077 0.45931750535964966
0.8186653852462769 0.22534896433353424 0.4688425064086914
0.8186653852462769 0.22534896433353424 0.4688425064086914
0.6915643811225891 0.23392723500728607 0.5399572253227234
0.6950898170471191 0.25230592489242554 0.5004501342773438
0.7997027635574341 0.19722191989421844 0.4816299080848694
0.7997027635574341 0.19722191989421844 0.4816299080848694
0.8287379741668701 0.13604535162448883 0.4073947072029114
0.7710156440734863 0.21265909075737 0.5078277587890625
0.7350960373878479 0.22349484264850616 0.5086232423782349
0.685989499092102 0.12730081379413605 0.4888130724430084
0.8306794762611389 0.16090543568134308 0.38954952359199524
0.8419557809829712 0.23183034360408783 0.5013454556465149
0.7969985008239746 0.10737844556570053 0.40715333819389343
0.8519492149353027 0.2634814381599426 0.5224287509918213
0.7239384651184082 0.24770896136760712 0.5393170714378357
0.8189995288848877 0.24370552599430084 0.4361165463924408
0.6694895029067993 0.2232741117477417 0.44587868452072144
0.791883111000061 0.11488322913646698 0.4659689962863922
0.8496631383895874 0.12827561795711517 0.3725331723690033
0.8354403972625732 0.12043044716119766 0.40484291315078735
0.8241046071052551 0.11582940071821213 0.4743463695049286
0.8648199439048767 0.19084608554840088 0.46411752700805664
0.7978475093841553 0.21148739755153656 0.4459024965763092
0.7277121543884277 0.20000961422920227 0.5498899817466736
0.7560621500015259 0.2681710124015808 0.42257368564605713
0.7997027635574341 0.19722191989421844 0.4816299080848694
0.8287379741668701 0.13604535162448883 0.4073947072029114
0.7710156440734863 0.21265909075737 0.5078277587890625
0.7765020728111267 0.21982741355895996 0.39077383279800415
0.773209810256958 0.1524782031774521 0.49491143226623535
0.8511232733726501 0.21450398862361908 0.38278600573539734
0.8007019758224487 0.11205936223268509 0.5021064281463623
0.8474894762039185 0.15518902242183685 0.4966435432434082
0.7350960373878479 0.22349484264850616 0.5086232423782349
0.685989499092102 0.12730081379413605 0.4888130724430084
0.7864075303077698 0.25830304622650146 0.3822406232357025
0.7583898305892944 0.17718075215816498 0.5650163292884827
0.8439163565635681 0.1124829351902008 0.49771547317504883
0.6947528123855591 0.1271284520626068 0.484422504901886
0.6969467997550964 0.23326925933361053 0.42286187410354614
0.7177515029907227 0.14155805110931396 0.4311075210571289
0.8632532358169556 0.11507900059223175 0.5432600975036621
0.7978475093841553 0.21148739755153656 0.4459024965763092
0.7277121543884277 0.20000961422920227 0.5498899817466736
0.8492520451545715 0.1694374978542328 0.40480726957321167
0.7841821312904358 0.13247127830982208 0.5557053089141846
0.8214256763458252 0.2848905324935913 0.45056942105293274
0.7288221716880798 0.26375994086265564 0.43192553520202637
0.7910897731781006 0.15207451581954956 0.42682066559791565
0.8546955585479736 0.2696845531463623 0.48718011379241943
0.8197073340415955 0.1826895773410797 0.408568412065506
0.7761697769165039 0.12585386633872986 0.4792413115501404
0.7066621780395508 0.2049265205860138 0.42627283930778503
0.7275553345680237 0.14926227927207947 0.5390437841415405
0.7044225931167603 0.17636574804782867 0.5487104654312134
0.6797114014625549 0.2601509392261505 0.5623154044151306
0.7858036160469055 0.1948549747467041 0.44410085678100586
0.7662447690963745 0.1146903932094574 0.5318583250045776
0.734641969203949 0.2296498715877533 0.5205069184303284
0.7997027635574341 0.19722191989421844 0.4816299080848694
0.8287379741668701 0.13604535162448883 0.4073947072029114
0.7710156440734863 0.21265909075737 0.5078277587890625
0.7765020728111267 0.21982741355895996 0.39077383279800415
0.773209810256958 0.1524782031774521 0.49491143226623535
0.8511232733726501 0.21450398862361908 0.38278600573539734
0.8007019758224487 0.11205936223268509 0.5021064281463623
0.8474894762039185 0.15518902242183685 0.4966435432434082
0.7230666875839233 0.22964799404144287 0.4184960424900055
0.7824548482894897 0.1390739530324936 0.4791090190410614
0.6935362219810486 0.24368229508399963 0.5298247933387756
0.6703669428825378 0.16601383686065674 0.4239952266216278
0.8289608359336853 0.22632335126399994 0.4709738790988922
0.6674787402153015 0.2615131735801697 0.49528640508651733
0.6979973316192627 0.1375441551208496 0.3984481394290924
0.7910509705543518 0.2729322612285614 0.5211580991744995
0.6675442457199097 0.24856477975845337 0.43779292702674866
0.780162513256073 0.21692198514938354 0.5004696846008301
0.6651355028152466 0.16570782661437988 0.390473872423172
0.8595830202102661 0.2803266942501068 0.5050143003463745
0.7157714366912842 0.1900365948677063 0.5844579935073853
0.7600590586662292 0.2833499610424042 0.4168323576450348
0.7089232802391052 0.1143779382109642 0.5674222111701965
0.8010332584381104 0.11780934035778046 0.5613250136375427
0.7575417757034302 0.2392614781856537 0.5211473703384399
0.6727606058120728 0.21293695271015167 0.43076291680336
0.7964293956756592 0.14236335456371307 0.5350613594055176
0.7267112135887146 0.14983627200126648 0.49991413950920105
0.7755179405212402 0.1645617038011551 0.4509188234806061
0.8287776112556458 0.276213139295578 0.4548860490322113
0.7905333638191223 0.14469607174396515 0.500777542591095
0.6853656768798828 0.11537972092628479 0.4473635256290436
0.8163342475891113 0.16145634651184082 0.40342238545417786
0.783941924571991 0.11508141458034515 0.4167759120464325
0.8688738346099854 0.1554819643497467 0.4527735114097595
0.7770648002624512 0.1848769634962082 0.5171781778335571
0.7526805996894836 0.20535394549369812 0.5130845904350281
0.7160593867301941 0.2039792388677597 0.5741219520568848
0.8452814817428589 0.15820381045341492 0.4101513922214508
0.7341795563697815 0.19911661744117737 0.543765664100647
0.7912158966064453 0.18513385951519012 0.5652493238449097
0.6704812049865723 0.12436799705028534 0.3829958736896515
0.8725299835205078 0.14882537722587585 0.5162104368209839
0.812616765499115 0.2592467963695526 0.4188343286514282
0.7567273378372192 0.10895083844661713 0.555860161781311
0.8089068531990051 0.2047557681798935 0.41067084670066833
0.8074851036071777 0.17218860983848572 0.40756452083587646
0.8459539413452148 0.13170111179351807 0.5504068732261658
0.6613208055496216 0.26965251564979553 0.41904833912849426
0.8203380703926086 0.21910035610198975 0.5078951716423035
0.7587606310844421 0.17517513036727905 0.4293438494205475
0.7209459543228149 0.20607246458530426 0.5377146601676941
0.7646489143371582 0.26835504174232483 0.4039538502693176
0.7953513860702515 0.2549896836280823 0.41666939854621887
0.7123982310295105 0.10890860855579376 0.4556129574775696
0.7037057876586914 0.11330008506774902 0.4615522027015686
0.7597759366035461 0.19702079892158508 0.39367735385894775
0.8380482196807861 0.2252582162618637 0.5118072032928467
0.8142659664154053 0.2212011069059372 0.46668216586112976
0.8564448356628418 0.13670650124549866 0.5416017174720764
0.8369626402854919 0.23276622593402863 0.47989004850387573
0.7501320838928223 0.13614065945148468 0.5521489977836609
0.7481293082237244 0.15907780826091766 0.5356119871139526
0.8666691184043884 0.1216844767332077 0.45931750535964966
0.8186653852462769 0.22534896433353424 0.4688425064086914
0.6915643811225891 0.23392723500728607 0.5399572253227234
0.6950898170471191 0.25230592489242554 0.5004501342773438
0.7997027635574341 0.19722191989421844 0.4816299080848694
0.8287379741668701 0.13604535162448883 0.4073947072029114
0.7710156440734863 0.21265909075737 0.5078277587890625
0.7765020728111267 0.21982741355895996 0.39077383279800415
0.773209810256958 0.1524782031774521 0.49491143226623535
0.8511232733726501 0.21450398862361908 0.38278600573539734
0.8007019758224487 0.11205936223268509 0.5021064281463623
0.8474894762039185 0.15518902242183685 0.4966435432434082
0.7350960373878479 0.22349484264850616 0.5086232423782349
0.685989499092102 0.12730081379413605 0.4888130724430084
0.7864075303077698 0.25830304622650146 0.3822406232357025
0.7583898305892944 0.17718075215816498 0.5650163292884827
0.8439163565635681 0.1124829351902008 0.49771547317504883
0.6947528123855591 0.1271284520626068 0.484422504901886
0.6969467997550964 0.23326925933361053 0.42286187410354614
0.7177515029907227 0.14155805110931396 0.4311075210571289
0.8632532358169556 0.11507900059223175 0.5432600975036621
0.7978475093841553 0.21148739755153656 0.4459024965763092
0.7277121543884277 0.20000961422920227 0.5498899817466736
0.8492520451545715 0.1694374978542328 0.40480726957321167
0.7841821312904358 0.13247127830982208 0.5557053089141846
0.8214256763458252 0.2848905324935913 0.45056942105293274
0.7288221716880798 0.26375994086265564 0.43192553520202637
0.7910897731781006 0.15207451581954956 0.42682066559791565
0.8590855598449707 0.17529350519180298 0.38069823384284973
0.7245280742645264 0.11170001327991486 0.4095105528831482
0.6882209777832031 0.2602419853210449 0.44938924908638
0.8305317163467407 0.12268741428852081 0.5452946424484253
0.8336211442947388 0.18458500504493713 0.376257985830307
0.8197489380836487 0.18071308732032776 0.3933701515197754
0.6957930326461792 0.23490527272224426 0.45615890622138977
0.7105914950370789 0.11256290227174759 0.4147319197654724
0.7028999924659729 0.24209526181221008 0.43372660875320435
0.8394895792007446 0.269214004278183 0.4478808045387268
0.8197709918022156 0.19207662343978882 0.4879472851753235
0.798664927482605 0.2321195900440216 0.5571290254592896
0.6962528824806213 0.17427371442317963 0.39054495096206665
0.6781413555145264 0.1082690954208374 0.38876277208328247
0.8112171292304993 0.19556570053100586 0.4231553077697754
0.8557983040809631 0.1397678107023239 0.4545019567012787
0.8196111917495728 0.16168196499347687 0.4304179847240448
0.7683624029159546 0.13745586574077606 0.4557754099369049
0.7940627932548523 0.2400604784488678 0.571395993232727
0.8516553044319153 0.11161564290523529 0.3624952435493469
0.7656740546226501 0.21725837886333466 0.5556774139404297
0.7462360262870789 0.26213282346725464 0.4094494581222534
0.8564448356628418 0.13670650124549866 0.5416017174720764
0.8354076743125916 0.223173588514328 0.4954169690608978
0.8223192691802979 0.2752293348312378 0.520856499671936
0.7257357835769653 0.19943144917488098 0.4463031589984894
0.8146864771842957 0.1930885761976242 0.38371390104293823
0.7766183614730835 0.2663052976131439 0.5283109545707703
0.6761052012443542 0.17653851211071014 0.4243297874927521
0.8447650074958801 0.20297664403915405 0.4562857449054718
0.855687141418457 0.189981609582901 0.554105281829834
0.8298160433769226 0.27384936809539795 0.3775489628314972
0.7112951874732971 0.19158923625946045 0.5160302519798279
0.8471173048019409 0.1927248239517212 0.4147477149963379
0.6896799802780151 0.20836575329303741 0.39094945788383484
0.8471173048019409 0.1927248239517212 0.4147477149963379
0.7205365300178528 0.18675969541072845 0.5798773169517517
0.8530113101005554 0.1990920454263687 0.5393372178077698
0.7235711216926575 0.2234250158071518 0.43036818504333496
0.7481293082237244 0.15907780826091766 0.5356119871139526
0.8666691184043884 0.1216844767332077 0.45931750535964966
0.8186653852462769 0.22534896433353424 0.4688425064086914
0.6915643811225891 0.23392723500728607 0.5399572253227234
0.6950898170471191 0.25230592489242554 0.5004501342773438
0.7997027635574341 0.19722191989421844 0.4816299080848694
0.7707007527351379 0.18876144289970398 0.48548567295074463
0.8438802361488342 0.22146254777908325 0.4972822666168213
0.8141274452209473 0.2657345235347748 0.5101872682571411
0.840969979763031 0.15587659180164337 0.5294331312179565
0.7808352708816528 0.15271736681461334 0.4814026951789856
0.7668206095695496 0.1998923271894455 0.4722282290458679
0.7827795743942261 0.1944085955619812 0.5331990122795105
0.6773912906646729 0.18259645998477936 0.48211026191711426
0.7975742816925049 0.15700562298297882 0.483040452003479
0.7677363753318787 0.2680905759334564 0.43401312828063965
0.7570165991783142 0.11873099207878113 0.39833858609199524
0.8608975410461426 0.14678828418254852 0.5214972496032715
0.7075127363204956 0.1191621646285057 0.41668322682380676
0.7849025726318359 0.11452780663967133 0.45675477385520935
0.8464123010635376 0.13496123254299164 0.3839934468269348
0.7172366976737976 0.11358613520860672 0.4174327850341797
0.8052153587341309 0.27968400716781616 0.5179345607757568
0.6808997988700867 0.21948884427547455 0.5022295117378235
0.7923312783241272 0.1508411020040512 0.4494569003582001
0.8210190534591675 0.25069624185562134 0.5041235685348511
0.737280547618866 0.1459762156009674 0.37781354784965515
0.8109852075576782 0.25943300127983093 0.4310000240802765
0.7997027635574341 0.19722191989421844 0.4816299080848694
0.7707007527351379 0.18876144289970398 0.48548567295074463
0.8289815783500671 0.19080759584903717 0.47744104266166687
0.8570168018341064 0.12411172688007355 0.42518720030784607
0.819113552570343 0.184491366147995 0.4423784911632538
0.807333767414093 0.21566618978977203 0.5420866012573242
0.7277804017066956 0.23632760345935822 0.48911502957344055
0.7344750165939331 0.1186591237783432 0.4896937608718872
0.8152951002120972 0.14646674692630768 0.45962727069854736
0.7512736916542053 0.1926506906747818 0.43900391459465027
0.6881865859031677 0.21383623778820038 0.41568171977996826
0.7880688309669495 0.22820016741752625 0.3829503059387207
0.6860058307647705 0.2621424198150635 0.4529760181903839
0.786685585975647 0.24762944877147675 0.5290060043334961
0.7750611305236816 0.1444850116968155 0.3914201259613037
0.8619241714477539 0.12382838875055313 0.5640532374382019
