ply
format ascii 1.0
element vertex 828
property float x
property float y
property float z
end_header
0.7653932571411133 0.16569645702838898 0.5661008358001709
0.8481842875480652 0.1080310195684433 0.49915918707847595
0.6965384483337402 0.12116021662950516 0.48539191484451294
0.7061706781387329 0.21388262510299683 0.4195387065410614
0.7210639715194702 0.13237890601158142 0.42966872453689575
0.867816686630249 0.11078684777021408 0.5459800958633423
0.8075364828109741 0.1910277158021927 0.44314107298851013
0.7355870604515076 0.18630032241344452 0.5500885844230652
0.8584515452384949 0.1547422707080841 0.40113353729248047
0.7882566452026367 0.1260068267583847 0.558204174041748
0.8339813351631165 0.25896281003952026 0.4462282359600067
0.7400130033493042 0.24163582921028137 0.4279351234436035
0.8707834482192993 0.13337616622447968 0.5022498369216919
0.6892524361610413 0.1817108690738678 0.5633015036582947
0.8351573348045349 0.1338401436805725 0.5234137177467346
0.765758216381073 0.11321602761745453 0.3689233064651489
0.7435876727104187 0.15515704452991486 0.3944169580936432
0.84410560131073 0.12207634001970291 0.3546832203865051
0.8546225428581238 0.1688644140958786 0.457862913608551
0.7326087355613708 0.10651610791683197 0.4289472699165344
0.8582953810691833 0.17290890216827393 0.4559204578399658
0.7004116177558899 0.19669555127620697 0.494389146566391
0.7325818538665771 0.20387707650661469 0.42733895778656006
0.7803956270217896 0.19498330354690552 0.506523609161377
0.786260724067688 0.19797782599925995 0.38691186904907227
0.7786283493041992 0.14195142686367035 0.49515849351882935
0.861980140209198 0.19335821270942688 0.3783104419708252
0.8036999106407166 0.10805319994688034 0.5040199756622314
0.8547311425209045 0.14366860687732697 0.49636194109916687
0.7444713115692139 0.20632818341255188 0.5072721242904663
0.6876742839813232 0.12165506184101105 0.489834725856781
0.7976236939430237 0.23255041241645813 0.3778575360774994
0.7653932571411133 0.16569645702838898 0.5661008358001709
0.8481842875480652 0.1080310195684433 0.49915918707847595
0.6965384483337402 0.12116021662950516 0.48539191484451294
0.7061706781387329 0.21388262510299683 0.4195387065410614
0.7210639715194702 0.13237890601158142 0.42966872453689575
0.867816686630249 0.11078684777021408 0.5459800958633423
0.8075364828109741 0.1910277158021927 0.44314107298851013
0.7355870604515076 0.18630032241344452 0.5500885844230652
0.8584515452384949 0.1547422707080841 0.40113353729248047
0.7882566452026367 0.1260068267583847 0.558204174041748
0.8339813351631165 0.25896281003952026 0.4462282359600067
0.7400130033493042 0.24163582921028137 0.4279351234436035
0.7974854111671448 0.13958270847797394 0.4245060682296753
0.8687580227851868 0.16049809753894806 0.3762751519680023
0.7254781126976013 0.10792779922485352 0.4082532525062561
0.7414608001708984 0.22531983256340027 0.5331671833992004
0.8632141947746277 0.2509448528289795 0.45958688855171204
0.7539873719215393 0.19997432827949524 0.46224331855773926
0.7163622975349426 0.15451675653457642 0.523258626461029
0.8196911215782166 0.1180899441242218 0.3784526288509369
0.8106834292411804 0.15649428963661194 0.5278516411781311
0.7541869282722473 0.11947940289974213 0.4945697784423828
0.8292725086212158 0.20388026535511017 0.46612560749053955
0.8086831569671631 0.1795445829629898 0.4799307882785797
0.8359626531600952 0.12567339837551117 0.40428924560546875
0.7803956270217896 0.19498330354690552 0.506523609161377
0.786260724067688 0.19797782599925995 0.38691186904907227
0.7786283493041992 0.14195142686367035 0.49515849351882935
0.861980140209198 0.19335821270942688 0.3783104419708252
0.8036999106407166 0.10805319994688034 0.5040199756622314
0.8547311425209045 0.14366860687732697 0.49636194109916687
0.7444713115692139 0.20632818341255188 0.5072721242904663
0.6876742839813232 0.12165506184101105 0.489834725856781
0.7976236939430237 0.23255041241645813 0.3778575360774994
0.7653932571411133 0.16569645702838898 0.5661008358001709
0.8481842875480652 0.1080310195684433 0.49915918707847595
0.6965384483337402 0.12116021662950516 0.48539191484451294
0.7061706781387329 0.21388262510299683 0.4195387065410614
0.7210639715194702 0.13237890601158142 0.42966872453689575
0.867816686630249 0.11078684777021408 0.5459800958633423
0.8075364828109741 0.1910277158021927 0.44314107298851013
0.7355870604515076 0.18630032241344452 0.5500885844230652
0.8584515452384949 0.1547422707080841 0.40113353729248047
0.7882566452026367 0.1260068267583847 0.558204174041748
0.8339813351631165 0.25896281003952026 0.4462282359600067
0.7400130033493042 0.24163582921028137 0.4279351234436035
0.7974854111671448 0.13958270847797394 0.4245060682296753
0.8692452907562256 0.10811316221952438 0.5553502440452576
0.7764281034469604 0.20220346748828888 0.5489569902420044
0.7800261974334717 0.24125142395496368 0.44418302178382874
0.875087320804596 0.16634659469127655 0.5011714696884155
0.8643361330032349 0.1344365030527115 0.4861662983894348
0.730035126209259 0.1644199639558792 0.513044536113739
0.713708221912384 0.1763133406639099 0.5545464158058167
0.8075364828109741 0.1910277158021927 0.44314107298851013
0.8132738471031189 0.10467810928821564 0.4815734326839447
0.7570537328720093 0.12957575917243958 0.44214993715286255
0.7853373885154724 0.2530499994754791 0.5704004764556885
0.8131528496742249 0.18164750933647156 0.47323206067085266
0.8717474341392517 0.10977476090192795 0.5546021461486816
0.7976718544960022 0.20448021590709686 0.4135340452194214
0.8599588871002197 0.11121851950883865 0.3565712571144104
0.8688111305236816 0.11174679547548294 0.5130490064620972
0.7088320851325989 0.1745011806488037 0.5552654266357422
0.6905431747436523 0.22645726799964905 0.4514465034008026
0.8181546330451965 0.1829022616147995 0.45541346073150635
0.7758471369743347 0.13434897363185883 0.5538725256919861
0.7771339416503906 0.18826887011528015 0.4528771638870239
0.7879762649536133 0.13950185477733612 0.3938831388950348
0.7389562129974365 0.16898836195468903 0.5706320405006409
0.7642209529876709 0.21318554878234863 0.5113605260848999
0.6828781366348267 0.1777234971523285 0.5064660310745239
0.7072310447692871 0.15280072391033173 0.4695925712585449
0.7888519763946533 0.18132461607456207 0.4056064188480377
0.6813263297080994 0.13255257904529572 0.4381695091724396
0.7429103851318359 0.18110467493534088 0.45100900530815125
0.857093334197998 0.14554105699062347 0.4141986072063446
0.762526273727417 0.10763604193925858 0.5702968239784241
0.819949209690094 0.14187249541282654 0.5171226859092712
0.8679901957511902 0.1538635790348053 0.42450857162475586
0.8400992155075073 0.11808189004659653 0.5187267065048218
0.8283442854881287 0.12069188058376312 0.4996892511844635
0.7446620464324951 0.2562198042869568 0.4276050627231598
0.727358341217041 0.11202455312013626 0.40267300605773926
0.8166382312774658 0.14594103395938873 0.4890810549259186
0.8296247124671936 0.22005097568035126 0.5298574566841125
0.7882566452026367 0.1260068267583847 0.558204174041748
0.7446620464324951 0.2562198042869568 0.4276050627231598
0.727358341217041 0.11202455312013626 0.40267300605773926
0.8454047441482544 0.249898299574852 0.5008966326713562
0.811185359954834 0.2275233268737793 0.42516985535621643
0.8576050996780396 0.10995211452245712 0.41963574290275574
0.7446598410606384 0.12063785642385483 0.44676440954208374
0.7369706630706787 0.25309884548187256 0.5800879597663879
0.7128188610076904 0.1326245218515396 0.5304812788963318
0.8680726885795593 0.15996412932872772 0.42798060178756714
0.7841416597366333 0.11799942702054977 0.4931841790676117
0.8541399836540222 0.23010364174842834 0.4589489698410034
0.8008559346199036 0.13781261444091797 0.4229980409145355
0.833663284778595 0.218537837266922 0.4774564504623413
0.8274454474449158 0.1090225800871849 0.5463102459907532
0.8401134014129639 0.16740597784519196 0.3704148828983307
0.764691948890686 0.23787088692188263 0.5420296788215637
0.8670535087585449 0.13177186250686646 0.5153064131736755
0.7884044051170349 0.12820254266262054 0.5592016577720642
0.8202247619628906 0.17771485447883606 0.5117928385734558
0.7179096937179565 0.23627471923828125 0.5506867170333862
0.8687644004821777 0.12091393768787384 0.5140097141265869
0.8258333802223206 0.16759084165096283 0.538568377494812
0.7219798564910889 0.218382328748703 0.5557206273078918
0.6977667808532715 0.11170817911624908 0.5602729916572571
0.7491222620010376 0.15999294817447662 0.4239974617958069
0.8047105669975281 0.13004663586616516 0.5755879282951355
0.7910297513008118 0.1720041036605835 0.3848428428173065
0.8594792485237122 0.13216257095336914 0.5228478908538818
0.7568893432617188 0.14874719083309174 0.44722187519073486
0.8735030889511108 0.1706155240535736 0.5021001696586609
0.8319182395935059 0.15358424186706543 0.3936459720134735
0.8327033519744873 0.22814087569713593 0.5015244483947754
0.7570537328720093 0.12957575917243958 0.44214993715286255
0.7853373885154724 0.2530499994754791 0.5704004764556885
0.8131528496742249 0.18164750933647156 0.47323206067085266
0.8717474341392517 0.10977476090192795 0.5546021461486816
0.7976718544960022 0.20448021590709686 0.4135340452194214
0.8599588871002197 0.11121851950883865 0.3565712571144104
0.8688111305236816 0.11174679547548294 0.5130490064620972
0.7088320851325989 0.1745011806488037 0.5552654266357422
0.7575632929801941 0.10693850368261337 0.5636156797409058
0.7931620478630066 0.13328714668750763 0.5238717794418335
0.775954008102417 0.21791057288646698 0.5012916326522827
0.8282864689826965 0.24281957745552063 0.4514733552932739
0.6910326480865479 0.19932040572166443 0.44529396295547485
0.7298611998558044 0.2540046274662018 0.49850448966026306
0.8031728863716125 0.11667853593826294 0.5201653838157654
0.705176830291748 0.20746929943561554 0.3924870491027832
0.7873414754867554 0.17791779339313507 0.4340733289718628
0.8103980422019958 0.14924849569797516 0.5057987570762634
0.7841336727142334 0.16891589760780334 0.563166618347168
0.7348927855491638 0.11015427857637405 0.448648601770401
0.8609092235565186 0.13123369216918945 0.45530223846435547
0.8439145088195801 0.11309506744146347 0.5535746812820435
0.6836509108543396 0.2408379167318344 0.4992084503173828
0.7323417663574219 0.13619543612003326 0.4906567633152008
0.8103715777397156 0.22300288081169128 0.382074773311615
0.7170833349227905 0.1732158362865448 0.42033129930496216
0.8531465530395508 0.24907022714614868 0.5506126880645752
0.7160323262214661 0.13636080920696259 0.467062383890152
0.8444932103157043 0.11864490061998367 0.5220568776130676
0.7767196893692017 0.22731350362300873 0.5613532662391663
0.7916437387466431 0.20977310836315155 0.46530184149742126
0.8632141947746277 0.2509448528289795 0.45958688855171204
0.7461809515953064 0.2326025813817978 0.4053042531013489
0.6878153085708618 0.18490679562091827 0.44379130005836487
0.7131439447402954 0.15719126164913177 0.5841310024261475
0.7004760503768921 0.16514375805854797 0.5164288282394409
0.8538359999656677 0.16272777318954468 0.5380995273590088
0.7604494094848633 0.19057098031044006 0.4494895935058594
0.8381988406181335 0.25998374819755554 0.5525959730148315
0.8044120669364929 0.1129649356007576 0.3938186764717102
0.8066148161888123 0.2123175412416458 0.4064379334449768
0.8662603497505188 0.23423902690410614 0.4890535771846771
0.683533251285553 0.19501620531082153 0.44114455580711365
0.8519064784049988 0.25663235783576965 0.4483874440193176
0.8507817387580872 0.2047664076089859 0.4751702845096588
0.8490489721298218 0.12136128544807434 0.5566642880439758
0.771376371383667 0.12044155597686768 0.4075501561164856
0.878420889377594 0.10978522151708603 0.4718383848667145
0.8631370663642883 0.13334228098392487 0.36132746934890747
0.8130576610565186 0.1213071197271347 0.4615735113620758
0.6874999403953552 0.11429935693740845 0.3987842798233032
0.8436681628227234 0.13989605009555817 0.461184024810791
0.7469437122344971 0.14417865872383118 0.5794399976730347
0.7248290181159973 0.14659294486045837 0.5026395320892334
0.7029266357421875 0.1649368405342102 0.48130497336387634
0.7514249682426453 0.138063445687294 0.4343295395374298
0.8857657313346863 0.15184888243675232 0.5249477624893188
0.8294304609298706 0.25476163625717163 0.4360472559928894
0.7631925940513611 0.1282961517572403 0.5115582346916199
0.8035155534744263 0.2240510731935501 0.5224459171295166
0.7857757806777954 0.16379132866859436 0.3852056860923767
0.7272008061408997 0.1096791923046112 0.5794394612312317
0.7363294959068298 0.11391189694404602 0.4572112560272217
0.7317264676094055 0.18350011110305786 0.43204253911972046
0.738537609577179 0.183958500623703 0.40341126918792725
0.7480696439743042 0.21888777613639832 0.5474976301193237
0.8362424969673157 0.258593887090683 0.5463438630104065
0.7735832929611206 0.21018610894680023 0.41601741313934326
0.8826043009757996 0.12135475873947144 0.48022177815437317
0.674420177936554 0.1855524480342865 0.4050619602203369
0.7215166687965393 0.10647072643041611 0.5353395342826843
0.8128012418746948 0.11290789395570755 0.559949517250061
0.8504721522331238 0.23227465152740479 0.4375835359096527
0.7394622564315796 0.11204548180103302 0.4981919825077057
0.8646970391273499 0.13743643462657928 0.44718506932258606
0.862926721572876 0.11038385331630707 0.4337927997112274
0.8323587775230408 0.2348218858242035 0.5179355144500732
0.6991621851921082 0.1054389700293541 0.3983016014099121
0.7348509430885315 0.17335467040538788 0.41838663816452026
0.7210224270820618 0.14620289206504822 0.45371246337890625
0.8279876708984375 0.11142279207706451 0.4182838201522827
0.8333848118782043 0.12246717512607574 0.41113048791885376
0.8052154779434204 0.20483092963695526 0.473872572183609
0.7119935750961304 0.17415328323841095 0.5341331958770752
0.6979699730873108 0.1754254847764969 0.45142242312431335
0.8413767218589783 0.11246809363365173 0.35600796341896057
0.7531285881996155 0.22807052731513977 0.5515390634536743
0.793046236038208 0.1967325061559677 0.5582416653633118
0.7531285881996155 0.22807052731513977 0.5515390634536743
0.793046236038208 0.1967325061559677 0.5582416653633118
0.7253866195678711 0.155038982629776 0.46189528703689575
0.8451186418533325 0.2364741563796997 0.5105745196342468
0.6835047602653503 0.20570001006126404 0.4574233293533325
0.7216206192970276 0.11673218011856079 0.3810899257659912
0.7555949091911316 0.18351402878761292 0.4517010748386383
0.8632141947746277 0.2509448528289795 0.45958688855171204
0.727358341217041 0.11202455312013626 0.40267300605773926
0.8166382312774658 0.14594103395938873 0.4890810549259186
0.8296247124671936 0.22005097568035126 0.5298574566841125
0.773074209690094 0.20824097096920013 0.48397135734558105
0.811185359954834 0.2275233268737793 0.42516985535621643
0.8576050996780396 0.10995211452245712 0.41963574290275574
0.841285765171051 0.20517945289611816 0.5303269624710083
0.7580756545066833 0.10473927855491638 0.4610201418399811
0.7053443789482117 0.17956878244876862 0.4900517761707306
0.794116199016571 0.10455373674631119 0.40801429748535156
0.8493936657905579 0.2086104452610016 0.37517687678337097
0.8294790983200073 0.21890893578529358 0.36730125546455383
0.8046465516090393 0.20835211873054504 0.4339831471443176
0.6929956078529358 0.18872793018817902 0.4942888021469116
0.8008559346199036 0.13781261444091797 0.4229980409145355
0.833663284778595 0.218537837266922 0.4774564504623413
0.8274454474449158 0.1090225800871849 0.5463102459907532
0.8401134014129639 0.16740597784519196 0.3704148828983307
0.764691948890686 0.23787088692188263 0.5420296788215637
0.8670535087585449 0.13177186250686646 0.5153064131736755
0.7884044051170349 0.12820254266262054 0.5592016577720642
0.8202247619628906 0.17771485447883606 0.5117928385734558
0.7179096937179565 0.23627471923828125 0.5506867170333862
0.8687644004821777 0.12091393768787384 0.5140097141265869
0.8258333802223206 0.16759084165096283 0.538568377494812
0.7701127529144287 0.1830977350473404 0.49047034978866577
0.6693534255027771 0.23956143856048584 0.44466400146484375
0.7509262561798096 0.13703346252441406 0.48193830251693726
0.832238495349884 0.2474995255470276 0.3710327744483948
0.7491222620010376 0.15999294817447662 0.4239974617958069
0.8651294112205505 0.1518670618534088 0.4859916865825653
0.8613998889923096 0.10694171488285065 0.5145070552825928
0.6991621851921082 0.1054389700293541 0.3983016014099121
0.7348509430885315 0.17335467040538788 0.41838663816452026
0.7210224270820618 0.14620289206504822 0.45371246337890625
0.8333848118782043 0.12246717512607574 0.41113048791885376
0.8052154779434204 0.20483092963695526 0.473872572183609
0.7119935750961304 0.17415328323841095 0.5341331958770752
0.6979699730873108 0.1754254847764969 0.45142242312431335
0.6979699730873108 0.1754254847764969 0.45142242312431335
0.8413767218589783 0.11246809363365173 0.35600796341896057
0.7531285881996155 0.22807052731513977 0.5515390634536743
0.793046236038208 0.1967325061559677 0.5582416653633118
0.7253866195678711 0.155038982629776 0.46189528703689575
0.7253866195678711 0.155038982629776 0.46189528703689575
0.8451186418533325 0.2364741563796997 0.5105745196342468
0.6835047602653503 0.20570001006126404 0.4574233293533325
0.7433671355247498 0.20320580899715424 0.4050145149230957
0.7216206192970276 0.11673218011856079 0.3810899257659912
0.7555949091911316 0.18351402878761292 0.4517010748386383
0.7463430166244507 0.25465571880340576 0.5674111843109131
0.6717248558998108 0.2490292191505432 0.45620107650756836
0.8420247435569763 0.15302643179893494 0.429941862821579
0.7522989511489868 0.1415622979402542 0.5059714317321777
0.7939269542694092 0.11115486174821854 0.4992148280143738
0.6718375086784363 0.1805957406759262 0.40028440952301025
0.8506428599357605 0.11605826765298843 0.46655115485191345
0.8081516027450562 0.14335095882415771 0.470073938369751
0.8628484606742859 0.10628240555524826 0.48537126183509827
0.8628484606742859 0.10628240555524826 0.48537126183509827
0.7485272884368896 0.1852688044309616 0.4736718237400055
0.8103377819061279 0.20672692358493805 0.512480616569519
0.6929776072502136 0.23085755109786987 0.4709409475326538
0.7406027913093567 0.19345757365226746 0.3962717354297638
0.7982825040817261 0.23762623965740204 0.4501121938228607
0.7374074459075928 0.16012942790985107 0.4956638216972351
0.7757158279418945 0.23602072894573212 0.4135836362838745
0.7751782536506653 0.12524469196796417 0.5672033429145813
0.8418485522270203 0.1246379092335701 0.4103071987628937
0.7011033296585083 0.2455931156873703 0.4557163417339325
0.8165100812911987 0.12078187614679337 0.5625090003013611
0.8459928631782532 0.10647653043270111 0.4172697067260742
0.6953865885734558 0.11668553948402405 0.5709362030029297
0.7380208969116211 0.246804341673851 0.5808839201927185
0.7298861145973206 0.13392135500907898 0.5620129704475403
0.7054291367530823 0.1535404622554779 0.5244836807250977
0.7013072967529297 0.1425856500864029 0.39596307277679443
0.8845532536506653 0.12020177394151688 0.4836118817329407
0.8685525059700012 0.18442605435848236 0.44012242555618286
0.6995952129364014 0.14139658212661743 0.4794776141643524
0.7671505808830261 0.1755596101284027 0.5470480918884277
0.6996568441390991 0.15447349846363068 0.5091506242752075
0.8659430742263794 0.1272856742143631 0.43231016397476196
0.6812183260917664 0.22826427221298218 0.5573014616966248
0.6812183260917664 0.22826427221298218 0.5573014616966248
0.8480677604675293 0.13947463035583496 0.3666982352733612
0.8029547929763794 0.23255738615989685 0.381653368473053
0.7705999612808228 0.1565925031900406 0.4442784786224365
0.7384142279624939 0.1744907945394516 0.41978734731674194
0.821738064289093 0.24057301878929138 0.37636250257492065
0.8712831735610962 0.20224368572235107 0.5410232543945312
0.7876276969909668 0.20992957055568695 0.4975707232952118
0.8031052947044373 0.17912478744983673 0.47301286458969116
0.7983474135398865 0.15805411338806152 0.3866007924079895
0.7779126763343811 0.19925393164157867 0.497265487909317
0.7302876114845276 0.2083267867565155 0.4350084662437439
0.8554061055183411 0.18969960510730743 0.4599910378456116
0.8690487146377563 0.16954268515110016 0.42304128408432007
0.8283773064613342 0.16321934759616852 0.3690667748451233
0.6996568441390991 0.15447349846363068 0.5091506242752075
0.8659430742263794 0.1272856742143631 0.43231016397476196
0.6812183260917664 0.22826427221298218 0.5573014616966248
0.8480677604675293 0.13947463035583496 0.3666982352733612
0.8029547929763794 0.23255738615989685 0.381653368473053
0.7705999612808228 0.1565925031900406 0.4442784786224365
0.7384142279624939 0.1744907945394516 0.41978734731674194
0.821738064289093 0.24057301878929138 0.37636250257492065
0.8712831735610962 0.20224368572235107 0.5410232543945312
0.7876276969909668 0.20992957055568695 0.4975707232952118
0.8031052947044373 0.17912478744983673 0.47301286458969116
0.8125767707824707 0.16812217235565186 0.37015974521636963
0.7983474135398865 0.15805411338806152 0.3866007924079895
0.7044480443000793 0.14097240567207336 0.5430946946144104
0.7779126763343811 0.19925393164157867 0.497265487909317
0.8132738471031189 0.10467810928821564 0.4815734326839447
0.7570537328720093 0.12957575917243958 0.44214993715286255
0.7853373885154724 0.2530499994754791 0.5704004764556885
0.8131528496742249 0.18164750933647156 0.47323206067085266
0.8717474341392517 0.10977476090192795 0.5546021461486816
0.7976718544960022 0.20448021590709686 0.4135340452194214
0.8599588871002197 0.11121851950883865 0.3565712571144104
0.8688111305236816 0.11174679547548294 0.5130490064620972
0.7088320851325989 0.1745011806488037 0.5552654266357422
0.7575632929801941 0.10693850368261337 0.5636156797409058
0.7931620478630066 0.13328714668750763 0.5238717794418335
0.7461809515953064 0.2326025813817978 0.4053042531013489
0.7011041641235352 0.13982495665550232 0.5348214507102966
0.8351573348045349 0.1338401436805725 0.5234137177467346
0.8129291534423828 0.23505562543869019 0.4514056146144867
0.8338026404380798 0.20145992934703827 0.45352450013160706
0.8608148097991943 0.10815807431936264 0.5021688938140869
0.7322064638137817 0.12147781252861023 0.40947747230529785
0.7888639569282532 0.1410914957523346 0.403140664100647
0.7121778726577759 0.12552247941493988 0.574736475944519
0.8651361465454102 0.1321250945329666 0.5516870617866516
0.7880192399024963 0.13271939754486084 0.5627089738845825
0.790063738822937 0.11617009341716766 0.5090283751487732
0.7695421576499939 0.1906692236661911 0.5010640621185303
0.8413836359977722 0.13173219561576843 0.4196397662162781
0.7079709768295288 0.10990586131811142 0.41804665327072144
0.8768960237503052 0.11526631563901901 0.5082883834838867
0.7940737009048462 0.14789842069149017 0.5156978964805603
0.838745653629303 0.22165444493293762 0.4210093915462494
0.779696524143219 0.11408577114343643 0.46784707903862
0.8315439820289612 0.17432060837745667 0.471089243888855
0.8122202754020691 0.24784749746322632 0.516721248626709
0.8316022753715515 0.13036835193634033 0.5551862716674805
0.713847815990448 0.12516076862812042 0.514731764793396
0.7901270985603333 0.13202759623527527 0.5678316950798035
0.682761549949646 0.23113690316677094 0.4868288040161133
0.8067696690559387 0.13238239288330078 0.4963357746601105
0.7188014388084412 0.1053546890616417 0.4197212755680084
0.8415828347206116 0.18142832815647125 0.3646093010902405
0.8685593605041504 0.2557511031627655 0.47907477617263794
0.8386980891227722 0.2042469084262848 0.4158669412136078
0.819119393825531 0.18358558416366577 0.5203070044517517
0.836439311504364 0.14774945378303528 0.566957950592041
0.8641560673713684 0.19515269994735718 0.5050289630889893
0.738537609577179 0.183958500623703 0.40341126918792725
0.8707357048988342 0.2588294744491577 0.5166524648666382
0.7555949091911316 0.18351402878761292 0.4517010748386383
0.7463430166244507 0.25465571880340576 0.5674111843109131
0.6717248558998108 0.2490292191505432 0.45620107650756836
0.8420247435569763 0.15302643179893494 0.429941862821579
0.7522989511489868 0.1415622979402542 0.5059714317321777
0.7939269542694092 0.11115486174821854 0.4992148280143738
0.6718375086784363 0.1805957406759262 0.40028440952301025
0.8506428599357605 0.11605826765298843 0.46655115485191345
0.8081516027450562 0.14335095882415771 0.470073938369751
0.8628484606742859 0.10628240555524826 0.48537126183509827
0.7485272884368896 0.1852688044309616 0.4736718237400055
0.8103377819061279 0.20672692358493805 0.512480616569519
0.8049507737159729 0.1469809114933014 0.36582350730895996
0.8005068302154541 0.15379610657691956 0.5069618225097656
0.7436755895614624 0.11038094758987427 0.378452330827713
0.7164929509162903 0.22177754342556 0.41925644874572754
0.8010167479515076 0.15240590274333954 0.5451629757881165
0.8321883678436279 0.25841960310935974 0.5610648393630981
0.826206386089325 0.1225978434085846 0.48686033487319946
0.8698087930679321 0.23973266780376434 0.5402830243110657
0.8312076926231384 0.21427419781684875 0.49547016620635986
0.7612689137458801 0.10433363914489746 0.4236471354961395
0.8442438840866089 0.1534530222415924 0.4319645166397095
0.7823862433433533 0.20712782442569733 0.540130615234375
0.7161253094673157 0.10842128843069077 0.4155478775501251
0.8017442226409912 0.1363660842180252 0.4943903088569641
0.7369706630706787 0.25309884548187256 0.5800879597663879
0.7128188610076904 0.1326245218515396 0.5304812788963318
0.8680726885795593 0.15996412932872772 0.42798060178756714
0.7841416597366333 0.11799942702054977 0.4931841790676117
0.7088117003440857 0.1222323626279831 0.42441198229789734
0.8362424969673157 0.258593887090683 0.5463438630104065
0.8439298868179321 0.2075943797826767 0.3686986565589905
0.8496731519699097 0.1774543970823288 0.4587481617927551
0.7025092244148254 0.19291944801807404 0.44793981313705444
0.7035079598426819 0.21110917627811432 0.4544855058193207
0.8385604023933411 0.10541193932294846 0.5721284747123718
0.8383444547653198 0.11698922514915466 0.4174792170524597
0.7702957987785339 0.11357098072767258 0.5162481069564819
0.7926680445671082 0.2461048662662506 0.561783492565155
0.7083107829093933 0.11234239488840103 0.5114976763725281
0.7420827746391296 0.1534619927406311 0.5742307901382446
0.6747162342071533 0.1728457361459732 0.4123725891113281
0.8097314238548279 0.11294855922460556 0.4041179120540619
0.7606543302536011 0.22194863855838776 0.4824485182762146
0.7509695887565613 0.20420601963996887 0.5303847193717957
0.7439048886299133 0.1365576684474945 0.4274791479110718
0.7694833278656006 0.20651671290397644 0.5312138199806213
0.7135651111602783 0.1377505660057068 0.5304566025733948
0.7854722142219543 0.20953106880187988 0.4682675898075104
0.6762363910675049 0.13030442595481873 0.41852059960365295
0.8377779722213745 0.17193809151649475 0.5319404602050781
0.7323111295700073 0.16502393782138824 0.5154868364334106
0.6833639144897461 0.2130885273218155 0.39645618200302124
0.8262594938278198 0.20295041799545288 0.49181878566741943
0.8780043125152588 0.14205600321292877 0.5634623765945435
0.7850766777992249 0.15102389454841614 0.47144800424575806
0.7708435654640198 0.22666089236736298 0.41694900393486023
0.8844100832939148 0.1779077798128128 0.5586645007133484
0.8756259679794312 0.12264008074998856 0.5490409135818481
0.773074209690094 0.20824097096920013 0.48397135734558105
0.811185359954834 0.2275233268737793 0.42516985535621643
0.8576050996780396 0.10995211452245712 0.41963574290275574
0.8353036642074585 0.13619586825370789 0.42182761430740356
0.8291022181510925 0.22403307259082794 0.40889838337898254
0.7693683505058289 0.1386212259531021 0.5259234309196472
0.8527329564094543 0.11448749154806137 0.5445166230201721
0.7475919723510742 0.25144001841545105 0.43620267510414124
0.7461521029472351 0.174851655960083 0.39101842045783997
0.7042312622070312 0.2284996211528778 0.5593299269676208
0.7200474143028259 0.25124093890190125 0.42525672912597656
0.7942041754722595 0.21699826419353485 0.5192268490791321
0.7300778031349182 0.14049524068832397 0.5407750606536865
0.8048056364059448 0.13143785297870636 0.38587701320648193
0.713655948638916 0.10533731430768967 0.4361167252063751
0.8005068302154541 0.15379610657691956 0.5069618225097656
0.7436755895614624 0.11038094758987427 0.378452330827713
0.7530587911605835 0.21014678478240967 0.5564773678779602
0.7464092969894409 0.21188904345035553 0.4794168770313263
0.8307915329933167 0.10525514930486679 0.5373108386993408
0.8572943806648254 0.10628826916217804 0.44476303458213806
0.8301870226860046 0.19528457522392273 0.4421587586402893
0.7418003082275391 0.17250041663646698 0.5596659779548645
0.8801537156105042 0.11079070717096329 0.4078678786754608
0.8417770862579346 0.15228307247161865 0.3928429186344147
0.8115657567977905 0.2563880980014801 0.43325263261795044
0.7416338324546814 0.11859535425901413 0.5144447684288025
0.8286537528038025 0.21945469081401825 0.38088008761405945
0.7697873115539551 0.10978301614522934 0.3904653489589691
0.7839831709861755 0.10442155599594116 0.45346716046333313
0.8427405953407288 0.16998791694641113 0.3788755238056183
0.7369706630706787 0.25309884548187256 0.5800879597663879
0.7128188610076904 0.1326245218515396 0.5304812788963318
0.8680726885795593 0.15996412932872772 0.42798060178756714
0.7841416597366333 0.11799942702054977 0.4931841790676117
0.8692452907562256 0.10811316221952438 0.5553502440452576
0.8599588871002197 0.11121851950883865 0.3565712571144104
0.8688111305236816 0.11174679547548294 0.5130490064620972
0.7088320851325989 0.1745011806488037 0.5552654266357422
0.7575632929801941 0.10693850368261337 0.5636156797409058
0.7931620478630066 0.13328714668750763 0.5238717794418335
0.7461809515953064 0.2326025813817978 0.4053042531013489
0.6878153085708618 0.18490679562091827 0.44379130005836487
0.7131439447402954 0.15719126164913177 0.5841310024261475
0.7004760503768921 0.16514375805854797 0.5164288282394409
0.8538359999656677 0.16272777318954468 0.5380995273590088
0.7604494094848633 0.19057098031044006 0.4494895935058594
0.7028366923332214 0.1139301285147667 0.3819859027862549
0.8074935674667358 0.25771364569664 0.5357798933982849
0.8435934782028198 0.2317357361316681 0.5486496686935425
0.7413536310195923 0.10617842525243759 0.5309549570083618
0.8501784801483154 0.12670820951461792 0.4732738435268402
0.8072041869163513 0.1916099339723587 0.3747348487377167
0.7091529965400696 0.20312462747097015 0.39916589856147766
0.7701501846313477 0.11691885441541672 0.5700307488441467
0.7877200841903687 0.14023573696613312 0.5753850340843201
0.6908378005027771 0.22978420555591583 0.42598211765289307
0.8721833229064941 0.17602437734603882 0.41767802834510803
0.8493127226829529 0.23753713071346283 0.49805787205696106
0.7637454271316528 0.1560092270374298 0.5454724431037903
0.871338963508606 0.11652320623397827 0.5591565370559692
0.7303639650344849 0.14579829573631287 0.4911600947380066
0.8530122637748718 0.19840863347053528 0.38641616702079773
0.7005904316902161 0.15671753883361816 0.5188412070274353
0.8217320442199707 0.23869822919368744 0.40608474612236023
0.7419552206993103 0.23202160000801086 0.5582765340805054
0.7399255633354187 0.15240924060344696 0.5023343563079834
0.7184895873069763 0.14928166568279266 0.4133649468421936
0.8727972507476807 0.13545434176921844 0.4128304719924927
0.7105386853218079 0.19116032123565674 0.49470120668411255
0.6922586560249329 0.23204617202281952 0.433765709400177
0.8425047993659973 0.16602714359760284 0.5501777529716492
0.8292361497879028 0.14587010443210602 0.4523104429244995
0.7021742463111877 0.1970980167388916 0.3940814733505249
0.8647608160972595 0.14855709671974182 0.4655337929725647
0.8861728310585022 0.17430618405342102 0.5605690479278564
0.6826643347740173 0.17870625853538513 0.43212372064590454
0.6937695741653442 0.12320863455533981 0.5675832629203796
0.8080615997314453 0.1477915644645691 0.42619016766548157
0.8362739086151123 0.12274661660194397 0.38302838802337646
0.8152026534080505 0.19918930530548096 0.5503633618354797
0.7983902096748352 0.2359907031059265 0.39267510175704956
0.8401134014129639 0.16740597784519196 0.3704148828983307
0.764691948890686 0.23787088692188263 0.5420296788215637
0.8670535087585449 0.13177186250686646 0.5153064131736755
0.7884044051170349 0.12820254266262054 0.5592016577720642
0.8202247619628906 0.17771485447883606 0.5117928385734558
0.7179096937179565 0.23627471923828125 0.5506867170333862
0.8687644004821777 0.12091393768787384 0.5140097141265869
0.8258333802223206 0.16759084165096283 0.538568377494812
0.7701127529144287 0.1830977350473404 0.49047034978866577
0.6693534255027771 0.23956143856048584 0.44466400146484375
0.8412155508995056 0.13387595117092133 0.4625268876552582
0.8735030889511108 0.1706155240535736 0.5021001696586609
0.8319182395935059 0.15358424186706543 0.3936459720134735
0.7003476619720459 0.23717615008354187 0.48853635787963867
0.7419365644454956 0.1507575958967209 0.46894553303718567
0.7263921499252319 0.2218330204486847 0.5272156596183777
0.8599433898925781 0.13075175881385803 0.41384387016296387
0.8132738471031189 0.10467810928821564 0.4815734326839447
0.708095908164978 0.2504737675189972 0.549659252166748
0.87701416015625 0.15378884971141815 0.5465875267982483
0.7021434903144836 0.15809614956378937 0.4596872925758362
0.7813295125961304 0.15931598842144012 0.47290873527526855
0.7981511950492859 0.13784757256507874 0.44082894921302795
0.7171893119812012 0.10449216514825821 0.3862217664718628
0.8467374444007874 0.2411462813615799 0.3826102912425995
0.7309187650680542 0.11688536405563354 0.5880480408668518
0.6856605410575867 0.16373300552368164 0.48376843333244324
0.6825947761535645 0.24688194692134857 0.40294334292411804
0.7881337404251099 0.18204621970653534 0.4008813202381134
0.8502653241157532 0.12861119210720062 0.4661787748336792
0.8353619575500488 0.14224229753017426 0.4555239677429199
0.7541589736938477 0.22455120086669922 0.5659584403038025
0.8535063862800598 0.1470385491847992 0.3656806945800781
0.7260041236877441 0.1604747772216797 0.45347312092781067
0.7712510824203491 0.16152967512607574 0.5210239291191101
0.8710896372795105 0.16795040667057037 0.5476579666137695
0.6955773830413818 0.14067649841308594 0.4511435329914093
0.8268606066703796 0.20331692695617676 0.49718138575553894
0.7423021197319031 0.10469481348991394 0.48774275183677673
0.8660133481025696 0.23003053665161133 0.4345095753669739
0.799858033657074 0.10913918912410736 0.4514685273170471
0.789892315864563 0.17253074049949646 0.4680265188217163
0.7116988897323608 0.12732689082622528 0.39756014943122864
0.8338712453842163 0.16866470873355865 0.46506091952323914
0.7585368752479553 0.22095835208892822 0.3963441848754883
0.7259554862976074 0.18320079147815704 0.46779078245162964
0.7793457508087158 0.10424736142158508 0.5376471877098083
0.7474220395088196 0.13881365954875946 0.3917597234249115
0.8156249523162842 0.14017021656036377 0.48327189683914185
0.7604494094848633 0.19057098031044006 0.4494895935058594
0.87701416015625 0.15378884971141815 0.5465875267982483
0.7021434903144836 0.15809614956378937 0.4596872925758362
0.7813295125961304 0.15931598842144012 0.47290873527526855
0.7981511950492859 0.13784757256507874 0.44082894921302795
0.7171893119812012 0.10449216514825821 0.3862217664718628
0.8467374444007874 0.2411462813615799 0.3826102912425995
0.7309187650680542 0.11688536405563354 0.5880480408668518
0.6931009292602539 0.2264700084924698 0.5151079893112183
0.8459447622299194 0.10933484137058258 0.5064499378204346
0.774284303188324 0.12746544182300568 0.5348476767539978
0.7349379658699036 0.22883497178554535 0.4198761284351349
0.6924442052841187 0.13705165684223175 0.4353123605251312
0.749963104724884 0.23652148246765137 0.4853702187538147
0.834995687007904 0.2599264681339264 0.45184722542762756
0.847392737865448 0.24875709414482117 0.5250669717788696
0.7105522155761719 0.13112257421016693 0.45742979645729065
0.7368578910827637 0.1610480546951294 0.5375450849533081
0.7831401228904724 0.11844421178102493 0.3730764091014862
0.7591490745544434 0.20017559826374054 0.521176278591156
0.803512692451477 0.1432763785123825 0.5145437121391296
0.7131350636482239 0.24076199531555176 0.5668368935585022
0.8590059876441956 0.12884481251239777 0.5495566725730896
0.7788853645324707 0.17177985608577728 0.47285017371177673
0.796226441860199 0.11847253888845444 0.5108387470245361
0.7515344023704529 0.12942424416542053 0.40492478013038635
0.8338712453842163 0.16866470873355865 0.46506091952323914
0.7585368752479553 0.22095835208892822 0.3963441848754883
0.7259554862976074 0.18320079147815704 0.46779078245162964
0.7793457508087158 0.10424736142158508 0.5376471877098083
0.7474220395088196 0.13881365954875946 0.3917597234249115
0.8156249523162842 0.14017021656036377 0.48327189683914185
0.7248290181159973 0.14659294486045837 0.5026395320892334
0.6896998286247253 0.2424517422914505 0.4385932385921478
0.744587779045105 0.15939030051231384 0.5238557457923889
0.832695484161377 0.24007652699947357 0.3832145631313324
0.6832137107849121 0.1638716459274292 0.451516330242157
0.7676724195480347 0.23694105446338654 0.4227350354194641
0.8390405774116516 0.1969624012708664 0.5684681534767151
0.8597328662872314 0.1715511977672577 0.48844534158706665
0.6981544494628906 0.10893851518630981 0.45122233033180237
0.6873644590377808 0.22113476693630219 0.494331419467926
0.8677275776863098 0.11132019013166428 0.4833150804042816
0.7248969674110413 0.1397152543067932 0.45077574253082275
0.7541126012802124 0.2127934992313385 0.3892618715763092
0.6837599277496338 0.1996268928050995 0.48061850666999817
0.8562358617782593 0.1722969263792038 0.5206061601638794
0.7150479555130005 0.15496176481246948 0.5743578672409058
0.7565498352050781 0.13367938995361328 0.5709182024002075
0.780291736125946 0.23601630330085754 0.44157928228378296
0.7701127529144287 0.1830977350473404 0.49047034978866577
0.6693534255027771 0.23956143856048584 0.44466400146484375
0.8412155508995056 0.13387595117092133 0.4625268876552582
0.8735030889511108 0.1706155240535736 0.5021001696586609
0.8319182395935059 0.15358424186706543 0.3936459720134735
0.7003476619720459 0.23717615008354187 0.48853635787963867
0.7419365644454956 0.1507575958967209 0.46894553303718567
0.7263921499252319 0.2218330204486847 0.5272156596183777
0.8599433898925781 0.13075175881385803 0.41384387016296387
0.8113077878952026 0.20648004114627838 0.5335780382156372
0.7809868454933167 0.16895829141139984 0.37726274132728577
0.6871011853218079 0.2245595008134842 0.4466790556907654
0.8687678575515747 0.12914742529392242 0.3982536196708679
0.7234734296798706 0.23956508934497833 0.4976375102996826
0.773074209690094 0.20824097096920013 0.48397135734558105
0.7309187650680542 0.11688536405563354 0.5880480408668518
0.6931009292602539 0.2264700084924698 0.5151079893112183
0.8459447622299194 0.10933484137058258 0.5064499378204346
0.774284303188324 0.12746544182300568 0.5348476767539978
0.7349379658699036 0.22883497178554535 0.4198761284351349
0.6924442052841187 0.13705165684223175 0.4353123605251312
0.749963104724884 0.23652148246765137 0.4853702187538147
0.7048447132110596 0.11773668974637985 0.5636217594146729
0.7585060596466064 0.105387382209301 0.39413610100746155
0.7650481462478638 0.22573471069335938 0.3775355815887451
0.7233080863952637 0.18581630289554596 0.4124999940395355
0.7009945511817932 0.11301873624324799 0.5828740000724792
0.8636302351951599 0.2284945696592331 0.4376079738140106
0.8329119682312012 0.2343035787343979 0.47760674357414246
0.7838237285614014 0.14805343747138977 0.47565945982933044
0.7219153642654419 0.17145267128944397 0.5599179267883301
0.8360387682914734 0.17347535490989685 0.46521198749542236
0.8336968421936035 0.18782776594161987 0.36717960238456726
0.7506099939346313 0.12411321699619293 0.541499674320221
0.8741244077682495 0.11095844209194183 0.3655308783054352
0.7183668613433838 0.17745065689086914 0.532792329788208
0.8173719644546509 0.12841378152370453 0.5581058263778687
0.6916399598121643 0.21483954787254333 0.5836861729621887
0.8801392912864685 0.15227428078651428 0.5097165107727051
0.7137392163276672 0.14167898893356323 0.4098181128501892
0.7873035073280334 0.1122145727276802 0.41248250007629395
0.8586520552635193 0.13997377455234528 0.3685179352760315
0.7691544890403748 0.12443026155233383 0.5053237080574036
0.7636525630950928 0.25313377380371094 0.5083367228507996
0.7861253023147583 0.2331027090549469 0.530822217464447
0.8291162848472595 0.17887882888317108 0.417298287153244
0.811185359954834 0.2275233268737793 0.42516985535621643
0.8122804164886475 0.2093372792005539 0.46082085371017456
0.6927170157432556 0.10572364181280136 0.4526997208595276
0.8417030572891235 0.11284343153238297 0.3985349237918854
0.8575363159179688 0.12740443646907806 0.5204247236251831
0.7259572744369507 0.17866922914981842 0.4133537709712982
0.7105892300605774 0.1507112830877304 0.5503909587860107
0.7679929733276367 0.22028379142284393 0.4581631124019623
0.7009682059288025 0.22825266420841217 0.4151824712753296
0.7863113880157471 0.22111840546131134 0.5690638422966003
0.697927713394165 0.11682292073965073 0.4875778555870056
0.7190191745758057 0.1316927969455719 0.5243545174598694
0.8410993814468384 0.2014111876487732 0.5457724332809448
0.8163903951644897 0.2507910132408142 0.5733511447906494
0.7851242423057556 0.12730757892131805 0.4258529841899872
0.7732341289520264 0.18014444410800934 0.5086752772331238
0.8854311108589172 0.13338437676429749 0.5309039354324341
0.718837559223175 0.15197239816188812 0.44827932119369507
0.7209049463272095 0.23876814544200897 0.5095119476318359
0.7072767019271851 0.22773224115371704 0.40742525458335876
0.7397773861885071 0.1083228662610054 0.4936617314815521
0.7084200978279114 0.12292253971099854 0.5834956169128418
0.8125313520431519 0.22720617055892944 0.5248253345489502
0.7232238054275513 0.2290850281715393 0.505071222782135
0.6778350472450256 0.15265090763568878 0.47438520193099976
0.7230871915817261 0.22683648765087128 0.5404493808746338
0.8174295425415039 0.12458936870098114 0.5222897529602051
0.8494912981987 0.21912279725074768 0.4248133897781372
0.7654039859771729 0.25100088119506836 0.48772335052490234
0.7750681638717651 0.13361860811710358 0.3772422671318054
0.6783133149147034 0.21527443826198578 0.46344080567359924
0.7833846807479858 0.15284590423107147 0.47831445932388306
0.8703458905220032 0.12388278543949127 0.4063163101673126
0.7469754219055176 0.11639262735843658 0.5267122387886047
0.7523149251937866 0.1951020509004593 0.4646557569503784
0.7289168238639832 0.12935058772563934 0.4293367266654968
0.8547906279563904 0.1216920018196106 0.45450809597969055
0.7019416093826294 0.12434053421020508 0.45535892248153687
0.7745193839073181 0.10630036890506744 0.3945848047733307
0.8563584089279175 0.23975256085395813 0.47012168169021606
0.8589627146720886 0.25791504979133606 0.49707481265068054
0.8516615033149719 0.19121581315994263 0.37712398171424866
0.8345573544502258 0.25859615206718445 0.4114503562450409
0.76047283411026 0.22687821090221405 0.46944859623908997
0.8683830499649048 0.1115238219499588 0.41402387619018555
0.8397737145423889 0.13732309639453888 0.3962779939174652
0.7195388078689575 0.2025180459022522 0.47026482224464417
0.8454479575157166 0.2598567008972168 0.41579923033714294
0.7575444579124451 0.13480672240257263 0.5120574831962585
0.7868110537528992 0.12000482529401779 0.5627967119216919
0.7061771750450134 0.11753978580236435 0.4084542989730835
0.7213253974914551 0.20989398658275604 0.4506995677947998
0.7796534895896912 0.20619839429855347 0.559890627861023
0.8007476329803467 0.221866637468338 0.37098047137260437
0.7024859189987183 0.10692164301872253 0.5441597700119019
0.8150187730789185 0.1566190868616104 0.5110450983047485
0.7215998768806458 0.11333165317773819 0.4212600886821747
0.7391301989555359 0.1122051551938057 0.45583194494247437
0.8199646472930908 0.2598864436149597 0.437770813703537
0.8235476016998291 0.17840656638145447 0.44830310344696045
0.8313528299331665 0.1407395303249359 0.5443223714828491
0.6842191815376282 0.2184409499168396 0.5275150537490845
0.8412069082260132 0.16315950453281403 0.4642138183116913
0.852916419506073 0.22781427204608917 0.4589651823043823
0.7369706630706787 0.25309884548187256 0.5800879597663879
0.8114621639251709 0.21454016864299774 0.4613499045372009
0.7165096402168274 0.2125171720981598 0.5109422206878662
0.8124051690101624 0.14468665421009064 0.44247227907180786
0.8805480599403381 0.21231944859027863 0.53706294298172
0.7585368752479553 0.22095835208892822 0.3963441848754883
0.7259554862976074 0.18320079147815704 0.46779078245162964
0.7793457508087158 0.10424736142158508 0.5376471877098083
0.7474220395088196 0.13881365954875946 0.3917597234249115
0.8156249523162842 0.14017021656036377 0.48327189683914185
0.847598671913147 0.1555861234664917 0.532508909702301
0.8350224494934082 0.13566263020038605 0.5662477016448975
0.7966505885124207 0.22899086773395538 0.43622905015945435
0.7150970697402954 0.20993289351463318 0.5602084398269653
0.78565514087677 0.14478567242622375 0.4572714865207672
0.7806504368782043 0.12246840447187424 0.5739011168479919
0.7506045699119568 0.11040371656417847 0.4150038957595825
0.8462850451469421 0.17419444024562836 0.5018158555030823
0.781058669090271 0.25362324714660645 0.37595227360725403
0.8547541499137878 0.12705180048942566 0.46554726362228394
0.7681084871292114 0.2112264335155487 0.38888657093048096
0.7519559860229492 0.11809860914945602 0.43947872519493103
0.8125751614570618 0.20802050828933716 0.4032750427722931
0.7982909679412842 0.12414432317018509 0.5103047490119934
0.7677499055862427 0.18863831460475922 0.5265116095542908
0.7710910439491272 0.11522603780031204 0.5474056005477905
0.8321873545646667 0.25208306312561035 0.46018320322036743
0.7796141505241394 0.2334514558315277 0.4396289587020874
0.8111633658409119 0.10745735466480255 0.4677370488643646
0.8617305755615234 0.24354907870292664 0.43264517188072205
0.8455445170402527 0.16354785859584808 0.5452674031257629
0.7294999957084656 0.2036338448524475 0.4910755455493927
0.6937695741653442 0.12320863455533981 0.5675832629203796
0.76047283411026 0.22687821090221405 0.46944859623908997
0.7131350636482239 0.24076199531555176 0.5668368935585022
0.7965964078903198 0.1991060972213745 0.3971642851829529
0.8352725505828857 0.1277921497821808 0.4390685260295868
0.7508320212364197 0.19209232926368713 0.45008835196495056
0.7905418872833252 0.13734017312526703 0.5779328346252441
0.7093661427497864 0.1583128720521927 0.5641855597496033
0.7998073697090149 0.18120616674423218 0.4392509162425995
0.8177093267440796 0.2491225302219391 0.4126177430152893
0.7283689975738525 0.20289112627506256 0.5596514940261841
0.7509159445762634 0.15724626183509827 0.3933478593826294
0.7466742396354675 0.14718471467494965 0.5370776057243347
0.7806504368782043 0.12246840447187424 0.5739011168479919
0.7506045699119568 0.11040371656417847 0.4150038957595825
0.7248371243476868 0.1487698256969452 0.5599026083946228
0.8407041430473328 0.17725712060928345 0.45383772253990173
0.8500592708587646 0.12110499292612076 0.5582504868507385
0.8194130659103394 0.23776410520076752 0.3923429846763611
0.6807627081871033 0.21670396625995636 0.45074138045310974
0.837421715259552 0.21530286967754364 0.4188433289527893
0.6901304721832275 0.16048727929592133 0.4986517131328583
0.7495959997177124 0.23801973462104797 0.4801701307296753
0.8159103393554688 0.10510579496622086 0.48938754200935364
0.7249658107757568 0.1866144835948944 0.44157740473747253
0.7993035316467285 0.2235291749238968 0.5748197436332703
0.8819486498832703 0.1267632693052292 0.5009626746177673
0.8596784472465515 0.12970109283924103 0.4298875033855438
0.8036162257194519 0.23815664649009705 0.45817142724990845
0.7480365037918091 0.10625824332237244 0.4780808687210083
0.8765519857406616 0.2425747513771057 0.5574197173118591
0.7480890154838562 0.2304866760969162 0.4421749711036682
0.6937695741653442 0.12320863455533981 0.5675832629203796
0.7884044051170349 0.12820254266262054 0.5592016577720642
0.7203910946846008 0.22444948554039001 0.4632823169231415
0.8546523451805115 0.19367727637290955 0.48088282346725464
0.8641706705093384 0.15804824233055115 0.3599914312362671
0.8690889477729797 0.10475776344537735 0.5367770791053772
