ply
format ascii 1.0
element vertex 824
property float x
property float y
property float z
end_header
0.3468424677848816 0.1627425253391266 0.625680685043335
0.41241970658302307 0.25386950373649597 0.5498337745666504
0.3208083510398865 0.1389705240726471 0.4799046218395233
0.3461577296257019 0.11114402860403061 0.6281692981719971
0.3981176018714905 0.25426536798477173 0.5152652859687805
0.35863620042800903 0.175578311085701 0.5752188563346863
0.31068748235702515 0.1801546812057495 0.5669116377830505
0.2256612926721573 0.214987650513649 0.5089977979660034
0.29430314898490906 0.10869555920362473 0.4333153963088989
0.3396803140640259 0.20500659942626953 0.5321539640426636
0.24808840453624725 0.23755128681659698 0.4727700650691986
0.33056268095970154 0.2007729411125183 0.6000878214836121
0.3470485210418701 0.22713738679885864 0.505489706993103
0.2687694728374481 0.2337166965007782 0.5479876399040222
0.4089018702507019 0.14878475666046143 0.6205416917800903
0.39253172278404236 0.1900121569633484 0.49038976430892944
0.41954827308654785 0.12320424616336823 0.5945848822593689
0.24568942189216614 0.18785907328128815 0.5142130255699158
0.2900620698928833 0.19297215342521667 0.5856814980506897
0.32015809416770935 0.22390353679656982 0.4307031035423279
0.33906295895576477 0.23674225807189941 0.4635178744792938
0.22955156862735748 0.1562035083770752 0.5583645701408386
0.30946168303489685 0.14521615207195282 0.5522671937942505
0.29235464334487915 0.2793223559856415 0.5068336725234985
0.3067755103111267 0.14912982285022736 0.6187596321105957
0.3064083158969879 0.2054334282875061 0.5584181547164917
0.31957897543907166 0.15910981595516205 0.4816243648529053
0.3308439254760742 0.22251641750335693 0.4330332577228546
0.4087168872356415 0.2183278352022171 0.4954102039337158
0.3370061218738556 0.1946403533220291 0.4277489483356476
0.25847840309143066 0.16939468681812286 0.4899483323097229
0.40956228971481323 0.1833614856004715 0.5405054688453674
0.318596750497818 0.23261521756649017 0.5442306399345398
0.23263950645923615 0.18632589280605316 0.5665620565414429
0.22020147740840912 0.22502145171165466 0.4492127597332001
0.38967305421829224 0.25051549077033997 0.43042778968811035
0.3241700828075409 0.1579481065273285 0.45231515169143677
0.4187270700931549 0.1754264086484909 0.5076130628585815
0.3049769699573517 0.2237180471420288 0.5632217526435852
0.2351953685283661 0.1927592158317566 0.4792414903640747
0.26874610781669617 0.2691380977630615 0.4940277934074402
0.3238043189048767 0.24006906151771545 0.5958235859870911
0.3974299132823944 0.18589693307876587 0.4796735644340515
0.3787156939506531 0.16143788397312164 0.5096198320388794
0.30492016673088074 0.12460501492023468 0.5166746973991394
0.25389447808265686 0.17683599889278412 0.6116988062858582
0.30965644121170044 0.21982531249523163 0.6032496094703674
0.2130688577890396 0.18814101815223694 0.4513399004936218
0.31264206767082214 0.12514550983905792 0.4258841574192047
0.35615265369415283 0.1171293705701828 0.6043415069580078
0.362107515335083 0.12286946922540665 0.5333520174026489
0.3635081946849823 0.2724475860595703 0.43017980456352234
0.29126065969467163 0.22489532828330994 0.5381127595901489
0.24553409218788147 0.12530656158924103 0.5862295031547546
0.22404372692108154 0.25503718852996826 0.614395022392273
0.26791754364967346 0.1278235763311386 0.48689016699790955
0.2147895246744156 0.15563620626926422 0.5586366653442383
0.244147390127182 0.24437670409679413 0.44585949182510376
0.3021995425224304 0.11801756918430328 0.5638718605041504
0.3799125552177429 0.12655383348464966 0.5780847072601318
0.38151878118515015 0.2383819967508316 0.593665599822998
0.3501870930194855 0.1102990210056305 0.49713894724845886
0.3212960362434387 0.18273575603961945 0.5544177293777466
0.26407966017723083 0.12097297608852386 0.627180278301239
0.40129554271698 0.11535046249628067 0.5610693097114563
0.21678318083286285 0.1728658378124237 0.4722796082496643
0.2300293743610382 0.2311517745256424 0.606488049030304
0.28975793719291687 0.16604205965995789 0.5478085279464722
0.2694151997566223 0.13889636099338531 0.6015489101409912
0.2935737371444702 0.12103705108165741 0.5782161355018616
0.39616018533706665 0.23350407183170319 0.5142943859100342
0.3129037618637085 0.16567763686180115 0.43621504306793213
0.24480529129505157 0.21786294877529144 0.529814600944519
0.3273102045059204 0.11791738867759705 0.5094021558761597
0.32125648856163025 0.17322605848312378 0.554664671421051
0.41241970658302307 0.25386950373649597 0.5498337745666504
0.32305848598480225 0.1343330293893814 0.4577702581882477
0.35886263847351074 0.20229022204875946 0.45830515027046204
0.36233505606651306 0.14717203378677368 0.48390406370162964
0.23776157200336456 0.23444759845733643 0.5428705215454102
0.3378751575946808 0.2158769965171814 0.5449401140213013
0.35095643997192383 0.1136704608798027 0.5718355774879456
0.396750271320343 0.15158702433109283 0.6077941060066223
0.3011949956417084 0.26896238327026367 0.4684922993183136
0.3713304102420807 0.27333253622055054 0.6072306036949158
0.40745434165000916 0.20041215419769287 0.5253886580467224
0.2588854134082794 0.281303733587265 0.4559386670589447
0.30156493186950684 0.15088775753974915 0.47533297538757324
0.3832019567489624 0.19743718206882477 0.46044158935546875
0.25793159008026123 0.14960762858390808 0.5542260408401489
0.3307859003543854 0.10964688658714294 0.424100399017334
0.29845765233039856 0.2587335705757141 0.46256956458091736
0.2874389886856079 0.20320281386375427 0.4299127161502838
0.41227903962135315 0.1826944202184677 0.5325811505317688
0.3715958297252655 0.19682912528514862 0.5790380835533142
0.2821485698223114 0.26848649978637695 0.580669105052948
0.39107272028923035 0.1969214528799057 0.6002175807952881
0.2813175618648529 0.24625089764595032 0.4323541522026062
0.3016308844089508 0.21327334642410278 0.4718438982963562
0.24695134162902832 0.21822631359100342 0.6134282350540161
0.23938743770122528 0.14822565019130707 0.523545503616333
0.30590033531188965 0.2020466923713684 0.4919033348560333
0.21188272535800934 0.17215339839458466 0.5056443810462952
0.2562837600708008 0.24050898849964142 0.5296196937561035
0.41746950149536133 0.12083658576011658 0.6010833978652954
0.2673823833465576 0.24087068438529968 0.46627092361450195
0.2453862726688385 0.1303420066833496 0.6006921529769897
0.3138365149497986 0.23738381266593933 0.5366524457931519
0.25667449831962585 0.25617480278015137 0.4246172606945038
0.33574235439300537 0.23480655252933502 0.43705183267593384
0.2342681586742401 0.11091504991054535 0.4993354380130768
0.4029462933540344 0.2626069486141205 0.5187799334526062
0.29527392983436584 0.1554378718137741 0.5195539593696594
0.3890884518623352 0.212646022439003 0.6076226830482483
0.30420833826065063 0.11197380721569061 0.531596302986145
0.26593050360679626 0.13785862922668457 0.44439199566841125
0.32617342472076416 0.21904434263706207 0.5836976170539856
0.36712533235549927 0.21019381284713745 0.5031303763389587
0.26186859607696533 0.18462708592414856 0.61646968126297
0.4077807366847992 0.15558050572872162 0.5007774829864502
0.31552109122276306 0.18638844788074493 0.5587543249130249
0.32808682322502136 0.11579280346632004 0.4948488771915436
0.3640764057636261 0.1740701049566269 0.4582706093788147
0.3248893916606903 0.19377152621746063 0.5992681384086609
0.31599724292755127 0.13556116819381714 0.5988222360610962
0.24478979408740997 0.24942804872989655 0.49753811955451965
0.2338031530380249 0.207151859998703 0.49979543685913086
0.2143145650625229 0.12734100222587585 0.5326998829841614
0.2647308111190796 0.22510682046413422 0.5033782124519348
0.3692968189716339 0.18642392754554749 0.6229641437530518
0.2774314284324646 0.1372106820344925 0.5942432880401611
0.36813753843307495 0.16981859505176544 0.5354031324386597
0.38666045665740967 0.2575896978378296 0.4861077666282654
0.22940905392169952 0.25186797976493835 0.5736439228057861
0.3793441951274872 0.20685091614723206 0.4904555082321167
0.22880768775939941 0.16539639234542847 0.5596452951431274
0.3606395721435547 0.20436479151248932 0.48497602343559265
0.41287437081336975 0.24738846719264984 0.5872207880020142
0.26472172141075134 0.2734440267086029 0.542864203453064
0.2249756157398224 0.13468384742736816 0.5122458338737488
0.2857949137687683 0.2674719989299774 0.5014480948448181
0.30336862802505493 0.109374038875103 0.6161022782325745
0.2475026547908783 0.28329014778137207 0.4649287760257721
0.4111981689929962 0.18114030361175537 0.5922114849090576
0.26469719409942627 0.23131954669952393 0.5349246263504028
0.37067127227783203 0.11641448736190796 0.5502751469612122
0.3406360447406769 0.12792310118675232 0.42670732736587524
0.38557520508766174 0.23753932118415833 0.5030504465103149
0.40330830216407776 0.23696447908878326 0.5767437815666199
0.23201920092105865 0.259651243686676 0.49084439873695374
0.3876466751098633 0.13948817551136017 0.5027821660041809
0.2759256362915039 0.2169015109539032 0.5178788900375366
0.2112492173910141 0.11679694056510925 0.44788920879364014
0.3121722340583801 0.14852584898471832 0.4499140977859497
0.2271452695131302 0.2858642041683197 0.6017429828643799
0.29030486941337585 0.15894709527492523 0.6018552184104919
0.41024714708328247 0.12664203345775604 0.4953002631664276
0.28859272599220276 0.10862637311220169 0.5357635021209717
0.33912983536720276 0.1311807930469513 0.5757678151130676
0.30844780802726746 0.2329929769039154 0.5734623074531555
0.39374032616615295 0.19265688955783844 0.4925133287906647
0.342223197221756 0.14825640618801117 0.5998876094818115
0.3589211404323578 0.20311465859413147 0.6042885184288025
0.3934922218322754 0.25600552558898926 0.610237181186676
0.27149882912635803 0.10974840074777603 0.4709913432598114
0.23100745677947998 0.2351822555065155 0.47910407185554504
0.30430692434310913 0.14833003282546997 0.5783380270004272
0.29751110076904297 0.14450570940971375 0.43424808979034424
0.2523699104785919 0.23658284544944763 0.5143638253211975
0.4105665683746338 0.24949225783348083 0.5673624277114868
0.376655638217926 0.2487175464630127 0.571144163608551
0.34507304430007935 0.27646705508232117 0.5298992395401001
0.30014553666114807 0.27329567074775696 0.5647897124290466
0.2416861653327942 0.17462144792079926 0.5807649493217468
0.2478490024805069 0.11192936450242996 0.5728427767753601
0.2972389757633209 0.20485727488994598 0.5080530047416687
0.2748699486255646 0.2070142924785614 0.46270743012428284
0.3076656758785248 0.2469739019870758 0.5851059556007385
0.31601059436798096 0.24985629320144653 0.47339969873428345
0.2639304995536804 0.11299125105142593 0.4854559302330017
0.2807619869709015 0.13175009191036224 0.4280044436454773
0.2673526406288147 0.18633471429347992 0.6317828893661499
0.24931375682353973 0.18205085396766663 0.44140082597732544
0.32530906796455383 0.24936598539352417 0.5630987286567688
0.23992596566677094 0.18935330212116241 0.43306413292884827
0.3835766613483429 0.1163017749786377 0.5558537840843201
0.39266887307167053 0.12780174612998962 0.5525521636009216
0.374454528093338 0.20909751951694489 0.5264672636985779
0.2357383817434311 0.1575571447610855 0.5340690612792969
0.2628626823425293 0.23789988458156586 0.5914185643196106
0.35261818766593933 0.12444696575403214 0.4631038010120392
0.38084349036216736 0.1682300865650177 0.5094518661499023
0.24287128448486328 0.1933794468641281 0.631451427936554
0.35370513796806335 0.23413722217082977 0.47892531752586365
0.3589211404323578 0.20311465859413147 0.6042885184288025
0.2461286336183548 0.11292460560798645 0.5029925107955933
0.24059335887432098 0.24409884214401245 0.4231337904930115
0.3713490068912506 0.2298969328403473 0.5877496600151062
0.2714482545852661 0.25815799832344055 0.602975606918335
0.27315351366996765 0.1351136416196823 0.44845137000083923
0.25929558277130127 0.1972534954547882 0.6142556667327881
0.2234947681427002 0.2878614068031311 0.5282101035118103
0.21112650632858276 0.13002486526966095 0.521661639213562
0.40172380208969116 0.15809820592403412 0.5741520524024963
0.23066920042037964 0.11454176902770996 0.548093318939209
0.3282012343406677 0.14412178099155426 0.4322226047515869
0.29135408997535706 0.1163424551486969 0.5589485168457031
0.29729709029197693 0.20450028777122498 0.4717642366886139
0.2686920762062073 0.2007690668106079 0.430328369140625
0.2778645157814026 0.25599876046180725 0.5664278268814087
0.3059330880641937 0.15484921634197235 0.5310088396072388
0.27478882670402527 0.18911685049533844 0.5884079337120056
0.372781902551651 0.10703147202730179 0.473332017660141
0.3130088746547699 0.11382607370615005 0.6154844164848328
0.2947588860988617 0.10974639654159546 0.4298187494277954
0.2357109636068344 0.2310991734266281 0.45679157972335815
0.3622339069843292 0.23233406245708466 0.4683946371078491
0.41869136691093445 0.22731514275074005 0.4657302498817444
0.27944114804267883 0.17439626157283783 0.5028377771377563
0.3481804132461548 0.26966822147369385 0.4446108937263489
0.2667960226535797 0.1351197212934494 0.4288628399372101
0.40380483865737915 0.11753229051828384 0.4987044632434845
0.28123095631599426 0.12611308693885803 0.4477420449256897
0.3272930979728699 0.1767425388097763 0.6090967059135437
0.3906462490558624 0.12873241305351257 0.5740219354629517
0.37529775500297546 0.11080469936132431 0.4888884127140045
0.26874610781669617 0.2691380977630615 0.4940277934074402
0.35386213660240173 0.25220927596092224 0.5436347126960754
0.3906462490558624 0.12873241305351257 0.5740219354629517
0.37529775500297546 0.11080469936132431 0.4888884127140045
0.22126881778240204 0.14665468037128448 0.5967525243759155
0.303912878036499 0.2843395173549652 0.6170890927314758
0.412495493888855 0.14044427871704102 0.49235618114471436
0.36469441652297974 0.1819750964641571 0.5442365407943726
0.23550617694854736 0.28531578183174133 0.5300338864326477
0.2536185681819916 0.11217804253101349 0.45008042454719543
0.2545756697654724 0.15683268010616302 0.5733875632286072
0.3548828363418579 0.12245392799377441 0.5365413427352905
0.3641268014907837 0.19048625230789185 0.5513381361961365
0.3235890567302704 0.1757345050573349 0.5912653803825378
0.40459099411964417 0.11246334761381149 0.4237039387226105
0.3440583050251007 0.2377699613571167 0.556759774684906
0.36903753876686096 0.1073264479637146 0.5158946514129639
0.33661484718322754 0.11534348875284195 0.46872252225875854
0.30015891790390015 0.1501726657152176 0.42835769057273865
0.36147359013557434 0.18804921209812164 0.506479024887085
0.26144322752952576 0.14125914871692657 0.48383012413978577
0.23689796030521393 0.259358286857605 0.43667328357696533
0.3301740288734436 0.13225160539150238 0.5690692067146301
0.32000553607940674 0.2652975916862488 0.431475967168808
0.29160276055336 0.2473071664571762 0.5944356322288513
0.3783632814884186 0.25534629821777344 0.5103803277015686
0.3892238736152649 0.13243073225021362 0.5469474792480469
0.3892238736152649 0.13243073225021362 0.5469474792480469
0.33454519510269165 0.2006034106016159 0.4610273838043213
0.31378376483917236 0.16863368451595306 0.437308132648468
0.31378376483917236 0.16863368451595306 0.437308132648468
0.32118257880210876 0.16246329247951508 0.4460030496120453
0.23776157200336456 0.23444759845733643 0.5428705215454102
0.22126881778240204 0.14665468037128448 0.5967525243759155
0.3738662600517273 0.12169362604618073 0.5054824948310852
0.27667272090911865 0.259050190448761 0.5960681438446045
0.412495493888855 0.14044427871704102 0.49235618114471436
0.36469441652297974 0.1819750964641571 0.5442365407943726
0.23550617694854736 0.28531578183174133 0.5300338864326477
0.2536185681819916 0.11217804253101349 0.45008042454719543
0.2545756697654724 0.15683268010616302 0.5733875632286072
0.28909623622894287 0.20116759836673737 0.5052943825721741
0.3008098304271698 0.270325630903244 0.4905889928340912
0.33092623949050903 0.15722784399986267 0.6175535321235657
0.3641268014907837 0.19048625230789185 0.5513381361961365
0.3235890567302704 0.1757345050573349 0.5912653803825378
0.40459099411964417 0.11246334761381149 0.4237039387226105
0.3440583050251007 0.2377699613571167 0.556759774684906
0.33661484718322754 0.11534348875284195 0.46872252225875854
0.30015891790390015 0.1501726657152176 0.42835769057273865
0.36147359013557434 0.18804921209812164 0.506479024887085
0.26144322752952576 0.14125914871692657 0.48383012413978577
0.23689796030521393 0.259358286857605 0.43667328357696533
0.3301740288734436 0.13225160539150238 0.5690692067146301
0.32000553607940674 0.2652975916862488 0.431475967168808
0.32903608679771423 0.12058806419372559 0.47741633653640747
0.29160276055336 0.2473071664571762 0.5944356322288513
0.3783632814884186 0.25534629821777344 0.5103803277015686
0.3892238736152649 0.13243073225021362 0.5469474792480469
0.33454519510269165 0.2006034106016159 0.4610273838043213
0.31378376483917236 0.16863368451595306 0.437308132648468
0.3892015814781189 0.24816885590553284 0.4576093852519989
0.32118257880210876 0.16246329247951508 0.4460030496120453
0.4038127660751343 0.27420902252197266 0.5959206819534302
0.23776157200336456 0.23444759845733643 0.5428705215454102
0.34117889404296875 0.14301666617393494 0.5682770013809204
0.3817088305950165 0.20689569413661957 0.5092353820800781
0.3614766299724579 0.24559922516345978 0.5681453943252563
0.4004257023334503 0.11410371214151382 0.5528313517570496
0.23360194265842438 0.16583125293254852 0.5828173160552979
0.29906919598579407 0.12622599303722382 0.559735119342804
0.3043740689754486 0.13581784069538116 0.5890118479728699
0.3098376393318176 0.22732508182525635 0.45670637488365173
0.2516642212867737 0.16386309266090393 0.5189855694770813
0.31749340891838074 0.24602489173412323 0.5618190765380859
0.2889326810836792 0.13634884357452393 0.5304467678070068
0.30085068941116333 0.17069679498672485 0.4429855942726135
0.27017396688461304 0.21420921385288239 0.43299001455307007
0.3919636011123657 0.16514217853546143 0.5605822801589966
0.3700415790081024 0.26439154148101807 0.5435790419578552
0.29955172538757324 0.1429300606250763 0.6022712588310242
0.324665904045105 0.14368575811386108 0.543066680431366
0.3142092525959015 0.1364426463842392 0.5383917689323425
0.22021596133708954 0.20582397282123566 0.5794484615325928
0.29785069823265076 0.18378137052059174 0.4946938455104828
0.3524554967880249 0.24792560935020447 0.473150372505188
0.2971619665622711 0.2621398866176605 0.46444156765937805
0.3835607171058655 0.13104119896888733 0.5033554434776306
0.4059142768383026 0.1513935774564743 0.4606037139892578
0.3950689136981964 0.21016629040241241 0.4905528426170349
0.36910414695739746 0.204083651304245 0.5470324158668518
0.32284972071647644 0.1600438356399536 0.4431716203689575
0.4183235764503479 0.26046669483184814 0.45180293917655945
0.22579827904701233 0.2186308652162552 0.46744272112846375
0.3622339069843292 0.23233406245708466 0.4683946371078491
0.41869136691093445 0.22731514275074005 0.4657302498817444
0.362107515335083 0.12286946922540665 0.5333520174026489
0.2545756697654724 0.15683268010616302 0.5733875632286072
0.28909623622894287 0.20116759836673737 0.5052943825721741
0.3008098304271698 0.270325630903244 0.4905889928340912
0.33092623949050903 0.15722784399986267 0.6175535321235657
0.3641268014907837 0.19048625230789185 0.5513381361961365
0.3235890567302704 0.1757345050573349 0.5912653803825378
0.20715764164924622 0.1108967512845993 0.5430644154548645
0.2510182559490204 0.18021447956562042 0.5002450942993164
0.3654796779155731 0.21106116473674774 0.4346907138824463
0.2648893892765045 0.11778872460126877 0.48453274369239807
0.3907715678215027 0.13548442721366882 0.4842614531517029
0.3182460069656372 0.1814403086900711 0.5448148846626282
0.29294562339782715 0.2132241278886795 0.46187451481819153
0.3979809284210205 0.14714443683624268 0.5226919054985046
0.3764374852180481 0.16211026906967163 0.43430763483047485
0.2757202088832855 0.2511119246482849 0.4513564109802246
0.33333486318588257 0.11674346774816513 0.5071434378623962
0.3664187788963318 0.11788790673017502 0.42790836095809937
0.30228930711746216 0.23037280142307281 0.4286455512046814
0.4164314866065979 0.18595890700817108 0.5938500761985779
0.38305312395095825 0.22363995015621185 0.5396422147750854
0.3292332887649536 0.15423056483268738 0.5314738750457764
0.31235286593437195 0.2772672176361084 0.5940901637077332
0.23665349185466766 0.14408458769321442 0.4651595652103424
0.3335743248462677 0.27469274401664734 0.462292343378067
0.412916898727417 0.1366834044456482 0.47635015845298767
0.35369542241096497 0.22719688713550568 0.5489743947982788
0.24842427670955658 0.18119964003562927 0.44872763752937317
0.4050964415073395 0.1390773504972458 0.5797855854034424
0.41784390807151794 0.2046005129814148 0.5550726652145386
0.3799401819705963 0.11639519780874252 0.6094189882278442
0.32530906796455383 0.24936598539352417 0.5630987286567688
0.30672338604927063 0.10933133214712143 0.6188113689422607
0.26179879903793335 0.19400928914546967 0.4946877956390381
0.314444363117218 0.1470169872045517 0.5434545874595642
0.3993498384952545 0.16181474924087524 0.505021870136261
0.3229503333568573 0.20928864181041718 0.5529422760009766
0.22954614460468292 0.22559857368469238 0.5129782557487488
0.21856819093227386 0.17730660736560822 0.470708429813385
0.24003185331821442 0.21441346406936646 0.6243717670440674
0.25795722007751465 0.2515192925930023 0.46726906299591064
0.2960095703601837 0.21595041453838348 0.5641005635261536
0.31428200006484985 0.10905218869447708 0.604462742805481
0.3493049740791321 0.2684987783432007 0.4904927611351013
0.24040977656841278 0.1663360446691513 0.4571819305419922
0.23676423728466034 0.207846537232399 0.6196860074996948
0.3987201154232025 0.22867639362812042 0.5634865760803223
0.228635773062706 0.1442442238330841 0.514228880405426
0.31292203068733215 0.2458506077528 0.5740839242935181
0.31215766072273254 0.20352011919021606 0.5174866914749146
0.2348886877298355 0.13196910917758942 0.48844316601753235
0.340157687664032 0.12717238068580627 0.5133714079856873
0.31635287404060364 0.15422046184539795 0.6238309144973755
0.26273831725120544 0.1882588416337967 0.5391466617584229
0.26722732186317444 0.2386043220758438 0.5403836369514465
0.35785260796546936 0.23773370683193207 0.5238620042800903
0.25572073459625244 0.28123968839645386 0.5810976624488831
0.2796931862831116 0.15921594202518463 0.4480317533016205
0.3830135464668274 0.11132701486349106 0.5450707674026489
0.2633373439311981 0.20074808597564697 0.46397343277931213
0.2721913754940033 0.14748011529445648 0.56978440284729
0.3221296966075897 0.19240543246269226 0.5732027888298035
0.20715764164924622 0.1108967512845993 0.5430644154548645
0.2345871776342392 0.2358783334493637 0.5800067186355591
0.3612322509288788 0.13559545576572418 0.6147671937942505
0.3740342855453491 0.1363728940486908 0.6148517727851868
0.24571706354618073 0.19450248777866364 0.4751381278038025
0.2652372419834137 0.27188727259635925 0.6161899566650391
0.3313122093677521 0.14784257113933563 0.540862500667572
0.40457668900489807 0.23009979724884033 0.5203032493591309
0.4081243872642517 0.17894886434078217 0.48067814111709595
0.35298973321914673 0.25641894340515137 0.5509651899337769
0.3468928039073944 0.1356312483549118 0.4434056580066681
0.3880445659160614 0.1814180314540863 0.4292244017124176
0.38193702697753906 0.113337941467762 0.6103835701942444
0.32969725131988525 0.16898474097251892 0.48044654726982117
0.2403431534767151 0.18612772226333618 0.5242156982421875
0.25406718254089355 0.17509262263774872 0.46980389952659607
0.2288450449705124 0.19309785962104797 0.4505402147769928
0.30753710865974426 0.11351905018091202 0.46595123410224915
0.2570267617702484 0.22322793304920197 0.5195417404174805
0.4124748110771179 0.1804439276456833 0.47268134355545044
0.3988947868347168 0.12893123924732208 0.484292209148407
0.2515290379524231 0.12022747099399567 0.43115442991256714
0.40366131067276 0.24667134881019592 0.5767063498497009
0.30751705169677734 0.19901470839977264 0.46705177426338196
0.3608950972557068 0.2033969908952713 0.5591473579406738
0.33658280968666077 0.202268585562706 0.5087963938713074
0.30064043402671814 0.15989749133586884 0.6287424564361572
0.36290040612220764 0.27464714646339417 0.5715782046318054
0.27723613381385803 0.20577192306518555 0.5367882251739502
0.2842620313167572 0.12538877129554749 0.544044554233551
0.3142951428890228 0.10863358527421951 0.5641546249389648
0.3480210304260254 0.1923208236694336 0.43488994240760803
0.23703527450561523 0.26314789056777954 0.4674077332019806
0.28859272599220276 0.10862637311220169 0.5357635021209717
0.3498556613922119 0.14159145951271057 0.435401052236557
0.32219234108924866 0.2570926249027252 0.6012769341468811
0.412253201007843 0.1764393150806427 0.4891410171985626
0.3252081871032715 0.22143204510211945 0.5379262566566467
0.2981552183628082 0.19090527296066284 0.46860891580581665
0.3955357074737549 0.14739885926246643 0.5747054219245911
0.3069620132446289 0.11485619843006134 0.556917130947113
0.321982204914093 0.18234695494174957 0.4946475923061371
0.37246283888816833 0.13078302145004272 0.4292202591896057
0.37558606266975403 0.15454532206058502 0.6212192177772522
0.27371227741241455 0.1685592532157898 0.5002278089523315
0.2887755334377289 0.24358966946601868 0.5431962609291077
0.24692580103874207 0.21163028478622437 0.5899144411087036
0.27629584074020386 0.2564587891101837 0.5403569936752319
0.3625619113445282 0.20964550971984863 0.5618559718132019
0.2872166931629181 0.13440433144569397 0.5583623647689819
0.26880303025245667 0.15650203824043274 0.5330471396446228
0.27873581647872925 0.17321856319904327 0.5393842458724976
0.34163063764572144 0.2551507353782654 0.5196975469589233
0.2457558661699295 0.28049957752227783 0.5271548628807068
0.3564433455467224 0.18121440708637238 0.5297002792358398
0.22251737117767334 0.1633748561143875 0.5976712703704834
0.32487592101097107 0.16724462807178497 0.6050771474838257
0.229654461145401 0.2584758698940277 0.44830089807510376
0.39038175344467163 0.13118495047092438 0.5086318254470825
0.38112375140190125 0.1749044954776764 0.4982486963272095
0.28735318779945374 0.1543450951576233 0.5299628376960754
0.25288209319114685 0.18732501566410065 0.5027838349342346
0.41526588797569275 0.2524576485157013 0.42588743567466736
0.27844929695129395 0.16533738374710083 0.4537835419178009
0.3394874036312103 0.12604564428329468 0.5227742791175842
0.25847840309143066 0.16939468681812286 0.4899483323097229
0.4206528961658478 0.15638263523578644 0.5938817262649536
0.39611461758613586 0.14648441970348358 0.6238090991973877
0.31543752551078796 0.19869276881217957 0.6188939213752747
0.29188480973243713 0.14532139897346497 0.5831085443496704
0.33669066429138184 0.21414853632450104 0.5028522610664368
0.23469552397727966 0.1350695937871933 0.5975850820541382
0.29019761085510254 0.10947897285223007 0.45429709553718567
0.3267683684825897 0.19954226911067963 0.4519309401512146
0.3457794189453125 0.23548643290996552 0.5013649463653564
0.4104733169078827 0.2748435437679291 0.5453094840049744
0.413872092962265 0.18956074118614197 0.44274845719337463
0.32553938031196594 0.272766649723053 0.43823590874671936
0.23265153169631958 0.22315801680088043 0.5785702466964722
0.2581794857978821 0.20714975893497467 0.5312091708183289
0.34124135971069336 0.2593421936035156 0.5130466818809509
0.32242995500564575 0.2783741354942322 0.518000066280365
0.26811638474464417 0.11854620277881622 0.45933276414871216
0.3460894823074341 0.25192105770111084 0.6199139356613159
0.344791054725647 0.2650703489780426 0.520422101020813
0.3369368612766266 0.18896226584911346 0.6223055720329285
0.21685409545898438 0.15144133567810059 0.5383160710334778
0.31516221165657043 0.11897528916597366 0.6334014534950256
0.3701113760471344 0.1986435502767563 0.5499561429023743
0.26126429438591003 0.1436091661453247 0.5703155398368835
0.21304214000701904 0.17358563840389252 0.45994266867637634
0.2890690267086029 0.11062559485435486 0.6007789373397827
0.36909303069114685 0.13950762152671814 0.47891947627067566
0.28380632400512695 0.2714943587779999 0.5819293260574341
0.24434776604175568 0.17432105541229248 0.4493387043476105
0.38330259919166565 0.22596114873886108 0.48174989223480225
0.3412291407585144 0.16586339473724365 0.4566524028778076
0.30844780802726746 0.2329929769039154 0.5734623074531555
0.3830135464668274 0.11132701486349106 0.5450707674026489
0.2633373439311981 0.20074808597564697 0.46397343277931213
0.2721913754940033 0.14748011529445648 0.56978440284729
0.20715764164924622 0.1108967512845993 0.5430644154548645
0.2510182559490204 0.18021447956562042 0.5002450942993164
0.3654796779155731 0.21106116473674774 0.4346907138824463
0.2648893892765045 0.11778872460126877 0.48453274369239807
0.3907715678215027 0.13548442721366882 0.4842614531517029
0.3182460069656372 0.1814403086900711 0.5448148846626282
0.29294562339782715 0.2132241278886795 0.46187451481819153
0.3182460069656372 0.1814403086900711 0.5448148846626282
0.29294562339782715 0.2132241278886795 0.46187451481819153
0.3979809284210205 0.14714443683624268 0.5226919054985046
0.3764374852180481 0.16211026906967163 0.43430763483047485
0.2757202088832855 0.2511119246482849 0.4513564109802246
0.33333486318588257 0.11674346774816513 0.5071434378623962
0.3664187788963318 0.11788790673017502 0.42790836095809937
0.30228930711746216 0.23037280142307281 0.4286455512046814
0.4164314866065979 0.18595890700817108 0.5938500761985779
0.38305312395095825 0.22363995015621185 0.5396422147750854
0.3292332887649536 0.15423056483268738 0.5314738750457764
0.31235286593437195 0.2772672176361084 0.5940901637077332
0.2734680771827698 0.1677735149860382 0.6235730648040771
0.33145663142204285 0.12333479523658752 0.45341384410858154
0.3773389160633087 0.12664605677127838 0.5847611427307129
0.3537442982196808 0.11427255719900131 0.5432583689689636
0.33190515637397766 0.20936791598796844 0.5499037504196167
0.3446767330169678 0.11062072217464447 0.5981386303901672
0.2892027497291565 0.24004065990447998 0.5552352666854858
0.24175123870372772 0.22777341306209564 0.5019529461860657
0.34186941385269165 0.11223987489938736 0.4602782428264618
0.38453730940818787 0.16628718376159668 0.5258265137672424
0.27629584074020386 0.2564587891101837 0.5403569936752319
0.3625619113445282 0.20964550971984863 0.5618559718132019
0.302143394947052 0.15851226449012756 0.5725046992301941
0.3069850504398346 0.18326622247695923 0.5470239520072937
0.34163063764572144 0.2551507353782654 0.5196975469589233
0.2457558661699295 0.28049957752227783 0.5271548628807068
0.3564433455467224 0.18121440708637238 0.5297002792358398
0.39935147762298584 0.243357315659523 0.42580053210258484
0.3667437732219696 0.11620579659938812 0.5516822338104248
0.2645587921142578 0.11225693672895432 0.5109125971794128
0.29644662141799927 0.2737702429294586 0.5325806736946106
0.39038175344467163 0.13118495047092438 0.5086318254470825
0.2997013330459595 0.26480239629745483 0.5286728739738464
0.38112375140190125 0.1749044954776764 0.4982486963272095
0.28735318779945374 0.1543450951576233 0.5299628376960754
0.41526588797569275 0.2524576485157013 0.42588743567466736
0.3760544955730438 0.10922642797231674 0.6292262077331543
0.27844929695129395 0.16533738374710083 0.4537835419178009
0.3394874036312103 0.12604564428329468 0.5227742791175842
0.34537938237190247 0.19232328236103058 0.5288271903991699
0.21530085802078247 0.12198561429977417 0.6003031134605408
0.35556766390800476 0.14036424458026886 0.4868059754371643
0.2596411108970642 0.14811573922634125 0.4388332664966583
0.24655258655548096 0.11058799922466278 0.5586791634559631
0.3164091110229492 0.23256643116474152 0.5833163857460022
0.34347453713417053 0.1146240085363388 0.4337829351425171
0.2966223955154419 0.15287253260612488 0.45641815662384033
0.40255212783813477 0.22931113839149475 0.4469910264015198
0.24782568216323853 0.133048877120018 0.6259239315986633
0.2502467632293701 0.20327739417552948 0.6152401566505432
0.41443079710006714 0.17703473567962646 0.47390568256378174
0.24354620277881622 0.11451730877161026 0.5656740069389343
0.29188480973243713 0.14532139897346497 0.5831085443496704
0.33669066429138184 0.21414853632450104 0.5028522610664368
0.23469552397727966 0.1350695937871933 0.5975850820541382
0.32311853766441345 0.24653610587120056 0.4475010335445404
0.2918650507926941 0.2094595730304718 0.5742936730384827
0.3267683684825897 0.19954226911067963 0.4519309401512146
0.2666036784648895 0.13340570032596588 0.5911775827407837
0.2537079453468323 0.1642308235168457 0.5064463019371033
0.2529379427433014 0.16657233238220215 0.5960333943367004
0.27592089772224426 0.11128953844308853 0.6011872887611389
0.26557567715644836 0.2715538740158081 0.61081463098526
0.4164296090602875 0.24207665026187897 0.4544285237789154
0.2700175344944 0.14633266627788544 0.4482016861438751
0.2797951102256775 0.1800706535577774 0.5466495156288147
0.2492750585079193 0.16925793886184692 0.506782591342926
0.33516913652420044 0.2642621397972107 0.543609619140625
0.37365466356277466 0.12052606791257858 0.5845180153846741
0.3521305322647095 0.2100192904472351 0.5786242485046387
0.2608166038990021 0.14327450096607208 0.5707648396492004
0.32786858081817627 0.20580682158470154 0.5896854996681213
0.27012747526168823 0.2808646261692047 0.5820523500442505
0.2587454617023468 0.2559475302696228 0.5082449913024902
0.34257757663726807 0.13682827353477478 0.6286754608154297
0.23461754620075226 0.1960262507200241 0.4480757713317871
0.27831459045410156 0.20734786987304688 0.46732062101364136
0.39225688576698303 0.2736648619174957 0.5344190001487732
0.34802770614624023 0.10932391881942749 0.4832404553890228
0.236454039812088 0.25093579292297363 0.5014345645904541
0.3182920515537262 0.18207532167434692 0.4744606018066406
0.26587018370628357 0.18613477051258087 0.5278511643409729
0.27938374876976013 0.23030811548233032 0.5206738710403442
0.3481804132461548 0.26966822147369385 0.4446108937263489
0.21369916200637817 0.13088776171207428 0.4908066391944885
0.28289520740509033 0.11411292850971222 0.4677925109863281
0.22194932401180267 0.12061481922864914 0.4805527329444885
0.2608116567134857 0.14837174117565155 0.5412340760231018
0.22487564384937286 0.257209450006485 0.5212934017181396
0.3928917348384857 0.14923827350139618 0.4835396111011505
0.36065474152565 0.12270066142082214 0.4395100772380829
0.2741970717906952 0.23513709008693695 0.5692446231842041
0.4206528961658478 0.15638263523578644 0.5938817262649536
0.39611461758613586 0.14648441970348358 0.6238090991973877
0.31543752551078796 0.19869276881217957 0.6188939213752747
0.29188480973243713 0.14532139897346497 0.5831085443496704
0.33669066429138184 0.21414853632450104 0.5028522610664368
0.23469552397727966 0.1350695937871933 0.5975850820541382
0.32311853766441345 0.24653610587120056 0.4475010335445404
0.25608721375465393 0.2749776542186737 0.5828370451927185
0.2870146632194519 0.1600998044013977 0.45438307523727417
0.3152691125869751 0.1272970288991928 0.4852224588394165
0.375123530626297 0.15226131677627563 0.6067153811454773
0.29961442947387695 0.13252633810043335 0.6073174476623535
0.3144243061542511 0.11485697329044342 0.5648195147514343
0.38212651014328003 0.14783687889575958 0.56722491979599
0.29999542236328125 0.24566921591758728 0.5784217119216919
0.3096369504928589 0.21684260666370392 0.5961296558380127
0.31620097160339355 0.2815858721733093 0.5440886616706848
0.2982642650604248 0.212500661611557 0.47963711619377136
0.391659140586853 0.258817583322525 0.44319069385528564
0.28867748379707336 0.23816832900047302 0.4967082142829895
0.34411177039146423 0.13047996163368225 0.48013755679130554
0.4146686792373657 0.12866520881652832 0.5018550753593445
0.2582269310951233 0.13213025033473969 0.5124791264533997
0.22126881778240204 0.14665468037128448 0.5967525243759155
0.29961442947387695 0.13252633810043335 0.6073174476623535
0.3144243061542511 0.11485697329044342 0.5648195147514343
0.38212651014328003 0.14783687889575958 0.56722491979599
0.29999542236328125 0.24566921591758728 0.5784217119216919
0.3096369504928589 0.21684260666370392 0.5961296558380127
0.31620097160339355 0.2815858721733093 0.5440886616706848
0.2982642650604248 0.212500661611557 0.47963711619377136
0.391659140586853 0.258817583322525 0.44319069385528564
0.28867748379707336 0.23816832900047302 0.4967082142829895
0.34411177039146423 0.13047996163368225 0.48013755679130554
0.4058564603328705 0.13157376646995544 0.5108510851860046
0.22598017752170563 0.13119088113307953 0.48029252886772156
0.33703818917274475 0.1367148905992508 0.49227967858314514
0.39773401618003845 0.24739162623882294 0.4528343677520752
0.35413631796836853 0.2153882533311844 0.617612898349762
0.36080291867256165 0.16571523249149323 0.607201337814331
0.21369348466396332 0.1456201672554016 0.5370090007781982
0.22240877151489258 0.1204046979546547 0.4336070418357849
0.25878915190696716 0.1398564577102661 0.5414131283760071
0.2553020417690277 0.130862757563591 0.5042270421981812
0.3557201325893402 0.23544420301914215 0.48430997133255005
0.37240070104599 0.11218579113483429 0.4673169255256653
0.3848676085472107 0.16884218156337738 0.4322131276130676
0.3141399621963501 0.16213467717170715 0.5235380530357361
0.2769027650356293 0.12000774592161179 0.6325129866600037
0.2625805735588074 0.13019414246082306 0.4410499930381775
0.3704075217247009 0.14515487849712372 0.48053523898124695
0.2626337707042694 0.1889902502298355 0.4262646436691284
0.2652580738067627 0.18599461019039154 0.5198025107383728
0.3572250306606293 0.11393363773822784 0.5412074327468872
0.26549920439720154 0.14662660658359528 0.5573411583900452
0.2776293158531189 0.1942329853773117 0.5726035237312317
0.26126429438591003 0.1436091661453247 0.5703155398368835
0.33013492822647095 0.26832500100135803 0.5819161534309387
0.2459876537322998 0.2084880918264389 0.5392075181007385
0.23641696572303772 0.2416655421257019 0.43179550766944885
0.2255130261182785 0.28164762258529663 0.504738450050354
0.2769027650356293 0.12000774592161179 0.6325129866600037
0.2625805735588074 0.13019414246082306 0.4410499930381775
0.3890734016895294 0.15177449584007263 0.49508798122406006
0.2625805735588074 0.13019414246082306 0.4410499930381775
0.3704075217247009 0.14515487849712372 0.48053523898124695
0.2626337707042694 0.1889902502298355 0.4262646436691284
0.39225688576698303 0.2736648619174957 0.5344190001487732
0.34802770614624023 0.10932391881942749 0.4832404553890228
0.236454039812088 0.25093579292297363 0.5014345645904541
0.3182920515537262 0.18207532167434692 0.4744606018066406
0.26587018370628357 0.18613477051258087 0.5278511643409729
0.27938374876976013 0.23030811548233032 0.5206738710403442
0.3125503659248352 0.2771480977535248 0.614599883556366
0.30372536182403564 0.1503010243177414 0.4760269224643707
0.2787187397480011 0.20960865914821625 0.464531272649765
0.3581666350364685 0.2133600413799286 0.4388904571533203
0.3442688584327698 0.25009259581565857 0.610629141330719
0.2683716416358948 0.19599591195583344 0.4607699513435364
0.3531506061553955 0.27341988682746887 0.42119479179382324
0.22513584792613983 0.1976185292005539 0.5038546323776245
0.22479191422462463 0.28113853931427 0.5661665797233582
0.39465636014938354 0.11280559748411179 0.5007874369621277
0.2649889588356018 0.14535856246948242 0.523223876953125
0.3905770778656006 0.2347918599843979 0.5598627924919128
0.4167366027832031 0.17460502684116364 0.5766738057136536
0.2120063304901123 0.16000117361545563 0.5251860022544861
0.24675674736499786 0.11769528687000275 0.6392189264297485
0.39748403429985046 0.1551738977432251 0.5653485059738159
0.3494451940059662 0.21765613555908203 0.5399266481399536
0.22297348082065582 0.13846926391124725 0.5087809562683105
0.3351000249385834 0.21646937727928162 0.5485213994979858
0.3054310083389282 0.18215185403823853 0.5816409587860107
0.34056299924850464 0.18098482489585876 0.43454018235206604
0.24542801082134247 0.2777276635169983 0.4466758370399475
0.25877660512924194 0.2828534245491028 0.5333353281021118
0.25877660512924194 0.2828534245491028 0.5333353281021118
0.2608647346496582 0.219085231423378 0.5585244297981262
0.271088570356369 0.2707167863845825 0.4639853537082672
0.22047482430934906 0.11706455051898956 0.6045473217964172
0.33879992365837097 0.22114737331867218 0.5021895170211792
0.2410522699356079 0.14591370522975922 0.4872073531150818
0.41834357380867004 0.1292635202407837 0.5343906879425049
0.41834357380867004 0.1292635202407837 0.5343906879425049
0.3345518410205841 0.13420508801937103 0.5864238739013672
0.38668859004974365 0.12929585576057434 0.5630360841751099
0.2703327536582947 0.12999479472637177 0.4834495186805725
0.41501206159591675 0.24413909018039703 0.5113208293914795
0.40780889987945557 0.18419040739536285 0.551085889339447
0.3703073561191559 0.20197781920433044 0.538777768611908
0.389066606760025 0.22922830283641815 0.5589333772659302
0.3543646037578583 0.2320062518119812 0.5197470784187317
0.389066606760025 0.22922830283641815 0.5589333772659302
0.3543646037578583 0.2320062518119812 0.5197470784187317
0.3543646037578583 0.2320062518119812 0.5197470784187317
0.28268611431121826 0.17311826348304749 0.5546794533729553
0.21406306326389313 0.11461471766233444 0.5105659365653992
0.35089990496635437 0.2441500723361969 0.4442533850669861
0.2595754563808441 0.14370223879814148 0.5228165984153748
0.3654796779155731 0.21106116473674774 0.4346907138824463
0.24655258655548096 0.11058799922466278 0.5586791634559631
0.3164091110229492 0.23256643116474152 0.5833163857460022
0.34347453713417053 0.1146240085363388 0.4337829351425171
0.34347453713417053 0.1146240085363388 0.4337829351425171
0.2966223955154419 0.15287253260612488 0.45641815662384033
0.36218222975730896 0.2119693160057068 0.6063255667686462
0.24986645579338074 0.27031779289245605 0.5213868618011475
0.33915719389915466 0.2503412067890167 0.5512085556983948
0.3673202395439148 0.24106237292289734 0.5131005048751831
0.3184758126735687 0.15172035992145538 0.5151296854019165
0.38600918650627136 0.16226504743099213 0.5173399448394775
0.26831409335136414 0.1438092440366745 0.5883969068527222
0.23167380690574646 0.11967802792787552 0.457340270280838
0.311514675617218 0.12145169079303741 0.6084519028663635
0.3095141351222992 0.1518857777118683 0.6146526336669922
0.26174187660217285 0.2133534699678421 0.476887047290802
0.34319785237312317 0.27500125765800476 0.4940107464790344
0.2248525172472 0.11514388769865036 0.4340626001358032
0.2988203465938568 0.17353962361812592 0.4578399360179901
0.2439422309398651 0.17690789699554443 0.6089531779289246
0.2713596224784851 0.2803289294242859 0.6138266324996948
0.4169495403766632 0.16336806118488312 0.48595723509788513
0.3937186002731323 0.13583727180957794 0.5684661269187927
0.2679338753223419 0.24957740306854248 0.6059330701828003
0.4044147729873657 0.2240949124097824 0.5034151673316956
0.4153875708580017 0.16602450609207153 0.5534936785697937
0.39748403429985046 0.1551738977432251 0.5653485059738159
0.3494451940059662 0.21765613555908203 0.5399266481399536
0.37171030044555664 0.19783324003219604 0.5093837380409241
0.3428790867328644 0.23472025990486145 0.5980396866798401
0.3035559058189392 0.1151851937174797 0.5289667844772339
0.24175123870372772 0.22777341306209564 0.5019529461860657
0.2410522699356079 0.14591370522975922 0.4872073531150818
0.41834357380867004 0.1292635202407837 0.5343906879425049
0.3345518410205841 0.13420508801937103 0.5864238739013672
0.38668859004974365 0.12929585576057434 0.5630360841751099
0.2703327536582947 0.12999479472637177 0.4834495186805725
0.41501206159591675 0.24413909018039703 0.5113208293914795
0.40780889987945557 0.18419040739536285 0.551085889339447
0.3703073561191559 0.20197781920433044 0.538777768611908
0.389066606760025 0.22922830283641815 0.5589333772659302
0.3543646037578583 0.2320062518119812 0.5197470784187317
0.28268611431121826 0.17311826348304749 0.5546794533729553
0.21406306326389313 0.11461471766233444 0.5105659365653992
0.35089990496635437 0.2441500723361969 0.4442533850669861
0.2595754563808441 0.14370223879814148 0.5228165984153748
0.24802225828170776 0.12331885099411011 0.542640209197998
0.40289244055747986 0.11784379184246063 0.5152227878570557
0.295038640499115 0.13020963966846466 0.6276284456253052
0.3188745379447937 0.15845245122909546 0.49500444531440735
0.3885207772254944 0.18631818890571594 0.6147339344024658
0.38288259506225586 0.19276466965675354 0.5639768838882446
0.21369916200637817 0.13088776171207428 0.4908066391944885
0.23385173082351685 0.17510519921779633 0.5668124556541443
0.242764413356781 0.19728931784629822 0.4260353744029999
0.3641989231109619 0.13518697023391724 0.6284587383270264
0.2580816447734833 0.173482283949852 0.5168305039405823
0.2448270320892334 0.27252641320228577 0.5914106369018555
0.3558651804924011 0.2263222485780716 0.5675066709518433
0.2550036907196045 0.113809734582901 0.6112140417098999
0.3217769265174866 0.2429599165916443 0.5715656280517578
0.32214051485061646 0.113950215280056 0.4628927409648895
0.2778932452201843 0.13915231823921204 0.5835638642311096
0.36117294430732727 0.17944397032260895 0.5032325387001038
0.34537938237190247 0.19232328236103058 0.5288271903991699
0.21530085802078247 0.12198561429977417 0.6003031134605408
0.35556766390800476 0.14036424458026886 0.4868059754371643
0.2596411108970642 0.14811573922634125 0.4388332664966583
0.24655258655548096 0.11058799922466278 0.5586791634559631
0.3164091110229492 0.23256643116474152 0.5833163857460022
0.34347453713417053 0.1146240085363388 0.4337829351425171
0.343323290348053 0.11453541368246078 0.4339121878147125
0.3061417043209076 0.26435938477516174 0.44853776693344116
0.2878265082836151 0.24012833833694458 0.5196574330329895
0.36218222975730896 0.2119693160057068 0.6063255667686462
0.25237756967544556 0.28002795577049255 0.5999575853347778
0.3055603802204132 0.21958212554454803 0.4741520881652832
0.24802225828170776 0.12331885099411011 0.542640209197998
0.40289244055747986 0.11784379184246063 0.5152227878570557
0.295038640499115 0.13020963966846466 0.6276284456253052
0.3188745379447937 0.15845245122909546 0.49500444531440735
0.3885207772254944 0.18631818890571594 0.6147339344024658
0.38288259506225586 0.19276466965675354 0.5639768838882446
0.21369916200637817 0.13088776171207428 0.4908066391944885
0.28289520740509033 0.11411292850971222 0.4677925109863281
0.22194932401180267 0.12061481922864914 0.4805527329444885
0.2608116567134857 0.14837174117565155 0.5412340760231018
0.22487564384937286 0.257209450006485 0.5212934017181396
0.3928917348384857 0.14923827350139618 0.4835396111011505
0.36065474152565 0.12270066142082214 0.4395100772380829
0.2741970717906952 0.23513709008693695 0.5692446231842041
0.4206528961658478 0.15638263523578644 0.5938817262649536
0.39611461758613586 0.14648441970348358 0.6238090991973877
0.31543752551078796 0.19869276881217957 0.6188939213752747
0.29188480973243713 0.14532139897346497 0.5831085443496704
0.22672809660434723 0.15999896824359894 0.548736035823822
0.3641989231109619 0.13518697023391724 0.6284587383270264
0.2580816447734833 0.173482283949852 0.5168305039405823
0.2448270320892334 0.27252641320228577 0.5914106369018555
0.3558651804924011 0.2263222485780716 0.5675066709518433
0.2550036907196045 0.113809734582901 0.6112140417098999
0.3217769265174866 0.2429599165916443 0.5715656280517578
0.32214051485061646 0.113950215280056 0.4628927409648895
0.2778932452201843 0.13915231823921204 0.5835638642311096
0.3330557644367218 0.1315155029296875 0.5186175107955933
0.3794311583042145 0.2718151807785034 0.47752809524536133
0.23948374390602112 0.18973198533058167 0.6232190728187561
0.41229110956192017 0.1388196498155594 0.49294012784957886
0.37579262256622314 0.22903238236904144 0.5059698224067688
0.27396339178085327 0.11608150601387024 0.5108950734138489
0.23273885250091553 0.1925438493490219 0.6163593530654907
0.34581518173217773 0.18616509437561035 0.52419513463974
0.3165990710258484 0.17412525415420532 0.5648396015167236
0.27236104011535645 0.1925482451915741 0.5599170327186584
0.3137674033641815 0.16592587530612946 0.5384823083877563
0.3456139862537384 0.1415470987558365 0.6064440011978149
0.3377152681350708 0.22598248720169067 0.4257986843585968
