ply
format ascii 1.0
element vertex 823
property float x
property float y
property float z
end_header
0.3477715253829956 0.11482259631156921 0.498626708984375
0.340359628200531 0.23869650065898895 0.47069865465164185
0.2605687975883484 0.16992080211639404 0.6153591275215149
0.28443264961242676 0.2234385907649994 0.5131036043167114
0.2988939881324768 0.29543766379356384 0.6142165064811707
0.23940788209438324 0.19130069017410278 0.5324393510818481
0.20733919739723206 0.2883315980434418 0.46158567070961
0.26741498708724976 0.24090659618377686 0.5983353853225708
0.38272154331207275 0.12870165705680847 0.4441622793674469
0.23028916120529175 0.2516995370388031 0.5639065504074097
0.372123122215271 0.2103470414876938 0.43332618474960327
0.22237303853034973 0.21287217736244202 0.5223573446273804
0.34589269757270813 0.25820502638816833 0.49763715267181396
0.2194463312625885 0.2612324357032776 0.4511723518371582
0.36238476634025574 0.24631087481975555 0.5638289451599121
0.4026571214199066 0.27189576625823975 0.4815536439418793
0.3058169186115265 0.19522492587566376 0.4965730607509613
0.26767438650131226 0.13132406771183014 0.4544009566307068
0.35143962502479553 0.2508111596107483 0.4526829123497009
0.293291300535202 0.12763963639736176 0.6300307512283325
0.32897087931632996 0.26392000913619995 0.5544089674949646
0.3688358664512634 0.2914241850376129 0.5820146203041077
0.2898407578468323 0.2415475845336914 0.5878068208694458
0.3048778176307678 0.23767103254795074 0.5516380667686462
0.38383638858795166 0.21814435720443726 0.518047034740448
0.4059950113296509 0.2131757289171219 0.5260987281799316
0.26808255910873413 0.24637576937675476 0.5431276559829712
0.3645375669002533 0.22991448640823364 0.567571759223938
0.34590861201286316 0.201682910323143 0.47568902373313904
0.2203647643327713 0.15858246386051178 0.6127015948295593
0.2529169023036957 0.22172024846076965 0.4282110929489136
0.2608041763305664 0.16134972870349884 0.524316132068634
0.25440067052841187 0.28585249185562134 0.4801447093486786
0.2742479741573334 0.15393327176570892 0.6002697348594666
0.3449591100215912 0.18473146855831146 0.4589024782180786
0.27640557289123535 0.18744036555290222 0.4402158260345459
0.22980056703090668 0.2233208417892456 0.44747501611709595
0.3256594240665436 0.19337034225463867 0.5492740273475647
0.27957046031951904 0.25689196586608887 0.506156861782074
0.3749074637889862 0.26919880509376526 0.4985817074775696
0.39400020241737366 0.2539072632789612 0.5717127323150635
0.21535436809062958 0.17041459679603577 0.4720093607902527
0.276094526052475 0.11317887157201767 0.46704208850860596
0.2793532609939575 0.28840526938438416 0.49982547760009766
0.36076727509498596 0.23739755153656006 0.5364299416542053
0.3167322278022766 0.18996164202690125 0.5705249905586243
0.35807231068611145 0.1683565080165863 0.47214630246162415
0.21728084981441498 0.29238361120224 0.5475569367408752
0.26479730010032654 0.24799054861068726 0.5173040628433228
0.22151386737823486 0.2690906822681427 0.461315780878067
0.3540658950805664 0.2367253601551056 0.4236474931240082
0.28906485438346863 0.20751610398292542 0.5689701437950134
0.2966507077217102 0.2277885228395462 0.4524238705635071
0.22841203212738037 0.12372835725545883 0.49929869174957275
0.2990487813949585 0.13539136946201324 0.6091232299804688
0.37251874804496765 0.2561221420764923 0.5054970383644104
0.3212127387523651 0.28927081823349 0.6170564293861389
0.33758559823036194 0.14714346826076508 0.5640937685966492
0.2203647643327713 0.15858246386051178 0.6127015948295593
0.34569022059440613 0.1339457631111145 0.5416118502616882
0.39848554134368896 0.25245776772499084 0.5760160088539124
0.344759464263916 0.20096087455749512 0.5111919641494751
0.38649800419807434 0.25582000613212585 0.5055352449417114
0.2379349172115326 0.19007252156734467 0.44951629638671875
0.25706997513771057 0.21608483791351318 0.5466645956039429
0.2251712530851364 0.2322617471218109 0.5888040661811829
0.3574114143848419 0.17822013795375824 0.48262831568717957
0.25063514709472656 0.15711058676242828 0.4399041533470154
0.3206985890865326 0.18274278938770294 0.6045752167701721
0.3601676821708679 0.2709684669971466 0.48747143149375916
0.2628534138202667 0.1717926561832428 0.6031662821769714
0.3599916994571686 0.15436668694019318 0.4786475598812103
0.3585429787635803 0.22720760107040405 0.4263879060745239
0.40327706933021545 0.26491105556488037 0.468733012676239
0.3108358383178711 0.2535061836242676 0.6066163778305054
0.25993895530700684 0.1706829071044922 0.48167550563812256
0.20866288244724274 0.21782390773296356 0.5273142457008362
0.21648740768432617 0.18077872693538666 0.6327739953994751
0.3545370399951935 0.2657412886619568 0.5807937383651733
0.3608485162258148 0.22972823679447174 0.46381211280822754
0.30661115050315857 0.1729803830385208 0.44156983494758606
0.3018516004085541 0.17874790728092194 0.49173039197921753
0.238068088889122 0.1856161504983902 0.44830116629600525
0.3048778176307678 0.23767103254795074 0.5516380667686462
0.38383638858795166 0.21814435720443726 0.518047034740448
0.21548303961753845 0.1556873619556427 0.43822500109672546
0.25688380002975464 0.1121152713894844 0.5000681281089783
0.37506747245788574 0.1486697793006897 0.5241667628288269
0.24362437427043915 0.16081155836582184 0.46369001269340515
0.25029268860816956 0.222765251994133 0.5670235753059387
0.3599916994571686 0.15436668694019318 0.4786475598812103
0.3585429787635803 0.22720760107040405 0.4263879060745239
0.40327706933021545 0.26491105556488037 0.468733012676239
0.3108358383178711 0.2535061836242676 0.6066163778305054
0.25993895530700684 0.1706829071044922 0.48167550563812256
0.20866288244724274 0.21782390773296356 0.5273142457008362
0.21648740768432617 0.18077872693538666 0.6327739953994751
0.3545370399951935 0.2657412886619568 0.5807937383651733
0.3608485162258148 0.22972823679447174 0.46381211280822754
0.30661115050315857 0.1729803830385208 0.44156983494758606
0.3018516004085541 0.17874790728092194 0.49173039197921753
0.3198291063308716 0.17893555760383606 0.47721830010414124
0.3826092779636383 0.24014154076576233 0.5383252501487732
0.35647711157798767 0.1913352608680725 0.5491572618484497
0.3017539083957672 0.26904019713401794 0.510799765586853
0.3739567697048187 0.2963104844093323 0.6077010631561279
0.2798905074596405 0.22995999455451965 0.5541102290153503
0.23063641786575317 0.25471827387809753 0.4587567448616028
0.40156233310699463 0.22522695362567902 0.5067998766899109
0.3787316381931305 0.24424178898334503 0.49418070912361145
0.31695687770843506 0.18906216323375702 0.5080767273902893
0.23349635303020477 0.1104726791381836 0.44864925742149353
0.3958446979522705 0.15019749104976654 0.5373021364212036
0.2595209777355194 0.18458136916160583 0.5466232895851135
0.33902421593666077 0.11521781235933304 0.5040531158447266
0.3136174976825714 0.2115720957517624 0.5317202210426331
0.24030733108520508 0.2800714075565338 0.467866450548172
0.20489543676376343 0.1119832694530487 0.45331573486328125
0.30094870924949646 0.18157756328582764 0.5502435564994812
0.21279992163181305 0.2788316011428833 0.5159353017807007
0.34046471118927 0.21684004366397858 0.5708310604095459
0.2488114833831787 0.26951509714126587 0.5515998005867004
0.3116406202316284 0.28897547721862793 0.4788207709789276
0.32715538144111633 0.26378798484802246 0.5520898699760437
0.24551567435264587 0.24832330644130707 0.4988017976284027
0.2445046305656433 0.18298329412937164 0.5540856719017029
0.3545684218406677 0.23617081344127655 0.479729026556015
0.30779939889907837 0.26580002903938293 0.44423168897628784
0.2132694125175476 0.2536463439464569 0.47233930230140686
0.39015498757362366 0.1601739525794983 0.5999147891998291
0.3379075229167938 0.18015101552009583 0.5952374339103699
0.22315233945846558 0.18038086593151093 0.4333929419517517
0.26992523670196533 0.20938622951507568 0.6175923943519592
0.3950970768928528 0.11444174498319626 0.47050750255584717
0.29908809065818787 0.1883499175310135 0.4387829899787903
0.23750503361225128 0.14634257555007935 0.6029546856880188
0.24477611482143402 0.18651379644870758 0.45865336060523987
0.28661683201789856 0.14529269933700562 0.4423411190509796
0.2874276340007782 0.26133474707603455 0.47722920775413513
0.33088260889053345 0.201865091919899 0.6189265847206116
0.2846887707710266 0.12149731069803238 0.6307387948036194
0.32003626227378845 0.18187525868415833 0.5179252028465271
0.32552003860473633 0.15278220176696777 0.4303986430168152
0.35782700777053833 0.12687906622886658 0.5689522624015808
0.37690994143486023 0.1933135688304901 0.4880419373512268
0.353748619556427 0.16832394897937775 0.47874099016189575
0.39831671118736267 0.1101318895816803 0.5172883868217468
0.3795567452907562 0.11438088119029999 0.5598101019859314
0.4015633165836334 0.158240407705307 0.46470874547958374
0.379820317029953 0.13706330955028534 0.6300877332687378
0.2702544629573822 0.2745567262172699 0.44307172298431396
0.23599113523960114 0.13756531476974487 0.49648529291152954
0.3869965076446533 0.17327754199504852 0.5426298975944519
0.2349523901939392 0.28014540672302246 0.599712610244751
0.2798759341239929 0.21501614153385162 0.6133781671524048
0.27363020181655884 0.2405371516942978 0.4281308054924011
0.3846935033798218 0.14369961619377136 0.5139861702919006
0.2932540476322174 0.21112360060214996 0.6247931718826294
0.35124221444129944 0.28254202008247375 0.6063282489776611
0.2095922976732254 0.2765466570854187 0.5328596234321594
0.22160468995571136 0.21721124649047852 0.48845505714416504
0.3217023015022278 0.2469121515750885 0.44116511940956116
0.20671753585338593 0.1251104325056076 0.470107764005661
0.3665614724159241 0.1703208088874817 0.4432140290737152
0.3993910849094391 0.11618596315383911 0.5499122738838196
0.38300782442092896 0.14342930912971497 0.5554341077804565
0.23517662286758423 0.20297110080718994 0.5024370551109314
0.36608031392097473 0.14807142317295074 0.49406805634498596
0.33560121059417725 0.13509735465049744 0.4962730407714844
0.2216063290834427 0.2618389427661896 0.5245048403739929
0.2626839876174927 0.1451808214187622 0.5621040463447571
0.24413834512233734 0.23606477677822113 0.4504832327365875
0.2847045361995697 0.11499880999326706 0.4532671868801117
0.2682490944862366 0.11594441533088684 0.6090527772903442
0.22565260529518127 0.12364587187767029 0.4668112099170685
0.2844070494174957 0.26485341787338257 0.5322247743606567
0.3135641813278198 0.2404109388589859 0.4343550205230713
0.33929842710494995 0.13203154504299164 0.519391655921936
0.3339023292064667 0.22542442381381989 0.42731812596321106
0.3480658531188965 0.11400475353002548 0.6249500513076782
0.3566526770591736 0.1573256105184555 0.47643911838531494
0.26257285475730896 0.23804084956645966 0.6123939752578735
0.4006839096546173 0.11655925214290619 0.5496791005134583
0.27161651849746704 0.2062188982963562 0.5379931926727295
0.2839001715183258 0.13655897974967957 0.4596872329711914
0.23252147436141968 0.16974134743213654 0.5788339972496033
0.3846935033798218 0.14369961619377136 0.5139861702919006
0.2932540476322174 0.21112360060214996 0.6247931718826294
0.35124221444129944 0.28254202008247375 0.6063282489776611
0.2095922976732254 0.2765466570854187 0.5328596234321594
0.22160468995571136 0.21721124649047852 0.48845505714416504
0.3217023015022278 0.2469121515750885 0.44116511940956116
0.20671753585338593 0.1251104325056076 0.470107764005661
0.3665614724159241 0.1703208088874817 0.4432140290737152
0.3993910849094391 0.11618596315383911 0.5499122738838196
0.38300782442092896 0.14342930912971497 0.5554341077804565
0.23517662286758423 0.20297110080718994 0.5024370551109314
0.36608031392097473 0.14807142317295074 0.49406805634498596
0.33560121059417725 0.13509735465049744 0.4962730407714844
0.33465924859046936 0.17681559920310974 0.6172798871994019
0.24975214898586273 0.2445743829011917 0.595921516418457
0.354525089263916 0.11644256114959717 0.458359956741333
0.2165999710559845 0.19763028621673584 0.431051105260849
0.3232974112033844 0.21547599136829376 0.5922484993934631
0.3872702717781067 0.21499906480312347 0.5921434164047241
0.3716002404689789 0.131524920463562 0.6143776774406433
0.33459603786468506 0.242265522480011 0.45339661836624146
0.30749210715293884 0.21121825277805328 0.49881163239479065
0.23349425196647644 0.15776550769805908 0.500268280506134
0.39769771695137024 0.22237519919872284 0.5526766777038574
0.36031627655029297 0.22786962985992432 0.43965399265289307
0.227499857544899 0.2662884593009949 0.6230184435844421
0.220987930893898 0.12166348844766617 0.4484862983226776
0.29589179158210754 0.27390652894973755 0.6213061809539795
0.36294418573379517 0.27780696749687195 0.5974359512329102
0.3454110324382782 0.15025845170021057 0.6281728744506836
0.3809315860271454 0.29126736521720886 0.5171000361442566
0.32843098044395447 0.20639243721961975 0.5320625901222229
0.2749623954296112 0.2754529118537903 0.5571596622467041
0.32592469453811646 0.12000921368598938 0.5839818716049194
0.2805153727531433 0.12843038141727448 0.5477944016456604
0.2547408640384674 0.14210130274295807 0.5341638326644897
0.3670456111431122 0.12457741051912308 0.42863741517066956
0.3098633885383606 0.2006654143333435 0.4799751937389374
0.3497008681297302 0.13162341713905334 0.5516425371170044
0.2841712534427643 0.22410720586776733 0.5169065594673157
0.37051963806152344 0.22533723711967468 0.5451679229736328
0.3594041168689728 0.23885361850261688 0.43207257986068726
0.32231876254081726 0.20605945587158203 0.5962696075439453
0.23777231574058533 0.14891520142555237 0.527925431728363
0.3863232731819153 0.1605791449546814 0.4896502196788788
0.26867160201072693 0.14435791969299316 0.4692693054676056
0.4009800851345062 0.24326752126216888 0.585652232170105
0.3609311878681183 0.2789326012134552 0.45064690709114075
0.22501708567142487 0.18419066071510315 0.5147181153297424
0.2814931273460388 0.1339184045791626 0.6026611328125
0.21076294779777527 0.26636645197868347 0.5915187001228333
0.28614556789398193 0.2430485039949417 0.47182878851890564
0.350412517786026 0.2466084510087967 0.4986213445663452
0.21146824955940247 0.25565338134765625 0.48519861698150635
0.20954513549804688 0.1759563833475113 0.5806078910827637
0.25345104932785034 0.11151622235774994 0.49461498856544495
0.38321396708488464 0.2740376591682434 0.4374789893627167
0.23909427225589752 0.16359490156173706 0.47221437096595764
0.2611157298088074 0.1507204920053482 0.44991976022720337
0.2433069795370102 0.11221081763505936 0.5031453371047974
0.21365413069725037 0.12788288295269012 0.6285128593444824
0.29084283113479614 0.16854143142700195 0.6306664943695068
0.3643260598182678 0.2844803035259247 0.5919995903968811
0.2898407578468323 0.2415475845336914 0.5878068208694458
0.3497008681297302 0.13162341713905334 0.5516425371170044
0.2841712534427643 0.22410720586776733 0.5169065594673157
0.37051963806152344 0.22533723711967468 0.5451679229736328
0.3594041168689728 0.23885361850261688 0.43207257986068726
0.32231876254081726 0.20605945587158203 0.5962696075439453
0.23777231574058533 0.14891520142555237 0.527925431728363
0.3863232731819153 0.1605791449546814 0.4896502196788788
0.26867160201072693 0.14435791969299316 0.4692693054676056
0.4009800851345062 0.24326752126216888 0.585652232170105
0.3609311878681183 0.2789326012134552 0.45064690709114075
0.22501708567142487 0.18419066071510315 0.5147181153297424
0.3570232689380646 0.20398516952991486 0.5962387919425964
0.26398202776908875 0.11189716309309006 0.43147552013397217
0.3104257583618164 0.17893271148204803 0.5801568031311035
0.3958373963832855 0.18359141051769257 0.5114290118217468
0.33385446667671204 0.28882837295532227 0.49074000120162964
0.2696633040904999 0.1716083586215973 0.5054290890693665
0.28298357129096985 0.15487772226333618 0.4951557517051697
0.3379824459552765 0.18084092438220978 0.5858061909675598
0.23888732492923737 0.22362099587917328 0.540320634841919
0.2327127605676651 0.22210091352462769 0.5928931832313538
0.29599815607070923 0.20034286379814148 0.5517223477363586
0.2818242013454437 0.2215316891670227 0.47529301047325134
0.3306347131729126 0.13926737010478973 0.43282240629196167
0.35782548785209656 0.11678465455770493 0.4722960889339447
0.3391650915145874 0.12347488105297089 0.44743695855140686
0.36748242378234863 0.29060277342796326 0.5116515755653381
0.3906480073928833 0.27683430910110474 0.44072985649108887
0.2968128025531769 0.1587371528148651 0.5040582418441772
0.23718473315238953 0.14128802716732025 0.5138832926750183
0.2691698670387268 0.19304212927818298 0.5571855306625366
0.3048778176307678 0.23767103254795074 0.5516380667686462
0.3846935033798218 0.14369961619377136 0.5139861702919006
0.2932540476322174 0.21112360060214996 0.6247931718826294
0.35124221444129944 0.28254202008247375 0.6063282489776611
0.2095922976732254 0.2765466570854187 0.5328596234321594
0.22160468995571136 0.21721124649047852 0.48845505714416504
0.3217023015022278 0.2469121515750885 0.44116511940956116
0.20671753585338593 0.1251104325056076 0.470107764005661
0.3665614724159241 0.1703208088874817 0.4432140290737152
0.3993910849094391 0.11618596315383911 0.5499122738838196
0.259712815284729 0.26931628584861755 0.47188401222229004
0.340251624584198 0.12901006639003754 0.4708634316921234
0.3535369634628296 0.1576949954032898 0.5235887169837952
0.40613558888435364 0.1525546908378601 0.544930636882782
0.3731566071510315 0.129666268825531 0.4707554876804352
0.24417605996131897 0.3003753423690796 0.6178081035614014
0.2679363787174225 0.28861531615257263 0.43784666061401367
0.31033244729042053 0.2751585841178894 0.4593656063079834
0.38745951652526855 0.1147986352443695 0.5504657030105591
0.31257015466690063 0.16766519844532013 0.6087364554405212
0.3072394132614136 0.2619397044181824 0.6185373067855835
0.38187021017074585 0.22036369144916534 0.5565290451049805
0.4006427526473999 0.21941213309764862 0.4741317331790924
0.36961954832077026 0.21014994382858276 0.533410370349884
0.3376235067844391 0.15039968490600586 0.5444955229759216
0.2583608031272888 0.17537282407283783 0.5338481068611145
0.3282149136066437 0.12179571390151978 0.43909454345703125
0.38875725865364075 0.2747747600078583 0.5135608315467834
0.32450684905052185 0.2079874873161316 0.4894282817840576
0.24926422536373138 0.20273172855377197 0.5137219429016113
0.40695783495903015 0.2735256254673004 0.5913077592849731
0.3246590793132782 0.23103640973567963 0.5764248371124268
0.3048778176307678 0.23767103254795074 0.5516380667686462
0.2749623954296112 0.2754529118537903 0.5571596622467041
0.32592469453811646 0.12000921368598938 0.5839818716049194
0.2616261839866638 0.23420633375644684 0.4595431983470917
0.2798759341239929 0.21501614153385162 0.6133781671524048
0.27363020181655884 0.2405371516942978 0.4281308054924011
0.3846935033798218 0.14369961619377136 0.5139861702919006
0.2932540476322174 0.21112360060214996 0.6247931718826294
0.35124221444129944 0.28254202008247375 0.6063282489776611
0.2095922976732254 0.2765466570854187 0.5328596234321594
0.22160468995571136 0.21721124649047852 0.48845505714416504
0.3217023015022278 0.2469121515750885 0.44116511940956116
0.20671753585338593 0.1251104325056076 0.470107764005661
0.3665614724159241 0.1703208088874817 0.4432140290737152
0.402913898229599 0.11372152715921402 0.5536748766899109
0.30138152837753296 0.13756515085697174 0.43100008368492126
0.22618554532527924 0.12828589975833893 0.4953545928001404
0.2865832448005676 0.14545036852359772 0.4847663342952728
0.34953469038009644 0.1994287520647049 0.495859295129776
0.302890419960022 0.13586367666721344 0.4356920123100281
0.20969203114509583 0.1970553994178772 0.5481685400009155
0.35795900225639343 0.14132805168628693 0.5602036118507385
0.3690316379070282 0.11436150223016739 0.46596139669418335
0.27153417468070984 0.12828680872917175 0.5056425333023071
0.34378427267074585 0.2670249342918396 0.44390586018562317
0.2114410698413849 0.2033890336751938 0.6032382249832153
0.3669494390487671 0.14825890958309174 0.490354061126709
0.33802327513694763 0.27881598472595215 0.5742658972740173
0.23764200508594513 0.2607177197933197 0.4878947138786316
0.39039698243141174 0.295550137758255 0.5714232325553894
0.21976421773433685 0.13190105557441711 0.5822209119796753
0.21486608684062958 0.19053344428539276 0.6324164867401123
0.2506755292415619 0.19479383528232574 0.6062819361686707
0.2749623954296112 0.2754529118537903 0.5571596622467041
0.32592469453811646 0.12000921368598938 0.5839818716049194
0.22233951091766357 0.11895494163036346 0.48178237676620483
0.25326797366142273 0.16368167102336884 0.6130356788635254
0.3850330114364624 0.2302422821521759 0.5032618045806885
0.24033798277378082 0.13590261340141296 0.6281901001930237
0.29625841975212097 0.2592838406562805 0.6191427111625671
0.2518908381462097 0.1541626751422882 0.43814682960510254
0.4039348065853119 0.23155292868614197 0.5987823009490967
0.23517662286758423 0.20297110080718994 0.5024370551109314
0.36608031392097473 0.14807142317295074 0.49406805634498596
0.33560121059417725 0.13509735465049744 0.4962730407714844
0.33465924859046936 0.17681559920310974 0.6172798871994019
0.24975214898586273 0.2445743829011917 0.595921516418457
0.354525089263916 0.11644256114959717 0.458359956741333
0.3752221167087555 0.2943810522556305 0.5731633901596069
0.38295218348503113 0.13346268236637115 0.5883284211158752
0.27895569801330566 0.25748366117477417 0.5388356447219849
0.3867615759372711 0.28972968459129333 0.48997557163238525
0.38126617670059204 0.20588266849517822 0.5562773942947388
0.26985108852386475 0.19506828486919403 0.5818197727203369
0.3104742467403412 0.1304674744606018 0.5850825905799866
0.28230932354927063 0.15095362067222595 0.4494265019893646
0.27340781688690186 0.29861313104629517 0.5987718105316162
0.25941815972328186 0.22456888854503632 0.5653297305107117
0.23452317714691162 0.2703717350959778 0.4617253541946411
0.34602513909339905 0.12355402857065201 0.4641561806201935
0.389046847820282 0.25320324301719666 0.5070996284484863
0.28987231850624084 0.1606118530035019 0.5537621378898621
0.2736092209815979 0.2711721658706665 0.4489479660987854
0.25015512108802795 0.1374075710773468 0.5864566564559937
0.2749623954296112 0.2754529118537903 0.5571596622467041
0.27768462896347046 0.23437878489494324 0.45395734906196594
0.30472052097320557 0.15637457370758057 0.5957303643226624
0.2766416370868683 0.26429668068885803 0.5969008207321167
0.3813924193382263 0.24704904854297638 0.5833307504653931
0.2658320665359497 0.17738838493824005 0.6007246375083923
0.210597962141037 0.2893388271331787 0.4814956486225128
0.37501394748687744 0.2138182520866394 0.5379566550254822
0.23633691668510437 0.17107011377811432 0.6144762635231018
0.38922029733657837 0.27309077978134155 0.5724161863327026
0.2587026357650757 0.18545188009738922 0.47622886300086975
0.34578707814216614 0.19270378351211548 0.47979283332824707
0.2966180443763733 0.1691153645515442 0.4766025245189667
0.24343237280845642 0.2101707011461258 0.5179404020309448
0.20699937641620636 0.12646140158176422 0.46224477887153625
0.313192754983902 0.28309333324432373 0.5098250508308411
0.2484484612941742 0.2872250974178314 0.6115479469299316
0.3393193185329437 0.2833455801010132 0.49821820855140686
0.23918382823467255 0.12653447687625885 0.6062087416648865
0.29944872856140137 0.1450040638446808 0.6225230097770691
0.21088813245296478 0.26863446831703186 0.45777270197868347
0.3575446307659149 0.21485422551631927 0.6015326380729675
0.25092044472694397 0.1730060875415802 0.4977858364582062
0.27218878269195557 0.24456952512264252 0.5427048206329346
0.3653867244720459 0.24250440299510956 0.5193610787391663
0.22594115138053894 0.27972814440727234 0.5484891533851624
0.2325555831193924 0.13709963858127594 0.6222517490386963
0.34930646419525146 0.28461939096450806 0.5843379497528076
0.2870132029056549 0.22839125990867615 0.4886246919631958
0.2444562315940857 0.14054915308952332 0.4922339916229248
0.3229080140590668 0.17807814478874207 0.5585576891899109
0.21319401264190674 0.1500730961561203 0.6002267599105835
0.3340494632720947 0.18863500654697418 0.6179571747779846
0.3217023015022278 0.2469121515750885 0.44116511940956116
0.20671753585338593 0.1251104325056076 0.470107764005661
0.3665614724159241 0.1703208088874817 0.4432140290737152
0.3993910849094391 0.11618596315383911 0.5499122738838196
0.38300782442092896 0.14342930912971497 0.5554341077804565
0.23517662286758423 0.20297110080718994 0.5024370551109314
0.36608031392097473 0.14807142317295074 0.49406805634498596
0.33560121059417725 0.13509735465049744 0.4962730407714844
0.33465924859046936 0.17681559920310974 0.6172798871994019
0.24975214898586273 0.2445743829011917 0.595921516418457
0.354525089263916 0.11644256114959717 0.458359956741333
0.2165999710559845 0.19763028621673584 0.431051105260849
0.30846449732780457 0.19998134672641754 0.5541984438896179
0.22966672480106354 0.13352157175540924 0.45055484771728516
0.22248022258281708 0.22605480253696442 0.6221731305122375
0.28143781423568726 0.11062538623809814 0.4840809404850006
0.37467333674430847 0.12342735379934311 0.5576043725013733
0.25535455346107483 0.20288194715976715 0.4451513886451721
0.39919987320899963 0.12099836021661758 0.5849209427833557
0.3173462152481079 0.2668919861316681 0.5922049283981323
0.30559948086738586 0.2552141845226288 0.4461784064769745
0.3497014343738556 0.12938715517520905 0.4693203866481781
0.21595068275928497 0.13186611235141754 0.4861488938331604
0.39365363121032715 0.13709333539009094 0.4521118402481079
0.2880040407180786 0.17466415464878082 0.45713427662849426
0.3711424469947815 0.24089853465557098 0.5673215389251709
0.35227108001708984 0.13377568125724792 0.5279120802879333
0.27534985542297363 0.1653599888086319 0.46987736225128174
0.29682374000549316 0.1853863000869751 0.5215265154838562
0.2848292589187622 0.2596486210823059 0.6173572540283203
0.26083770394325256 0.20221856236457825 0.5671207904815674
0.2445046305656433 0.18298329412937164 0.5540856719017029
0.22233951091766357 0.11895494163036346 0.48178237676620483
0.25326797366142273 0.16368167102336884 0.6130356788635254
0.3850330114364624 0.2302422821521759 0.5032618045806885
0.24033798277378082 0.13590261340141296 0.6281901001930237
0.29625841975212097 0.2592838406562805 0.6191427111625671
0.2518908381462097 0.1541626751422882 0.43814682960510254
0.4039348065853119 0.23155292868614197 0.5987823009490967
0.23517662286758423 0.20297110080718994 0.5024370551109314
0.36608031392097473 0.14807142317295074 0.49406805634498596
0.33560121059417725 0.13509735465049744 0.4962730407714844
0.25582224130630493 0.29183030128479004 0.5403195023536682
0.38516491651535034 0.16462266445159912 0.5120813250541687
0.3540792763233185 0.2153662145137787 0.5587716102600098
0.3455730974674225 0.19442763924598694 0.5562127232551575
0.3591325581073761 0.16270765662193298 0.4378853440284729
0.2279258817434311 0.18261146545410156 0.5652955770492554
0.25977376103401184 0.1931237280368805 0.5862008929252625
0.355856716632843 0.2795300781726837 0.5710859894752502
0.27657705545425415 0.18843555450439453 0.6112797260284424
0.39345860481262207 0.2610017657279968 0.5204824805259705
0.3354184627532959 0.17746056616306305 0.5661391615867615
0.20628726482391357 0.23227234184741974 0.4725935757160187
0.3643260598182678 0.2844803035259247 0.5919995903968811
0.389046847820282 0.25320324301719666 0.5070996284484863
0.28987231850624084 0.1606118530035019 0.5537621378898621
0.2736092209815979 0.2711721658706665 0.4489479660987854
0.25015512108802795 0.1374075710773468 0.5864566564559937
0.3825213611125946 0.24804536998271942 0.4413140118122101
0.3420946002006531 0.16724145412445068 0.511184811592102
0.32553762197494507 0.2005106508731842 0.5621686577796936
0.24131564795970917 0.2905556261539459 0.604793131351471
0.2845771014690399 0.2812492847442627 0.4835678040981293
0.3123956024646759 0.22888486087322235 0.5475320816040039
0.3913933336734772 0.16458386182785034 0.6185558438301086
0.38485080003738403 0.1272905468940735 0.42853277921676636
0.3411923050880432 0.23301634192466736 0.46977928280830383
0.245076984167099 0.11588837951421738 0.45993322134017944
0.2526313066482544 0.2608942687511444 0.43481603264808655
0.24847577512264252 0.1775737851858139 0.5771359205245972
0.2493586540222168 0.1714044213294983 0.6118969917297363
0.33721649646759033 0.27090251445770264 0.4691680073738098
0.3237271308898926 0.16065305471420288 0.6020624041557312
0.3780219256877899 0.20947930216789246 0.5249171853065491
0.30812886357307434 0.16135823726654053 0.5779403448104858
0.2927406132221222 0.25792011618614197 0.5636271238327026
0.23692765831947327 0.19601882994174957 0.5565385818481445
0.24787569046020508 0.1287539303302765 0.46137088537216187
0.2334176003932953 0.11893587559461594 0.501369297504425
0.35437682271003723 0.22191882133483887 0.5431658029556274
0.3571573793888092 0.2758861780166626 0.6005683541297913
0.2575671374797821 0.16151729226112366 0.4424763023853302
0.25680482387542725 0.18481770157814026 0.5316555500030518
0.28436124324798584 0.2567034661769867 0.5059841275215149
0.37803223729133606 0.22186635434627533 0.6221145391464233
0.2921698987483978 0.2063671201467514 0.6036974787712097
0.3927616775035858 0.2643173038959503 0.46588215231895447
0.2995462715625763 0.11396494507789612 0.5253150463104248
0.35783207416534424 0.1122232973575592 0.4300297796726227
0.23998329043388367 0.20321044325828552 0.5832754373550415
0.27677300572395325 0.24319365620613098 0.46061718463897705
0.32406502962112427 0.25066077709198 0.5256198048591614
0.2825390696525574 0.14286215603351593 0.46450769901275635
0.35227444767951965 0.2006143480539322 0.5386828184127808
0.2839001715183258 0.13655897974967957 0.4596872329711914
0.2156006246805191 0.26234301924705505 0.6010029315948486
0.39420396089553833 0.12812601029872894 0.5947751998901367
0.35426652431488037 0.1873595416545868 0.6041479110717773
0.39528888463974 0.216965913772583 0.5569232106208801
0.3218682110309601 0.22163760662078857 0.4825383126735687
0.3584672808647156 0.2305244356393814 0.5647624731063843
0.25675100088119507 0.2276277244091034 0.5128709673881531
0.3419695496559143 0.181315615773201 0.48224300146102905
0.260964035987854 0.14630569517612457 0.433427095413208
0.32897457480430603 0.21301425993442535 0.6191508769989014
0.29692548513412476 0.17349503934383392 0.5197392702102661
0.28857454657554626 0.24937736988067627 0.557396650314331
0.31325703859329224 0.1666346788406372 0.6102038025856018
0.29021579027175903 0.169777974486351 0.501097559928894
0.21211273968219757 0.2690613269805908 0.43402573466300964
0.3997207581996918 0.2629413306713104 0.6170920133590698
0.3569694757461548 0.1797991842031479 0.46747952699661255
0.3899020552635193 0.13691627979278564 0.5494173765182495
0.40379008650779724 0.1585732102394104 0.5393259525299072
0.28768688440322876 0.11040439456701279 0.5243617296218872
0.4005456268787384 0.21676009893417358 0.6047229766845703
0.21741126477718353 0.19559359550476074 0.5608487725257874
0.3414180278778076 0.28439295291900635 0.5029891133308411
0.21580970287322998 0.22946152091026306 0.4734675884246826
0.3146222233772278 0.1292143315076828 0.4400232434272766
0.38483890891075134 0.1853017508983612 0.5000795722007751
0.25904911756515503 0.2761186957359314 0.48087531328201294
0.26957863569259644 0.27658501267433167 0.5075086355209351
0.24685059487819672 0.26293596625328064 0.4598868787288666
0.3392312526702881 0.17651571333408356 0.4964919090270996
0.34496983885765076 0.25244516134262085 0.5942845940589905
0.37969356775283813 0.17356814444065094 0.5952123403549194
0.3636973798274994 0.1880398988723755 0.608295202255249
0.2932172417640686 0.2792991101741791 0.5726246237754822
0.4006939232349396 0.29328951239585876 0.610519528388977
0.2870666980743408 0.2688196003437042 0.45209836959838867
0.24455596506595612 0.21799080073833466 0.5900052785873413
0.2791646122932434 0.22550849616527557 0.5751765966415405
0.26509496569633484 0.16915950179100037 0.4572109878063202
0.25671011209487915 0.16159403324127197 0.4465605914592743
0.39583104848861694 0.22755014896392822 0.5628198385238647
0.3323008418083191 0.11322083324193954 0.4458863437175751
0.2680450975894928 0.2785910964012146 0.49064213037490845
0.24585233628749847 0.11551361531019211 0.44081032276153564
0.20664241909980774 0.16223737597465515 0.44258809089660645
0.31021568179130554 0.13689982891082764 0.5818353295326233
0.3805985152721405 0.24875682592391968 0.5474123954772949
0.32481375336647034 0.13745158910751343 0.5399841070175171
0.20781667530536652 0.22480911016464233 0.5219004154205322
0.27043744921684265 0.1165250912308693 0.4445648491382599
0.20833832025527954 0.263055682182312 0.48776859045028687
0.3507671356201172 0.19687703251838684 0.4338650703430176
0.36610743403434753 0.1530991643667221 0.5524901747703552
0.3946226239204407 0.11607760936021805 0.5387521386146545
0.3279935121536255 0.2742736041545868 0.42672809958457947
0.28115272521972656 0.18956437706947327 0.6241026520729065
0.3431888818740845 0.17436712980270386 0.49412965774536133
0.34275200963020325 0.2698732614517212 0.5905207395553589
0.3232738673686981 0.19546757638454437 0.5524711012840271
0.37609410285949707 0.2890026271343231 0.49606919288635254
0.2160184532403946 0.13740725815296173 0.5282570719718933
0.2458394318819046 0.16242577135562897 0.629227340221405
0.30442148447036743 0.23496170341968536 0.5711188912391663
0.30651113390922546 0.15850193798542023 0.4873688220977783
0.2092345505952835 0.1737499088048935 0.6047841906547546
0.3883515000343323 0.2371397167444229 0.48508888483047485
0.40072983503341675 0.18992580473423004 0.6097515821456909
0.2869625389575958 0.2450525015592575 0.5003299713134766
0.2949252128601074 0.25751397013664246 0.49226000905036926
0.4087931215763092 0.17020684480667114 0.611565351486206
0.38490453362464905 0.2791225016117096 0.44337382912635803
0.21075454354286194 0.14767521619796753 0.6289399266242981
0.3516179323196411 0.21315954625606537 0.5123515725135803
0.4038069248199463 0.12207646667957306 0.5202957391738892
0.3360687792301178 0.15833663940429688 0.4512239396572113
0.31173205375671387 0.135340616106987 0.6228560209274292
0.2662510275840759 0.2889147698879242 0.4703873097896576
0.3997444212436676 0.2072831392288208 0.584431529045105
0.23808251321315765 0.2955338954925537 0.5032591819763184
0.33942583203315735 0.2137593924999237 0.43141087889671326
0.28257331252098083 0.11751052737236023 0.4636383354663849
0.34135717153549194 0.17273101210594177 0.5585619211196899
0.32875141501426697 0.2801591753959656 0.48886457085609436
0.2971399128437042 0.2132493257522583 0.5027373433113098
0.25509557127952576 0.19156309962272644 0.4591071903705597
0.30518531799316406 0.2535731792449951 0.5556932091712952
0.4013252258300781 0.2912033796310425 0.43159928917884827
0.3714578449726105 0.14682063460350037 0.4993967115879059
0.31998446583747864 0.21124935150146484 0.4295089542865753
0.22830162942409515 0.24363042414188385 0.5595088005065918
0.4116930365562439 0.12074608355760574 0.5960128903388977
0.2095440775156021 0.22437523305416107 0.497092068195343
0.2318427711725235 0.11893390119075775 0.49364858865737915
0.3512374758720398 0.22474099695682526 0.4872269034385681
0.27266207337379456 0.2344134896993637 0.47235095500946045
0.32382261753082275 0.24771790206432343 0.5849533677101135
0.35601896047592163 0.1667340248823166 0.43902847170829773
0.3173635005950928 0.18904723227024078 0.5058735013008118
0.31203484535217285 0.19632753729820251 0.5165535807609558
0.2342463582754135 0.15859097242355347 0.6220908164978027
0.2694423794746399 0.1385677605867386 0.6092033982276917
0.2533702552318573 0.2789378762245178 0.46697619557380676
0.3957652449607849 0.14608453214168549 0.5322502851486206
0.24751310050487518 0.2712547183036804 0.4287260174751282
0.2985963225364685 0.1879807710647583 0.435640424489975
0.4030783474445343 0.21299602091312408 0.4820003807544708
0.27915310859680176 0.18383924663066864 0.6185406446456909
0.3004509508609772 0.2592115104198456 0.4368782639503479
0.33279889822006226 0.18799343705177307 0.5940190553665161
0.25541892647743225 0.19111646711826324 0.6077184081077576
0.2596163749694824 0.1827225536108017 0.5428298711776733
0.22831307351589203 0.22031918168067932 0.5576068758964539
0.3210947811603546 0.13384303450584412 0.4407300055027008
0.27063724398612976 0.19083230197429657 0.563165545463562
0.37133222818374634 0.1513063609600067 0.42865726351737976
0.2955716848373413 0.2677329480648041 0.5660718679428101
0.36326855421066284 0.15278013050556183 0.4713149964809418
0.24621371924877167 0.23432549834251404 0.5880603194236755
0.2914641797542572 0.1841677576303482 0.4870752990245819
0.2170349359512329 0.15790624916553497 0.5271930694580078
0.37433525919914246 0.1367492377758026 0.49047136306762695
0.21731993556022644 0.16264434158802032 0.4553546905517578
0.23333241045475006 0.27750664949417114 0.5262598991394043
0.27915847301483154 0.2773876190185547 0.5219844579696655
0.21689319610595703 0.23660963773727417 0.6136997938156128
0.20642639696598053 0.1212422251701355 0.43715932965278625
0.2732768654823303 0.2712961435317993 0.5372834205627441
0.39048314094543457 0.17109502851963043 0.5506008267402649
0.2905716300010681 0.11719407886266708 0.48714178800582886
0.2882220447063446 0.27953481674194336 0.42644187808036804
0.3446415960788727 0.14844220876693726 0.4437635540962219
0.21708126366138458 0.27072495222091675 0.5066701769828796
0.3906484842300415 0.1529068648815155 0.5404736995697021
0.247580885887146 0.14731365442276 0.6010728478431702
0.3324291706085205 0.16974231600761414 0.5637679696083069
0.3689654767513275 0.14545363187789917 0.5903952121734619
0.29352888464927673 0.23809942603111267 0.45672088861465454
0.2518961429595947 0.2620336413383484 0.5586106777191162
0.23986977338790894 0.24902628362178802 0.484988808631897
0.21463219821453094 0.14725945889949799 0.6260327696800232
0.34859076142311096 0.28822365403175354 0.43789517879486084
0.2857353389263153 0.12064014375209808 0.540969967842102
0.3287939429283142 0.1480448842048645 0.6150928139686584
0.29313820600509644 0.1878676563501358 0.5155740976333618
0.20183290541172028 0.11300212144851685 0.5267202854156494
0.23762524127960205 0.2252170592546463 0.5587910413742065
0.2752683162689209 0.17033149302005768 0.540970504283905
0.2749367952346802 0.14865738153457642 0.43583762645721436
0.206470787525177 0.11216256767511368 0.4716598391532898
0.24037833511829376 0.19348914921283722 0.626307487487793
0.36616989970207214 0.2094973921775818 0.5883018374443054
0.2335827350616455 0.17811059951782227 0.5224357843399048
0.36947256326675415 0.2225736528635025 0.6014132499694824
0.20786216855049133 0.22056944668293 0.4802497327327728
0.3148350417613983 0.14432919025421143 0.5306342244148254
0.31374236941337585 0.17173883318901062 0.6040075421333313
0.3714519739151001 0.17089571058750153 0.4882696866989136
0.3570616841316223 0.1724155843257904 0.44365450739860535
0.39855045080184937 0.20292414724826813 0.4684888422489166
0.30122578144073486 0.17660799622535706 0.44393390417099
0.29486408829689026 0.1665068119764328 0.45588263869285583
0.4034590721130371 0.21441878378391266 0.5646100044250488
0.20718632638454437 0.11319704353809357 0.46408864855766296
0.2065744400024414 0.12402564287185669 0.44626885652542114
0.2778337895870209 0.1414218246936798 0.5445466041564941
0.35906630754470825 0.237115740776062 0.495235413312912
0.33118200302124023 0.2320922464132309 0.45067569613456726
0.23774948716163635 0.11802415549755096 0.4383983612060547
0.26203516125679016 0.2844468653202057 0.4819774925708771
0.343639999628067 0.1502825915813446 0.4371720850467682
0.22361382842063904 0.11787423491477966 0.5894576907157898
0.21819932758808136 0.27275550365448 0.4499451518058777
0.3729054629802704 0.23635590076446533 0.4694236218929291
0.3078517019748688 0.16171546280384064 0.5384754538536072
0.27934885025024414 0.17333096265792847 0.5755231380462646
0.2685510218143463 0.20339292287826538 0.557560384273529
0.2087337076663971 0.16367179155349731 0.4760993719100952
0.24387364089488983 0.21848107874393463 0.5977076888084412
0.3144562542438507 0.19501054286956787 0.52498459815979
0.37653475999832153 0.23098300397396088 0.5468617677688599
0.34013769030570984 0.15741173923015594 0.44184789061546326
0.3091239035129547 0.20737814903259277 0.6085818409919739
0.2630097270011902 0.2881043553352356 0.53055739402771
0.27607545256614685 0.21646936237812042 0.43601855635643005
0.36947256326675415 0.2225736528635025 0.6014132499694824
0.20786216855049133 0.22056944668293 0.4802497327327728
0.3148350417613983 0.14432919025421143 0.5306342244148254
0.31374236941337585 0.17173883318901062 0.6040075421333313
0.3714519739151001 0.17089571058750153 0.4882696866989136
0.3570616841316223 0.1724155843257904 0.44365450739860535
0.39855045080184937 0.20292414724826813 0.4684888422489166
0.3420946002006531 0.16724145412445068 0.511184811592102
0.3997207581996918 0.2629413306713104 0.6170920133590698
0.3569694757461548 0.1797991842031479 0.46747952699661255
0.3899020552635193 0.13691627979278564 0.5494173765182495
0.40379008650779724 0.1585732102394104 0.5393259525299072
0.26361313462257385 0.2874246835708618 0.49720779061317444
0.22978729009628296 0.20836620032787323 0.43766218423843384
0.37918955087661743 0.2625977396965027 0.460640549659729
0.23414742946624756 0.20104360580444336 0.5241938829421997
0.2590603828430176 0.12264107912778854 0.46028128266334534
0.4048580825328827 0.13157279789447784 0.6083512902259827
0.23474757373332977 0.24737663567066193 0.47264471650123596
0.2187359631061554 0.19923554360866547 0.4380801022052765
0.2476530522108078 0.24484123289585114 0.4269550144672394
0.25632205605506897 0.20437517762184143 0.5801721215248108
0.21678902208805084 0.15495039522647858 0.5784039497375488
0.24037833511829376 0.19348914921283722 0.626307487487793
0.36616989970207214 0.2094973921775818 0.5883018374443054
0.2335827350616455 0.17811059951782227 0.5224357843399048
0.36947256326675415 0.2225736528635025 0.6014132499694824
0.20786216855049133 0.22056944668293 0.4802497327327728
0.3148350417613983 0.14432919025421143 0.5306342244148254
0.31374236941337585 0.17173883318901062 0.6040075421333313
0.3714519739151001 0.17089571058750153 0.4882696866989136
0.3570616841316223 0.1724155843257904 0.44365450739860535
0.39855045080184937 0.20292414724826813 0.4684888422489166
0.37136271595954895 0.20317021012306213 0.5980256795883179
0.3994949758052826 0.2437019944190979 0.5800361633300781
0.30571985244750977 0.2951565980911255 0.526494026184082
0.2971726953983307 0.25928643345832825 0.44921210408210754
0.3581683337688446 0.1406344473361969 0.6127640008926392
0.35241034626960754 0.11481258273124695 0.43146422505378723
0.22806237637996674 0.13964927196502686 0.5984841585159302
0.2985963225364685 0.1879807710647583 0.435640424489975
0.4030783474445343 0.21299602091312408 0.4820003807544708
0.27915310859680176 0.18383924663066864 0.6185406446456909
0.31587570905685425 0.14838218688964844 0.5329869985580444
0.3042703866958618 0.29777494072914124 0.5693909525871277
0.206697478890419 0.14542627334594727 0.5716079473495483
0.36551633477211 0.2021687924861908 0.5287595987319946
0.2601325809955597 0.2931513786315918 0.615119457244873
0.33084213733673096 0.19809870421886444 0.6226071715354919
0.3469049334526062 0.11006098985671997 0.5082353949546814
0.30682721734046936 0.15281592309474945 0.5872531533241272
0.2633565664291382 0.2957712411880493 0.5653058886528015
0.35958871245384216 0.1123989000916481 0.4345264136791229
0.3954734802246094 0.1622077226638794 0.45677798986434937
0.25636589527130127 0.1602317839860916 0.5829211473464966
0.2101510614156723 0.14078786969184875 0.5432689189910889
0.20141713321208954 0.15209180116653442 0.4653675854206085
0.21017052233219147 0.2845107913017273 0.4786723256111145
0.2647859752178192 0.18119287490844727 0.5024584531784058
0.3623805642127991 0.18349091708660126 0.6244794726371765
0.25419315695762634 0.11106595396995544 0.518069326877594
0.284643292427063 0.16111019253730774 0.5335209369659424
0.3108322322368622 0.21712099015712738 0.5315390825271606
0.2725837826728821 0.17256301641464233 0.5477339625358582
0.259552001953125 0.24337337911128998 0.4315493106842041
0.306066632270813 0.2658838927745819 0.4761699438095093
0.3011823892593384 0.17999053001403809 0.48307913541793823
0.40034008026123047 0.11542689055204391 0.5672863721847534
0.25074389576911926 0.15342625975608826 0.6303664445877075
0.3932374119758606 0.2117868810892105 0.5838362574577332
0.23400238156318665 0.1501193344593048 0.5643942952156067
0.3173635005950928 0.18904723227024078 0.5058735013008118
0.2140023410320282 0.23830345273017883 0.6193283200263977
0.36523953080177307 0.11708568781614304 0.5786041617393494
0.310933917760849 0.14409229159355164 0.6072397232055664
0.28678882122039795 0.26146185398101807 0.5211777091026306
0.2969064712524414 0.24826064705848694 0.4848789572715759
0.33358681201934814 0.2183152437210083 0.5140562057495117
0.2820967137813568 0.13919955492019653 0.44331806898117065
0.3788084089756012 0.17912353575229645 0.5887342095375061
0.28037694096565247 0.27707386016845703 0.5119088292121887
0.28695282340049744 0.2862241864204407 0.4504927694797516
0.3834492266178131 0.16188454627990723 0.5291594862937927
0.35985323786735535 0.2112216353416443 0.5191380381584167
0.3633313775062561 0.1388612985610962 0.6112044453620911
0.3088212311267853 0.23781529068946838 0.4817047119140625
0.2693052887916565 0.11312194168567657 0.6314957737922668
0.24037833511829376 0.19348914921283722 0.626307487487793
0.36616989970207214 0.2094973921775818 0.5883018374443054
0.2335827350616455 0.17811059951782227 0.5224357843399048
0.36947256326675415 0.2225736528635025 0.6014132499694824
0.20786216855049133 0.22056944668293 0.4802497327327728
0.3148350417613983 0.14432919025421143 0.5306342244148254
0.2888038456439972 0.24118439853191376 0.5125315189361572
0.3621012270450592 0.27804532647132874 0.48733776807785034
0.22459755837917328 0.24222025275230408 0.5075350403785706
0.3910432755947113 0.1605851948261261 0.46404221653938293
0.3489733934402466 0.20800535380840302 0.5111350417137146
0.37193235754966736 0.2973480522632599 0.6026822924613953
0.27810120582580566 0.256218284368515 0.48821842670440674
0.265445739030838 0.10994239896535873 0.4332016110420227
0.35143139958381653 0.11732719838619232 0.5906892418861389
0.33000555634498596 0.21430644392967224 0.5214878916740417
0.38724803924560547 0.14907792210578918 0.5987416505813599
0.40117141604423523 0.15853478014469147 0.6283707618713379
0.21529832482337952 0.2634234130382538 0.5743268728256226
0.3004509508609772 0.2592115104198456 0.4368782639503479
0.33279889822006226 0.18799343705177307 0.5940190553665161
0.25541892647743225 0.19111646711826324 0.6077184081077576
0.2596163749694824 0.1827225536108017 0.5428298711776733
0.22831307351589203 0.22031918168067932 0.5576068758964539
0.3210947811603546 0.13384303450584412 0.4407300055027008
0.27063724398612976 0.19083230197429657 0.563165545463562
0.2894980311393738 0.12209940701723099 0.5283805727958679
0.35578784346580505 0.18277263641357422 0.46200329065322876
0.3682287037372589 0.17104747891426086 0.5814624428749084
0.21723239123821259 0.12399306893348694 0.4711063802242279
0.23988837003707886 0.16309557855129242 0.5487982034683228
0.38414236903190613 0.1615760624408722 0.5465533137321472
0.2592169940471649 0.179565891623497 0.6236878037452698
0.3334800601005554 0.12152177840471268 0.4652354419231415
0.38641586899757385 0.11835089325904846 0.5410103797912598
0.3418847918510437 0.2080501765012741 0.4640691578388214
0.3610273599624634 0.2581600844860077 0.49474406242370605
0.2969910502433777 0.12184372544288635 0.5814515948295593
0.37125441431999207 0.25636011362075806 0.4217466413974762
0.2463468313217163 0.2335675060749054 0.5928869843482971
0.386701762676239 0.1180223673582077 0.6041321158409119
0.21528330445289612 0.14698880910873413 0.5704897046089172
0.3902972936630249 0.2524164021015167 0.4639951288700104
0.2501751780509949 0.2198137491941452 0.6052796840667725
0.2774028182029724 0.25227418541908264 0.5908998250961304
0.33078551292419434 0.18882007896900177 0.5605441331863403
