ply
format ascii 1.0
element vertex 824
property float x
property float y
property float z
end_header
0.38058722019195557 0.1789247989654541 0.6179231405258179
0.377757728099823 0.13785427808761597 0.4325892925262451
0.3285231292247772 0.24929717183113098 0.4709111452102661
0.24258290231227875 0.1196654886007309 0.4624726474285126
0.23790541291236877 0.2716139554977417 0.4375283718109131
0.23979182541370392 0.18580470979213715 0.5772374868392944
0.24091534316539764 0.17890332639217377 0.6114986538887024
0.3225019872188568 0.2873391807079315 0.4702800512313843
0.3151719272136688 0.17230403423309326 0.6015106439590454
0.3663698732852936 0.22673504054546356 0.5257328152656555
0.2999936640262604 0.1727513074874878 0.5778425335884094
0.27943670749664307 0.270862877368927 0.5661646723747253
0.22703002393245697 0.2042614221572876 0.5573133826255798
0.2440224140882492 0.1343102902173996 0.46375223994255066
0.23063066601753235 0.12283829599618912 0.5030295252799988
0.3428082764148712 0.23885492980480194 0.5441918969154358
0.34357041120529175 0.29219818115234375 0.6028436422348022
0.25046873092651367 0.16999094188213348 0.4448612928390503
0.2477932572364807 0.1942838877439499 0.5325911641120911
0.2709515392780304 0.26970750093460083 0.5083622932434082
0.366065114736557 0.23753438889980316 0.6228952407836914
0.2813548445701599 0.21737198531627655 0.6044259071350098
0.37875792384147644 0.28278106451034546 0.4658799469470978
0.2953759729862213 0.1195526272058487 0.5263562798500061
0.3534466028213501 0.11761093884706497 0.43434277176856995
0.22940412163734436 0.21139629185199738 0.5839092135429382
0.2634091377258301 0.25527748465538025 0.46282899379730225
0.31130144000053406 0.2664465308189392 0.527386486530304
0.2765977680683136 0.15175725519657135 0.4667181372642517
0.3412955105304718 0.21663619577884674 0.5395418405532837
0.27845510840415955 0.14488758146762848 0.4620707929134369
0.20151536166667938 0.26894447207450867 0.6037755608558655
0.38553130626678467 0.14005254209041595 0.5938103795051575
0.34347599744796753 0.20144008100032806 0.6041666269302368
0.3833857774734497 0.23443622887134552 0.5576695799827576
0.3099827766418457 0.2366873025894165 0.4839094579219818
0.34661734104156494 0.24749356508255005 0.5658460259437561
0.24483622610569 0.23840764164924622 0.5149005055427551
0.331638365983963 0.19549117982387543 0.48350781202316284
0.2552219331264496 0.15420274436473846 0.4360584318637848
0.31773027777671814 0.2261185199022293 0.6199458241462708
0.2883305549621582 0.18509875237941742 0.5207072496414185
0.27577024698257446 0.26212143898010254 0.5596760511398315
0.30454275012016296 0.17773567140102386 0.6097323298454285
0.2819816470146179 0.180892214179039 0.5023701190948486
0.19709229469299316 0.27833443880081177 0.43740347027778625
0.3870103359222412 0.2799069285392761 0.6186168193817139
0.34624990820884705 0.19406773149967194 0.46884000301361084
0.3808540403842926 0.15084122121334076 0.5498639941215515
0.3932086229324341 0.17476718127727509 0.5401858687400818
0.2841854691505432 0.11476132273674011 0.5254911780357361
0.3884314298629761 0.23326440155506134 0.6054210066795349
0.2075139731168747 0.20238177478313446 0.5614726543426514
0.32658037543296814 0.301426500082016 0.5044969916343689
0.203262597322464 0.23794297873973846 0.4760943651199341
0.30901816487312317 0.13734674453735352 0.44314292073249817
0.3735165297985077 0.2012031078338623 0.5010730624198914
0.24421267211437225 0.28734809160232544 0.48368874192237854
0.25485730171203613 0.2886059284210205 0.5103654861450195
0.23247887194156647 0.27344414591789246 0.4627298414707184
0.3292747437953949 0.190581277012825 0.4976728856563568
0.3323059678077698 0.2680584192276001 0.5960654020309448
0.36886024475097656 0.18803972005844116 0.5950798392295837
0.3526645600795746 0.20230212807655334 0.608303427696228
0.2784750163555145 0.2919461727142334 0.5760086178779602
0.3871479630470276 0.3107775151729584 0.6127969622612
0.27209851145744324 0.2815883755683899 0.4541935324668884
0.2330227792263031 0.2265748232603073 0.5910903811454773
0.2674977481365204 0.23683544993400574 0.5766717195510864
0.25719505548477173 0.17841684818267822 0.4593241512775421
0.2496318817138672 0.1700163185596466 0.44890305399894714
0.38374441862106323 0.24525529146194458 0.5636799335479736
0.32793790102005005 0.11855075508356094 0.44950613379478455
0.2530811131000519 0.29045113921165466 0.49340182542800903
0.2434195727109909 0.11936734616756439 0.4436001777648926
0.20021340250968933 0.16649235785007477 0.44501855969429016
0.30346593260765076 0.14669133722782135 0.5813046097755432
0.36818328499794006 0.26707130670547485 0.5485486388206482
0.3179296851158142 0.14829149842262268 0.5405595898628235
0.19598336517810822 0.23233744502067566 0.5239185690879822
0.26727673411369324 0.12148187309503555 0.4474109411239624
0.19430777430534363 0.27173012495040894 0.49097317457199097
0.3390493392944336 0.21154285967350006 0.4351705312728882
0.3568052053451538 0.16687604784965515 0.5529189109802246
0.3879840672016144 0.12628929316997528 0.5393741726875305
0.31192076206207275 0.2894420623779297 0.4277959167957306
0.27129024267196655 0.19880470633506775 0.6242764592170715
0.3332332372665405 0.18846847116947174 0.49535101652145386
0.32921236753463745 0.2856118977069855 0.5928555727005005
0.3129594027996063 0.20940808951854706 0.5532327890396118
0.36158567667007446 0.3074851334095001 0.49668994545936584
0.21141187846660614 0.1421874463558197 0.5290449261665344
0.23809714615345 0.16913250088691711 0.6284605264663696
0.29235678911209106 0.2484094202518463 0.5727932453155518
0.2987654507160187 0.1700410544872284 0.48892176151275635
0.2007897049188614 0.17850342392921448 0.6042372584342957
0.3754555284976959 0.2553078234195709 0.48555082082748413
0.38912391662597656 0.20528174936771393 0.6099240183830261
0.2741767466068268 0.258134126663208 0.5024833679199219
0.2813386917114258 0.27122029662132263 0.49441656470298767
0.3975985646247864 0.18571285903453827 0.6112958192825317
0.3698557913303375 0.2970597743988037 0.44318798184394836
0.20449984073638916 0.15141911804676056 0.6276251673698425
0.3401466906070709 0.22979873418807983 0.5133349299430847
0.39623597264289856 0.13482524454593658 0.5216121077537537
0.327433705329895 0.17042644321918488 0.45340317487716675
0.304861843585968 0.1441897600889206 0.6213160157203674
0.2504688799381256 0.3005112409591675 0.4730435311794281
0.38785332441329956 0.2239922434091568 0.5849969983100891
0.22236664593219757 0.3056507706642151 0.5066353678703308
0.3269595801830292 0.22906337678432465 0.4326786398887634
0.27891573309898376 0.12295016646385193 0.46622610092163086
0.3317294120788574 0.18645291030406952 0.5589761137962341
0.3137619197368622 0.29630783200263977 0.4904014766216278
0.2859819233417511 0.22658559679985046 0.5042451620101929
0.2452434003353119 0.20100128650665283 0.46117568016052246
0.2921951413154602 0.26766225695610046 0.5579067468643188
0.38562849164009094 0.30908089876174927 0.4308035969734192
0.36245107650756836 0.16082294285297394 0.5009580254554749
0.307885080575943 0.2252892106771469 0.43101978302001953
0.2155158370733261 0.25231555104255676 0.561765730381012
0.403278112411499 0.13249069452285767 0.5950760841369629
0.19756728410720825 0.2321828305721283 0.49936529994010925
0.22913911938667297 0.12268275022506714 0.49547258019447327
0.3391030430793762 0.24151553213596344 0.48822611570358276
0.25994011759757996 0.24625469744205475 0.47451427578926086
0.31119054555892944 0.262214720249176 0.5868475437164307
0.3460993468761444 0.1795433610677719 0.44108420610427856
0.30729588866233826 0.20262542366981506 0.5070033073425293
0.3017341196537018 0.20993301272392273 0.5176674127578735
0.22689256072044373 0.1646513193845749 0.6212127208709717
0.26313406229019165 0.1464734822511673 0.608151912689209
0.23828373849391937 0.28979605436325073 0.4698236882686615
0.38598358631134033 0.16160742938518524 0.5331630110740662
0.23224860429763794 0.28179261088371277 0.43153634667396545
0.2884728014469147 0.19972598552703857 0.4374752640724182
0.3905152976512909 0.23071631789207458 0.4825083017349243
0.2696758508682251 0.19306720793247223 0.6185484528541565
0.285662442445755 0.2726912498474121 0.43865761160850525
0.3224742114543915 0.20141379535198212 0.5941781401634216
0.24553070962429047 0.19934041798114777 0.6078944206237793
0.25072550773620605 0.19218900799751282 0.5435606837272644
0.21678826212882996 0.2286994606256485 0.5590536594390869
0.3149087727069855 0.1427859514951706 0.4437747001647949
0.2610626518726349 0.20090512931346893 0.5637772083282471
0.36213693022727966 0.16353380680084229 0.43158143758773804
0.28165942430496216 0.28083014488220215 0.5689321160316467
0.354078084230423 0.16615770757198334 0.473287433385849
0.23384064435958862 0.24318350851535797 0.5897911787033081
0.2820555567741394 0.1958537995815277 0.48856502771377563
0.2106209099292755 0.16362465918064117 0.5279728770256042
0.3661290407180786 0.14974230527877808 0.49244046211242676
0.21071040630340576 0.1680387556552887 0.4576282501220703
0.21874265372753143 0.28717800974845886 0.5295431613922119
0.26445063948631287 0.2900775969028473 0.5248634219169617
0.2040562778711319 0.2427608221769333 0.6152378916740417
0.20409536361694336 0.12355193495750427 0.43980100750923157
0.25904011726379395 0.28339096903800964 0.5402423739433289
0.3797476887702942 0.18622523546218872 0.5512722134590149
0.2866845428943634 0.12286611646413803 0.48925286531448364
0.2719515562057495 0.2921072542667389 0.4283377528190613
0.33652061223983765 0.15977929532527924 0.44642993807792664
0.2028343826532364 0.2797214984893799 0.5098771452903748
0.3806142807006836 0.16818904876708984 0.5412237048149109
0.24104318022727966 0.15450401604175568 0.600278377532959
0.32323578000068665 0.182834193110466 0.5640485286712646
0.3599127233028412 0.15811820328235626 0.5897484421730042
0.2804197669029236 0.2512035071849823 0.45863035321235657
0.23818925023078918 0.2722001075744629 0.561531126499176
0.2264895737171173 0.25911542773246765 0.4877249002456665
0.20837607979774475 0.15140090882778168 0.6247515678405762
0.3322170674800873 0.30468127131462097 0.4383420944213867
0.2811453342437744 0.1272934228181839 0.5415592789649963
0.3208382725715637 0.1587759554386139 0.613973081111908
0.2835894823074341 0.19983071088790894 0.516703188419342
0.1996963918209076 0.11505422741174698 0.5276670455932617
0.2258603870868683 0.2342175990343094 0.5604054927825928
0.26719653606414795 0.1804281771183014 0.5415753126144409
0.2686339020729065 0.15749290585517883 0.43840083479881287
0.20491139590740204 0.11387040466070175 0.47393643856048584
0.2302270531654358 0.2002066671848297 0.6263970732688904
0.35458889603614807 0.22560487687587738 0.5888777375221252
0.2252211719751358 0.18587233126163483 0.5234555602073669
0.3575737774372101 0.2387511283159256 0.6022167205810547
0.19596926867961884 0.22815431654453278 0.48265016078948975
0.30789217352867126 0.15538644790649414 0.5314264893531799
0.3046914339065552 0.1832040399312973 0.6037272214889526
0.3609052896499634 0.18567252159118652 0.4895797669887543
0.3467058539390564 0.18569427728652954 0.44544774293899536
0.3860844373703003 0.21990129351615906 0.46917712688446045
0.29201674461364746 0.18808142840862274 0.44586217403411865
0.28664374351501465 0.17744040489196777 0.45789241790771484
0.3915322721004486 0.2316933423280716 0.5653218030929565
0.20555001497268677 0.1149953156709671 0.46647974848747253
0.2039366364479065 0.12654408812522888 0.4487943649291992
0.27183493971824646 0.1503581404685974 0.5449835062026978
0.3465854227542877 0.2545505166053772 0.4961812198162079
0.31822365522384644 0.24757757782936096 0.45195627212524414
0.23521392047405243 0.12187184393405914 0.4411627948284149
0.24667848646640778 0.29587146639823914 0.48479777574539185
0.3354378938674927 0.16150328516960144 0.4398913085460663
0.2198667675256729 0.12142636626958847 0.5883747339248657
0.20331446826457977 0.2821715474128723 0.45325034856796265
0.359885573387146 0.25401461124420166 0.47003036737442017
0.29990154504776 0.17345479130744934 0.539115309715271
0.2708142101764679 0.1833738088607788 0.5756425261497498
0.25819483399391174 0.21385233104228973 0.5585415959358215
0.20211313664913177 0.16840825974941254 0.4779736399650574
0.23225197196006775 0.22679956257343292 0.5987579226493835
0.30423370003700256 0.20865286886692047 0.5260095596313477
0.3645523488521576 0.24879927933216095 0.5478073358535767
0.3314601182937622 0.1692674458026886 0.4442174434661865
0.29820069670677185 0.21943630278110504 0.6092958450317383
0.24756498634815216 0.299553245306015 0.5339251756668091
0.26387903094291687 0.2280339002609253 0.43803897500038147
0.3575737774372101 0.2387511283159256 0.6022167205810547
0.19596926867961884 0.22815431654453278 0.48265016078948975
0.30789217352867126 0.15538644790649414 0.5314264893531799
0.3046914339065552 0.1832040399312973 0.6037272214889526
0.3609052896499634 0.18567252159118652 0.4895797669887543
0.3467058539390564 0.18569427728652954 0.44544774293899536
0.3860844373703003 0.21990129351615906 0.46917712688446045
0.3326320946216583 0.18119600415229797 0.5122796893119812
0.3870103359222412 0.2799069285392761 0.6186168193817139
0.34624990820884705 0.19406773149967194 0.46884000301361084
0.3808540403842926 0.15084122121334076 0.5498639941215515
0.3932086229324341 0.17476718127727509 0.5401858687400818
0.24812251329421997 0.2990318238735199 0.50016188621521
0.21828706562519073 0.21687617897987366 0.44016990065574646
0.3651246130466461 0.2807285189628601 0.46087756752967834
0.22392378747463226 0.20966660976409912 0.5255708694458008
0.25555142760276794 0.1280185729265213 0.4627688527107239
0.39545387029647827 0.1449374556541443 0.6071001887321472
0.22127121686935425 0.25723347067832947 0.4754526615142822
0.2081809639930725 0.20637597143650055 0.4405987858772278
0.23351672291755676 0.25523173809051514 0.4296738803386688
0.24574123322963715 0.21365369856357574 0.580936074256897
0.21010103821754456 0.16048619151115417 0.5779688358306885
0.2302270531654358 0.2002066671848297 0.6263970732688904
0.35458889603614807 0.22560487687587738 0.5888777375221252
0.2252211719751358 0.18587233126163483 0.5234555602073669
0.3575737774372101 0.2387511283159256 0.6022167205810547
0.19596926867961884 0.22815431654453278 0.48265016078948975
0.30789217352867126 0.15538644790649414 0.5314264893531799
0.3046914339065552 0.1832040399312973 0.6037272214889526
0.3609052896499634 0.18567252159118652 0.4895797669887543
0.3467058539390564 0.18569427728652954 0.44544774293899536
0.3860844373703003 0.21990129351615906 0.46917712688446045
0.35979628562927246 0.21888045966625214 0.5984243750572205
0.38709673285484314 0.26137450337409973 0.5812061429023743
0.28974449634552 0.30964091420173645 0.52931809425354
0.28268516063690186 0.2726793587207794 0.4510997235774994
0.34966158866882324 0.15201923251152039 0.6114217638969421
0.347675085067749 0.12071830034255981 0.43561407923698425
0.22237034142017365 0.14517125487327576 0.5975062847137451
0.2884728014469147 0.19972598552703857 0.4374752640724182
0.3905152976512909 0.23071631789207458 0.4825083017349243
0.2696758508682251 0.19306720793247223 0.6185484528541565
0.308625727891922 0.1598295271396637 0.5337300896644592
0.2881436049938202 0.3112100064754486 0.5732383131980896
0.200983926653862 0.14983779191970825 0.5711803436279297
0.3542410433292389 0.21872009336948395 0.5296190977096558
0.2441771775484085 0.3014090359210968 0.6197159886360168
0.3201506733894348 0.21070100367069244 0.622945249080658
0.34239041805267334 0.1159900352358818 0.5100661516189575
0.2991776466369629 0.16365258395671844 0.5868409276008606
0.2473403811454773 0.3063918352127075 0.5694925785064697
0.35511359572410583 0.11799580603837967 0.4387548565864563
0.3846592903137207 0.17772817611694336 0.4587049186229706
0.24889354407787323 0.168694868683815 0.5826647877693176
0.20514504611492157 0.1453447788953781 0.5436215400695801
0.1961081176996231 0.15554843842983246 0.4674701690673828
0.19510510563850403 0.2934781014919281 0.48212766647338867
0.2559785544872284 0.19113104045391083 0.5037923455238342
0.3515772521495819 0.1967286765575409 0.624299943447113
0.25165456533432007 0.11466436088085175 0.5194854736328125
0.2771896719932556 0.17151950299739838 0.5342034697532654
0.29962146282196045 0.23139607906341553 0.5328577160835266
0.2643408477306366 0.18249982595443726 0.5482510924339294
0.24559450149536133 0.2543117105960846 0.4340563416481018
0.29171299934387207 0.2802570164203644 0.47803518176078796
0.2918969690799713 0.19206853210926056 0.4845719337463379
0.3933330476284027 0.1250835508108139 0.5671119689941406
0.24366115033626556 0.1602765917778015 0.6293656826019287
0.3813118636608124 0.22863233089447021 0.5844493508338928
0.22769194841384888 0.15698178112506866 0.5643020868301392
0.30729588866233826 0.20262542366981506 0.5070033073425293
0.20102554559707642 0.24403376877307892 0.6208972930908203
0.3586057722568512 0.12519003450870514 0.5778052806854248
0.30363231897354126 0.15407730638980865 0.60624760389328
0.2732027471065521 0.2746722102165222 0.5236659646034241
0.2837541699409485 0.26196780800819397 0.4868811070919037
0.3221213221549988 0.2341783046722412 0.5152360796928406
0.27645573019981384 0.14768390357494354 0.44593316316604614
0.3678080141544342 0.19387444853782654 0.5888022184371948
0.2656366229057312 0.2898767292499542 0.514664351940155
0.2707969844341278 0.29896238446235657 0.45253419876098633
0.37319672107696533 0.17709767818450928 0.5300791263580322
0.3483843505382538 0.22811852395534515 0.5200599431991577
0.3547651469707489 0.15029208362102509 0.6098601222038269
0.2961905896663666 0.2522243857383728 0.48340752720832825
0.2647205591201782 0.11743506044149399 0.6294493675231934
0.2302270531654358 0.2002066671848297 0.6263970732688904
0.35458889603614807 0.22560487687587738 0.5888777375221252
0.2252211719751358 0.18587233126163483 0.5234555602073669
0.3575737774372101 0.2387511283159256 0.6022167205810547
0.19596926867961884 0.22815431654453278 0.48265016078948975
0.30789217352867126 0.15538644790649414 0.5314264893531799
0.2763567268848419 0.2543703019618988 0.5146003365516663
0.3477031886577606 0.2960299551486969 0.48810839653015137
0.2117636352777481 0.2512796223163605 0.510110080242157
0.3804571330547333 0.17590734362602234 0.4659123718738556
0.3376770615577698 0.22431804239749908 0.5121184587478638
0.3576350212097168 0.31430283188819885 0.605319082736969
0.26448678970336914 0.26868748664855957 0.49060696363449097
0.2631755769252777 0.11350874602794647 0.43623802065849304
0.34493184089660645 0.12486834824085236 0.589490532875061
0.3187638521194458 0.2298385500907898 0.5226500630378723
0.377318799495697 0.1630139946937561 0.5980303287506104
0.39034149050712585 0.1733158826828003 0.6274651885032654
0.2013462334871292 0.27111491560935974 0.5772364139556885
0.285662442445755 0.2726912498474121 0.43865761160850525
0.3224742114543915 0.20141379535198212 0.5941781401634216
0.24553070962429047 0.19934041798114777 0.6078944206237793
0.25072550773620605 0.19218900799751282 0.5435606837272644
0.21678826212882996 0.2286994606256485 0.5590536594390869
0.3149087727069855 0.1427859514951706 0.4437747001647949
0.2610626518726349 0.20090512931346893 0.5637772083282471
0.28485554456710815 0.12903785705566406 0.5292998552322388
0.34491676092147827 0.19706138968467712 0.46335649490356445
0.35784515738487244 0.18523456156253815 0.5814904570579529
0.21432553231716156 0.12730202078819275 0.47330203652381897
0.2326040267944336 0.17083461582660675 0.5491597056388855
0.37388449907302856 0.17649103701114655 0.5472171902656555
0.25009194016456604 0.18737605214118958 0.6234951615333557
0.32800421118736267 0.12911629676818848 0.46815547347068787
0.37956124544143677 0.12875927984714508 0.541511595249176
0.3301694989204407 0.2235499620437622 0.465229868888855
0.3477110266685486 0.27605167031288147 0.49567484855651855
0.2914711833000183 0.12919488549232483 0.5807923674583435
0.3565853536128998 0.2734779417514801 0.4221607744693756
0.23397956788539886 0.2422688901424408 0.5945619344711304
0.3793151080608368 0.1269185096025467 0.6026722192764282
0.20936624705791473 0.1522127091884613 0.5701488256454468
0.3766246438026428 0.27065539360046387 0.46414971351623535
0.23846200108528137 0.22826996445655823 0.6063777804374695
0.2642463445663452 0.2630772292613983 0.593394935131073
0.32062259316444397 0.2027512937784195 0.561115562915802
0.33312562108039856 0.2870132625102997 0.5845378041267395
0.2654040455818176 0.2811512053012848 0.6227177977561951
0.19709229469299316 0.27833443880081177 0.43740347027778625
0.3646940290927887 0.2487489879131317 0.4319124221801758
0.34387272596359253 0.1925622820854187 0.5261186361312866
0.37663865089416504 0.2670958936214447 0.46755483746528625
0.3201099932193756 0.2505829930305481 0.43902990221977234
0.324603408575058 0.23916378617286682 0.490650475025177
0.36570051312446594 0.2010239213705063 0.4787244200706482
0.36657029390335083 0.2900829613208771 0.5978148579597473
0.39557361602783203 0.1365279108285904 0.4678625166416168
0.3091622591018677 0.15324069559574127 0.5568087100982666
0.34264612197875977 0.30610668659210205 0.4345231056213379
0.3528924882411957 0.2664112150669098 0.6028046011924744
0.3517826497554779 0.2776511013507843 0.43971168994903564
0.34420350193977356 0.26596754789352417 0.5258467793464661
0.2955482006072998 0.17631244659423828 0.45386451482772827
0.3015422523021698 0.1966618448495865 0.5801215171813965
0.386729896068573 0.2795392572879791 0.5288660526275635
0.3120185434818268 0.18176917731761932 0.5019211769104004
0.3206624686717987 0.19547180831432343 0.568407416343689
0.34737181663513184 0.12989205121994019 0.45375126600265503
0.3747639060020447 0.2001963108778 0.5787609815597534
0.2271784543991089 0.2439868152141571 0.6163265705108643
0.3558858633041382 0.235865980386734 0.4726341962814331
0.28777146339416504 0.1459791660308838 0.5536414980888367
0.22523349523544312 0.15440906584262848 0.48639655113220215
0.35156717896461487 0.19747304916381836 0.46235591173171997
0.3207111954689026 0.2519252598285675 0.6166455149650574
0.31652867794036865 0.24669355154037476 0.6215481162071228
0.3542550206184387 0.1427963525056839 0.6199461221694946
0.2955440580844879 0.12711021304130554 0.5304336547851562
0.3796795606613159 0.3076183795928955 0.575065553188324
0.30262166261672974 0.22872768342494965 0.5619156956672668
0.27891573309898376 0.12295016646385193 0.46622610092163086
0.2517003118991852 0.23418857157230377 0.6282771229743958
0.2355310320854187 0.2757125794887543 0.6070694923400879
0.2608393430709839 0.1794120967388153 0.5289528965950012
0.22630208730697632 0.2714739739894867 0.4657270014286041
0.20696933567523956 0.1991349309682846 0.5912764072418213
0.3194347620010376 0.1407642811536789 0.5936585068702698
0.3658306300640106 0.28283753991127014 0.5866068005561829
0.3956111669540405 0.13326962292194366 0.5643428564071655
0.2848258912563324 0.22276772558689117 0.5250365734100342
0.3037525415420532 0.13424363732337952 0.5573369860649109
0.2938181459903717 0.13313151895999908 0.6224673986434937
0.19945409893989563 0.28697338700294495 0.6200160980224609
0.2713698148727417 0.18553288280963898 0.48632723093032837
0.31581947207450867 0.2104206383228302 0.5840021967887878
0.24196232855319977 0.17282319068908691 0.4758754372596741
0.3876155614852905 0.12711438536643982 0.4724625051021576
0.3126469850540161 0.2962060570716858 0.4362557828426361
0.3140431046485901 0.18053112924098969 0.5440198183059692
0.3766845166683197 0.2247803807258606 0.5868526697158813
0.2288511097431183 0.3012574315071106 0.5105652809143066
0.29982081055641174 0.18970072269439697 0.4920720160007477
0.3429039716720581 0.22541411221027374 0.6103444695472717
0.31178346276283264 0.19191016256809235 0.45988497138023376
0.4005155861377716 0.1346672773361206 0.4931566119194031
0.2725234925746918 0.16480974853038788 0.48511192202568054
0.35172367095947266 0.24475471675395966 0.584065854549408
0.26402759552001953 0.2038915902376175 0.45865869522094727
0.32033687829971313 0.25144511461257935 0.45476406812667847
0.33288058638572693 0.22011655569076538 0.4348723292350769
0.29359203577041626 0.11598702520132065 0.537969172000885
0.24393963813781738 0.24799172580242157 0.49526169896125793
0.30679067969322205 0.20354850590229034 0.4951888918876648
0.23809714615345 0.16913250088691711 0.6284605264663696
0.2363126128911972 0.2881934940814972 0.4670082628726959
0.30670979619026184 0.1538836658000946 0.5623677968978882
0.3031802177429199 0.174241840839386 0.47600075602531433
0.39713728427886963 0.12549881637096405 0.5679213404655457
0.285955011844635 0.2520972788333893 0.5081173181533813
0.3201989531517029 0.13383224606513977 0.5614914298057556
0.29141563177108765 0.2801858186721802 0.5897693634033203
0.28033506870269775 0.23465152084827423 0.6204116940498352
0.38242408633232117 0.2981383204460144 0.5095396041870117
0.3644702732563019 0.28148940205574036 0.608137845993042
0.35142096877098083 0.21874873340129852 0.5025545954704285
0.22742056846618652 0.11677201837301254 0.5961452722549438
0.3119121789932251 0.28101441264152527 0.6053799390792847
0.3611934781074524 0.26800721883773804 0.4222387373447418
0.2846021354198456 0.23090505599975586 0.5429132580757141
0.23981866240501404 0.12272318452596664 0.5748024582862854
0.38108766078948975 0.14042599499225616 0.6011848449707031
0.3760347366333008 0.14629611372947693 0.46685895323753357
0.3490738272666931 0.14732789993286133 0.49066805839538574
0.30700865387916565 0.23066915571689606 0.5355108380317688
0.19671450555324554 0.15401999652385712 0.4605679512023926
0.2918626368045807 0.18233756721019745 0.5023359060287476
0.2581436336040497 0.21251066029071808 0.5036624073982239
0.3453415632247925 0.20083710551261902 0.5512063503265381
0.3045346736907959 0.2596777081489563 0.4904780983924866
0.36720651388168335 0.21961469948291779 0.4586247205734253
0.2149038165807724 0.13351093232631683 0.5523502826690674
0.26878196001052856 0.28587621450424194 0.4578385353088379
0.3414265215396881 0.2460615336894989 0.5715087652206421
0.3845689594745636 0.12586797773838043 0.43265363574028015
0.22245335578918457 0.3026665151119232 0.5432178974151611
0.25773537158966064 0.14222916960716248 0.45422762632369995
0.26575663685798645 0.19204789400100708 0.6148267388343811
0.3023613691329956 0.15711595118045807 0.4972592890262604
0.30388274788856506 0.11558513343334198 0.4739357531070709
0.3906264901161194 0.31188535690307617 0.5657346844673157
0.2055608034133911 0.12886127829551697 0.49627384543418884
0.2436239868402481 0.23305432498455048 0.4599533677101135
0.33616238832473755 0.2690529525279999 0.5611137747764587
0.34515270590782166 0.2507808804512024 0.6053599119186401
0.26085373759269714 0.28999415040016174 0.5454001426696777
0.35665056109428406 0.11851415038108826 0.5815475583076477
0.222043976187706 0.12602505087852478 0.5155691504478455
0.22683846950531006 0.26484307646751404 0.46017205715179443
0.3279307186603546 0.27915287017822266 0.4242103397846222
0.363148957490921 0.18759897351264954 0.5205602049827576
0.2040655016899109 0.21940600872039795 0.4384289085865021
0.3080684244632721 0.20905527472496033 0.5640190839767456
0.2594282031059265 0.24300885200500488 0.5793982148170471
0.2037499099969864 0.25822964310646057 0.5858237743377686
0.3936902582645416 0.2750628590583801 0.5659993290901184
0.3446938991546631 0.194789320230484 0.6181471347808838
0.29177233576774597 0.2503592073917389 0.46838143467903137
0.3635518550872803 0.1959679126739502 0.46034929156303406
0.2392750382423401 0.14816050231456757 0.43841445446014404
0.3485991358757019 0.21385370194911957 0.6182541847229004
0.19963042438030243 0.1819239854812622 0.4898111820220947
0.2323475033044815 0.2624761164188385 0.48614901304244995
0.25436076521873474 0.1160266101360321 0.519264280796051
0.3388964533805847 0.24829405546188354 0.5411583781242371
0.38061290979385376 0.2881712317466736 0.5021880865097046
0.2206687331199646 0.18195411562919617 0.4548153877258301
0.37388449907302856 0.17649103701114655 0.5472171902656555
0.37859928607940674 0.21739521622657776 0.4311944246292114
0.2813526690006256 0.1716298758983612 0.5706532001495361
0.38127362728118896 0.29335710406303406 0.482704758644104
0.3793151080608368 0.1269185096025467 0.6026722192764282
0.20936624705791473 0.1522127091884613 0.5701488256454468
0.3766246438026428 0.27065539360046387 0.46414971351623535
0.23846200108528137 0.22826996445655823 0.6063777804374695
0.2642463445663452 0.2630772292613983 0.593394935131073
0.32062259316444397 0.2027512937784195 0.561115562915802
0.33312562108039856 0.2870132625102997 0.5845378041267395
0.2654040455818176 0.2811512053012848 0.6227177977561951
0.29893606901168823 0.2163345217704773 0.5452896356582642
0.3419937193393707 0.30040502548217773 0.4794926345348358
0.3267926871776581 0.26477110385894775 0.5813305974006653
0.20284625887870789 0.3045780658721924 0.5408594012260437
0.347096711397171 0.13983486592769623 0.47145411372184753
0.2555587589740753 0.1276131421327591 0.4992375075817108
0.22308124601840973 0.29656124114990234 0.4340844750404358
0.3590576946735382 0.2936001718044281 0.5634257197380066
0.22864671051502228 0.20625650882720947 0.6020430326461792
0.25081509351730347 0.24109899997711182 0.48436927795410156
0.2570965886116028 0.2829223871231079 0.5653197169303894
0.34737685322761536 0.18591128289699554 0.6178765296936035
0.27806854248046875 0.16333386301994324 0.5160303115844727
0.23727291822433472 0.1284591555595398 0.5445608496665955
0.3176630735397339 0.20489737391471863 0.509376585483551
0.25455763936042786 0.20345231890678406 0.6227884292602539
0.3883870244026184 0.2645625174045563 0.4906875491142273
0.2999093234539032 0.19077284634113312 0.4661308228969574
0.2681208848953247 0.19338935613632202 0.5587864518165588
0.2717249095439911 0.25152307748794556 0.5380643606185913
0.34196606278419495 0.2828196883201599 0.45329591631889343
0.2631755769252777 0.11350874602794647 0.43623802065849304
0.34493184089660645 0.12486834824085236 0.589490532875061
0.3397942781448364 0.25316476821899414 0.49351102113723755
0.3158576190471649 0.12900730967521667 0.6124665141105652
0.3737654983997345 0.16265293955802917 0.5682922601699829
0.22727952897548676 0.25409483909606934 0.5140687227249146
0.24941478669643402 0.2123280167579651 0.6255902647972107
0.3186538815498352 0.3120707869529724 0.5642895698547363
0.34338492155075073 0.29321855306625366 0.43807607889175415
0.36167657375335693 0.28124573826789856 0.4950222074985504
0.35094398260116577 0.2235371470451355 0.4909273684024811
0.278281033039093 0.16296042501926422 0.6215799450874329
0.25479960441589355 0.15865866839885712 0.5604198575019836
0.21609510481357574 0.1347191333770752 0.5532938241958618
0.23444409668445587 0.11592671275138855 0.5032942891120911
0.374492347240448 0.30401551723480225 0.4958527088165283
0.3164772093296051 0.23064930737018585 0.47324058413505554
0.3089742660522461 0.1207411140203476 0.6310542225837708
0.2037499099969864 0.25822964310646057 0.5858237743377686
0.3936902582645416 0.2750628590583801 0.5659993290901184
0.3446938991546631 0.194789320230484 0.6181471347808838
0.29177233576774597 0.2503592073917389 0.46838143467903137
0.3635518550872803 0.1959679126739502 0.46034929156303406
0.2392750382423401 0.14816050231456757 0.43841445446014404
0.3485991358757019 0.21385370194911957 0.6182541847229004
0.19963042438030243 0.1819239854812622 0.4898111820220947
0.2323475033044815 0.2624761164188385 0.48614901304244995
0.25436076521873474 0.1160266101360321 0.519264280796051
0.3388964533805847 0.24829405546188354 0.5411583781242371
0.38061290979385376 0.2881712317466736 0.5021880865097046
0.2206687331199646 0.18195411562919617 0.4548153877258301
0.36060523986816406 0.26480478048324585 0.4734770655632019
0.37655624747276306 0.16865882277488708 0.5933998823165894
0.20148709416389465 0.28191080689430237 0.6253861784934998
0.2190568447113037 0.14264321327209473 0.6114418506622314
0.278202623128891 0.275559663772583 0.5160088539123535
0.37672221660614014 0.2621600031852722 0.4788858890533447
0.2774806022644043 0.12587828934192657 0.5027363896369934
0.22308474779129028 0.2895805537700653 0.45866847038269043
0.28692498803138733 0.19065096974372864 0.5702446699142456
0.2838110327720642 0.2776104807853699 0.6079761385917664
0.27041932940483093 0.1710972934961319 0.49814051389694214
0.29665207862854004 0.26958149671554565 0.6107586622238159
0.2505204379558563 0.16895651817321777 0.5420883297920227
0.37059515714645386 0.22675590217113495 0.5382460951805115
0.23021046817302704 0.28488537669181824 0.474161833524704
0.2037499099969864 0.25822964310646057 0.5858237743377686
0.3936902582645416 0.2750628590583801 0.5659993290901184
0.3446938991546631 0.194789320230484 0.6181471347808838
0.29177233576774597 0.2503592073917389 0.46838143467903137
0.3635518550872803 0.1959679126739502 0.46034929156303406
0.2392750382423401 0.14816050231456757 0.43841445446014404
0.3485991358757019 0.21385370194911957 0.6182541847229004
0.19963042438030243 0.1819239854812622 0.4898111820220947
0.2323475033044815 0.2624761164188385 0.48614901304244995
0.25436076521873474 0.1160266101360321 0.519264280796051
0.3388964533805847 0.24829405546188354 0.5411583781242371
0.38061290979385376 0.2881712317466736 0.5021880865097046
0.2206687331199646 0.18195411562919617 0.4548153877258301
0.29965728521347046 0.19426536560058594 0.4658357799053192
0.38118505477905273 0.21753694117069244 0.520871639251709
0.2340232878923416 0.13937437534332275 0.6039705276489258
0.3820439577102661 0.28633177280426025 0.4769245982170105
0.1966816782951355 0.2896592915058136 0.47718214988708496
0.3766845166683197 0.2247803807258606 0.5868526697158813
0.2288511097431183 0.3012574315071106 0.5105652809143066
0.29982081055641174 0.18970072269439697 0.4920720160007477
0.3429039716720581 0.22541411221027374 0.6103444695472717
0.31178346276283264 0.19191016256809235 0.45988497138023376
0.4005155861377716 0.1346672773361206 0.4931566119194031
0.2725234925746918 0.16480974853038788 0.48511192202568054
0.28775089979171753 0.2923557758331299 0.5628658533096313
0.21289704740047455 0.11524304747581482 0.5020798444747925
0.29956308007240295 0.14396247267723083 0.5560181736946106
0.3663746416568756 0.16837120056152344 0.5520091652870178
0.3790200650691986 0.11993277817964554 0.5516812205314636
0.31964802742004395 0.2068548947572708 0.4721916615962982
0.3615323603153229 0.27700352668762207 0.4615393877029419
0.38690856099128723 0.2722684144973755 0.44746994972229004
0.266213983297348 0.2657570540904999 0.4646851420402527
0.3014245331287384 0.2184508591890335 0.5722936987876892
0.2736732065677643 0.23618538677692413 0.44792440533638
0.2115592509508133 0.18307074904441833 0.588083028793335
0.1978466808795929 0.29929882287979126 0.5545347929000854
0.3875376284122467 0.1259218156337738 0.45811623334884644
0.33410945534706116 0.27877330780029297 0.6146141290664673
0.20333799719810486 0.2369634211063385 0.47530317306518555
0.35970693826675415 0.18243011832237244 0.4901757836341858
0.22933867573738098 0.1872728317975998 0.5862948894500732
0.3157179653644562 0.1934923231601715 0.5176683068275452
0.2691277265548706 0.1454126238822937 0.49029025435447693
0.29458412528038025 0.2411065697669983 0.4342886805534363
0.31437045335769653 0.3123549520969391 0.5874708294868469
0.2476530224084854 0.2258414775133133 0.5240530967712402
0.2899417281150818 0.21460911631584167 0.4866432547569275
0.20936624705791473 0.1522127091884613 0.5701488256454468
0.3747639060020447 0.2001963108778 0.5787609815597534
0.2271784543991089 0.2439868152141571 0.6163265705108643
0.3558858633041382 0.235865980386734 0.4726341962814331
0.28777146339416504 0.1459791660308838 0.5536414980888367
0.22523349523544312 0.15440906584262848 0.48639655113220215
0.35156717896461487 0.19747304916381836 0.46235591173171997
0.3207111954689026 0.2519252598285675 0.6166455149650574
0.31652867794036865 0.24669355154037476 0.6215481162071228
0.3796795606613159 0.3076183795928955 0.575065553188324
0.22856508195400238 0.18059130012989044 0.4977763295173645
0.23964029550552368 0.14444050192832947 0.6205953359603882
0.391682505607605 0.1813051402568817 0.6143777966499329
0.2886206805706024 0.22972024977207184 0.553955078125
0.34473198652267456 0.2926405668258667 0.47710007429122925
0.3783101737499237 0.31278276443481445 0.5384572744369507
0.37805935740470886 0.1703651249408722 0.5063042640686035
0.19899970293045044 0.12598809599876404 0.5013212561607361
0.3875376284122467 0.1259218156337738 0.45811623334884644
0.33410945534706116 0.27877330780029297 0.6146141290664673
0.20333799719810486 0.2369634211063385 0.47530317306518555
0.3267884850502014 0.14502018690109253 0.47611311078071594
0.2787202298641205 0.1285446584224701 0.5396007299423218
0.3766838312149048 0.28548291325569153 0.4938766658306122
0.2221614271402359 0.1806887984275818 0.5627193450927734
0.2979480028152466 0.2637416422367096 0.4890376031398773
0.35626429319381714 0.16838261485099792 0.515251636505127
0.39511552453041077 0.2408803105354309 0.6211534142494202
0.2899417281150818 0.21460911631584167 0.4866432547569275
0.3125895857810974 0.12893177568912506 0.577778697013855
0.30601903796195984 0.2635452151298523 0.5216280817985535
0.2587760388851166 0.21952158212661743 0.5298489332199097
0.3766246438026428 0.27065539360046387 0.46414971351623535
0.2271784543991089 0.2439868152141571 0.6163265705108643
0.3558858633041382 0.235865980386734 0.4726341962814331
0.28777146339416504 0.1459791660308838 0.5536414980888367
0.22523349523544312 0.15440906584262848 0.48639655113220215
0.35156717896461487 0.19747304916381836 0.46235591173171997
0.3207111954689026 0.2519252598285675 0.6166455149650574
0.23336492478847504 0.12269951403141022 0.465137779712677
0.22856508195400238 0.18059130012989044 0.4977763295173645
0.23964029550552368 0.14444050192832947 0.6205953359603882
0.391682505607605 0.1813051402568817 0.6143777966499329
0.2461220622062683 0.1277666836977005 0.5811763405799866
0.26526176929473877 0.16746708750724792 0.47038495540618896
0.22428077459335327 0.13073088228702545 0.615369439125061
0.3875376284122467 0.1259218156337738 0.45811623334884644
0.33410945534706116 0.27877330780029297 0.6146141290664673
0.20333799719810486 0.2369634211063385 0.47530317306518555
0.35970693826675415 0.18243011832237244 0.4901757836341858
0.3597069978713989 0.18243010342121124 0.49017590284347534
0.3766838312149048 0.28548291325569153 0.4938766658306122
0.2221614271402359 0.1806887984275818 0.5627193450927734
0.2979480028152466 0.2637416422367096 0.4890376031398773
0.21451473236083984 0.22933219373226166 0.5699443817138672
0.31437045335769653 0.3123549520969391 0.5874708294868469
0.39511552453041077 0.2408803105354309 0.6211534142494202
0.2658117413520813 0.11580008268356323 0.5733271837234497
0.3125895857810974 0.12893177568912506 0.577778697013855
0.2587760388851166 0.21952158212661743 0.5298489332199097
0.37836065888404846 0.18796885013580322 0.47984710335731506
0.2782011032104492 0.18487288057804108 0.4722485840320587
0.3705825209617615 0.20888245105743408 0.4556608498096466
0.2523525655269623 0.30148911476135254 0.4875580370426178
0.3419937193393707 0.30040502548217773 0.4794926345348358
0.3264065384864807 0.29300302267074585 0.5252779722213745
0.2890376150608063 0.2742407023906708 0.542161762714386
0.3094748854637146 0.24127057194709778 0.5670432448387146
0.20681336522102356 0.21689604222774506 0.5315603613853455
0.20322449505329132 0.22998738288879395 0.4638877809047699
0.28758174180984497 0.24123312532901764 0.6005752086639404
0.27786728739738464 0.30339330434799194 0.5653652548789978
0.3782951235771179 0.20543470978736877 0.45579832792282104
0.21625815331935883 0.28411218523979187 0.44961753487586975
0.23018087446689606 0.1255970150232315 0.49136945605278015
0.22151535749435425 0.20713549852371216 0.5120192766189575
0.3840574026107788 0.19437721371650696 0.5064470767974854
0.33681830763816833 0.20628930628299713 0.5083456039428711
0.3941005766391754 0.1449209302663803 0.5640087723731995
0.33214426040649414 0.2539285123348236 0.6144144535064697
0.2387334406375885 0.19802922010421753 0.5400413870811462
0.20919997990131378 0.20124387741088867 0.4899916648864746
0.3116739094257355 0.1224738210439682 0.5727624297142029
0.3505329191684723 0.1467563956975937 0.5365757346153259
0.2477552592754364 0.149639293551445 0.6093226075172424
0.3461790382862091 0.1461985856294632 0.4579668343067169
0.30563223361968994 0.1880008578300476 0.5808343291282654
0.3233172595500946 0.3016688823699951 0.5369263291358948
0.38957926630973816 0.11713913828134537 0.486422061920166
0.27684107422828674 0.13962605595588684 0.5507763028144836
0.2466174066066742 0.14975108206272125 0.5101379156112671
0.3077005445957184 0.14472416043281555 0.6253084540367126
0.3519349992275238 0.2671613097190857 0.6052292585372925
0.2391139268875122 0.17128773033618927 0.5561418533325195
0.2310064136981964 0.3060258626937866 0.5465543866157532
0.2509610652923584 0.14447949826717377 0.6153493523597717
0.2271784543991089 0.2439868152141571 0.6163265705108643
0.210391104221344 0.13283765316009521 0.5293457508087158
0.2625539004802704 0.2052249312400818 0.4573741853237152
0.26477670669555664 0.12127868831157684 0.5215776562690735
0.20138360559940338 0.29164037108421326 0.4323882460594177
0.26968592405319214 0.21260321140289307 0.46266230940818787
0.3132551312446594 0.21360599994659424 0.502817690372467
0.3756836950778961 0.17093364894390106 0.5020646452903748
0.3899571895599365 0.13746830821037292 0.5042423605918884
0.26893937587738037 0.2736063301563263 0.5640791058540344
0.3337298333644867 0.2552012801170349 0.5194859504699707
0.2349773347377777 0.23219184577465057 0.5392475724220276
0.3943003714084625 0.16683578491210938 0.4333004355430603
0.3171544373035431 0.12351980805397034 0.5542351007461548
0.310378760099411 0.15629416704177856 0.6242839694023132
0.310812771320343 0.26427826285362244 0.5219992995262146
0.37598222494125366 0.27693331241607666 0.5791385769844055
0.2853851020336151 0.15442952513694763 0.5260022878646851
0.35989513993263245 0.15331271290779114 0.5177748203277588
0.2037985771894455 0.16888323426246643 0.5417980551719666
0.25234606862068176 0.3083607256412506 0.5998675227165222
0.3219335079193115 0.2305716723203659 0.4745950400829315
0.3751145601272583 0.23508498072624207 0.590137779712677
0.2807115614414215 0.27508431673049927 0.6097614765167236
0.20280921459197998 0.2455424964427948 0.508745014667511
0.3677108883857727 0.17007140815258026 0.619215190410614
0.23114833235740662 0.3047201633453369 0.5558652281761169
0.344830185174942 0.2390180379152298 0.6100598573684692
0.34865742921829224 0.2408602386713028 0.5228011608123779
0.23335859179496765 0.24357223510742188 0.46672752499580383
0.22252845764160156 0.2437387853860855 0.5839487314224243
0.3473314642906189 0.26382872462272644 0.5763183832168579
0.38118505477905273 0.21753694117069244 0.520871639251709
0.37628456950187683 0.21802519261837006 0.5304732322692871
0.28677064180374146 0.17100906372070312 0.5905030965805054
0.3264065384864807 0.29300302267074585 0.5252779722213745
0.2890376150608063 0.2742407023906708 0.542161762714386
0.3094748854637146 0.24127057194709778 0.5670432448387146
0.20681336522102356 0.21689604222774506 0.5315603613853455
0.20322449505329132 0.22998738288879395 0.4638877809047699
0.28758174180984497 0.24123312532901764 0.6005752086639404
0.27786728739738464 0.30339330434799194 0.5653652548789978
0.3782951235771179 0.20543470978736877 0.45579832792282104
0.21625815331935883 0.28411218523979187 0.44961753487586975
0.23018087446689606 0.1255970150232315 0.49136945605278015
0.22151535749435425 0.20713549852371216 0.5120192766189575
0.3840574026107788 0.19437721371650696 0.5064470767974854
0.3432740569114685 0.1941664218902588 0.6107940673828125
0.38044631481170654 0.25534242391586304 0.5625283718109131
0.2446683645248413 0.154598206281662 0.6305251121520996
0.3437120318412781 0.15096314251422882 0.542029857635498
0.23449352383613586 0.11990045011043549 0.44298553466796875
0.21631237864494324 0.3026004135608673 0.5392765402793884
0.3819861114025116 0.12223590165376663 0.45335012674331665
0.2728080451488495 0.23791879415512085 0.48252490162849426
0.34869444370269775 0.21803148090839386 0.5844449996948242
0.32810720801353455 0.2183806449174881 0.43032315373420715
0.22818897664546967 0.25479814410209656 0.5941577553749084
0.21741169691085815 0.2988167405128479 0.43307486176490784
0.23237676918506622 0.2743884027004242 0.5822066068649292
0.39478424191474915 0.1292354166507721 0.47903987765312195
0.2272195816040039 0.14106906950473785 0.44519761204719543
0.2491181492805481 0.2644476592540741 0.6004909873008728
0.3244560658931732 0.15813332796096802 0.5450645089149475
0.2340232878923416 0.13937437534332275 0.6039705276489258
0.3756836950778961 0.17093364894390106 0.5020646452903748
0.3899571895599365 0.13746830821037292 0.5042423605918884
0.26893937587738037 0.2736063301563263 0.5640791058540344
0.3337298333644867 0.2552012801170349 0.5194859504699707
0.2349773347377777 0.23219184577465057 0.5392475724220276
0.3943003714084625 0.16683578491210938 0.4333004355430603
0.3171544373035431 0.12351980805397034 0.5542351007461548
0.310378760099411 0.15629416704177856 0.6242839694023132
0.310812771320343 0.26427826285362244 0.5219992995262146
0.31680428981781006 0.25870823860168457 0.47155439853668213
0.3758435845375061 0.2771802246570587 0.5788512825965881
0.2875964045524597 0.1189999207854271 0.5275471210479736
0.3997628390789032 0.16363836824893951 0.6257877349853516
0.32687026262283325 0.2093537449836731 0.5339561104774475
0.2434074580669403 0.2751184403896332 0.49134474992752075
0.2223213165998459 0.28595250844955444 0.4667584002017975
0.2376214563846588 0.1362796425819397 0.5552518367767334
0.3751145601272583 0.23508498072624207 0.590137779712677
0.2807115614414215 0.27508431673049927 0.6097614765167236
0.20280921459197998 0.2455424964427948 0.508745014667511
0.3677108883857727 0.17007140815258026 0.619215190410614
0.23114833235740662 0.3047201633453369 0.5558652281761169
0.344830185174942 0.2390180379152298 0.6100598573684692
0.34865742921829224 0.2408602386713028 0.5228011608123779
0.33697620034217834 0.1494506150484085 0.5699142217636108
0.23845207691192627 0.2208409309387207 0.6036070585250854
0.22252845764160156 0.2437387853860855 0.5839487314224243
0.3473314642906189 0.26382872462272644 0.5763183832168579
0.2452380657196045 0.1649816632270813 0.6138583421707153
0.20516881346702576 0.29149582982063293 0.6227070689201355
0.19956441223621368 0.19197990000247955 0.5242083072662354
0.38061290979385376 0.2881712317466736 0.5021880865097046
0.3756836950778961 0.17093364894390106 0.5020646452903748
0.3337298333644867 0.2552012801170349 0.5194859504699707
0.2349773347377777 0.23219184577465057 0.5392475724220276
0.3943003714084625 0.16683578491210938 0.4333004355430603
0.3171544373035431 0.12351980805397034 0.5542351007461548
0.310378760099411 0.15629416704177856 0.6242839694023132
0.31680428981781006 0.25870823860168457 0.47155439853668213
0.3758435845375061 0.2771802246570587 0.5788512825965881
0.2875964045524597 0.1189999207854271 0.5275471210479736
0.3997628390789032 0.16363836824893951 0.6257877349853516
0.32687026262283325 0.2093537449836731 0.5339561104774475
0.2434074580669403 0.2751184403896332 0.49134474992752075
0.2223213165998459 0.28595250844955444 0.4667584002017975
0.2376214563846588 0.1362796425819397 0.5552518367767334
0.3698453903198242 0.23658642172813416 0.5076508522033691
0.2046285718679428 0.23128420114517212 0.528124988079071
0.28456637263298035 0.13493987917900085 0.6289388537406921
0.32268500328063965 0.17604182660579681 0.5570017099380493
0.232296884059906 0.1164189800620079 0.5221526026725769
0.25191041827201843 0.21938768029212952 0.5678539872169495
0.3796236217021942 0.23546202480793 0.6008694767951965
0.2826460003852844 0.2148972600698471 0.5297011733055115
0.3896593451499939 0.2410093992948532 0.487385094165802
0.22252845764160156 0.2437387853860855 0.5839487314224243
0.3473314642906189 0.26382872462272644 0.5763183832168579
