ply
format ascii 1.0
element vertex 824
property float x
property float y
property float z
end_header
0.2237907350063324 0.260326623916626 0.6010329723358154
0.3426835834980011 0.1317356377840042 0.46402332186698914
0.3470897972583771 0.32597553730010986 0.5786123275756836
0.36607134342193604 0.15740364789962769 0.5876771807670593
0.25153812766075134 0.28035464882850647 0.5441775918006897
0.3581080138683319 0.3233065903186798 0.4916565716266632
0.35982224345207214 0.23622477054595947 0.5583612322807312
0.2501373887062073 0.2135535627603531 0.5837538242340088
0.29700636863708496 0.14940983057022095 0.58424973487854
0.26846468448638916 0.1696796715259552 0.45242229104042053
0.24055716395378113 0.31653138995170593 0.608180582523346
0.23601561784744263 0.24338610470294952 0.5690701603889465
0.20328018069267273 0.28866443037986755 0.467292457818985
0.33303898572921753 0.14128047227859497 0.4687822759151459
0.3634844422340393 0.28673604130744934 0.5090171694755554
0.27442044019699097 0.18102937936782837 0.5545480251312256
0.24242545664310455 0.2937887907028198 0.4534318447113037
0.23816640675067902 0.15163922309875488 0.5857153534889221
0.24517914652824402 0.2969467043876648 0.5639267563819885
0.2513386905193329 0.2573833167552948 0.4576363265514374
0.28911587595939636 0.17697007954120636 0.5957595705986023
0.24866697192192078 0.2834267318248749 0.6034221053123474
0.35734641551971436 0.2780739963054657 0.5868220925331116
0.24826842546463013 0.1938476264476776 0.6016303896903992
0.1777440309524536 0.30478736758232117 0.48817384243011475
0.3530019521713257 0.24498243629932404 0.5400809645652771
0.2197546660900116 0.18274568021297455 0.6147016286849976
0.3630829453468323 0.3057295083999634 0.5767163634300232
0.23995599150657654 0.20359276235103607 0.47875991463661194
0.3250795304775238 0.22044017910957336 0.4814736545085907
0.27979087829589844 0.19074726104736328 0.47871801257133484
0.22134263813495636 0.22801326215267181 0.5209943652153015
0.2001812756061554 0.13202524185180664 0.4650001525878906
0.28267431259155273 0.3106831908226013 0.5146481990814209
0.2171398103237152 0.30088943243026733 0.6202746629714966
0.30972427129745483 0.3136691749095917 0.5018231868743896
0.2289709597826004 0.1372053325176239 0.6043511033058167
0.28514114022254944 0.1629853993654251 0.6213870048522949
0.17963995039463043 0.28448736667633057 0.4639216661453247
0.3359774947166443 0.2424784004688263 0.6041294932365417
0.2345222532749176 0.18954716622829437 0.4996742904186249
0.2463843822479248 0.26628175377845764 0.5474858283996582
0.3410133123397827 0.2744455337524414 0.5219536423683167
0.19531570374965668 0.2952152192592621 0.5557116270065308
0.22097137570381165 0.1470605581998825 0.6205230355262756
0.32124271988868713 0.31356343626976013 0.5901021361351013
0.26247215270996094 0.2527141869068146 0.49200639128685
0.2336961328983307 0.15373779833316803 0.49410971999168396
0.30475834012031555 0.20229960978031158 0.5599592924118042
0.20030993223190308 0.15854553878307343 0.5992830395698547
0.3148074150085449 0.21172647178173065 0.6193495392799377
0.29451003670692444 0.274889200925827 0.44403964281082153
0.2001037895679474 0.13057707250118256 0.4726784825325012
0.3472723662853241 0.19463275372982025 0.4455385208129883
0.3847190737724304 0.1395023763179779 0.5504185557365417
0.3652949333190918 0.16968868672847748 0.5562729835510254
0.21394723653793335 0.21940310299396515 0.5052757859230042
0.3488095700740814 0.1737401932477951 0.49637284874916077
0.3212035000324249 0.1569564938545227 0.49868300557136536
0.31642237305641174 0.19908776879310608 0.6180374622344971
0.2237907350063324 0.260326623916626 0.6010329723358154
0.3426835834980011 0.1317356377840042 0.46402332186698914
0.19538429379463196 0.21013270318508148 0.4351518750190735
0.28815531730651855 0.22464902698993683 0.556439220905304
0.22075244784355164 0.1433829367160797 0.4536156952381134
0.19850824773311615 0.23622645437717438 0.6255698800086975
0.2736780047416687 0.11967688053846359 0.48708376288414
0.35937750339508057 0.14621467888355255 0.5576348304748535
0.2329622060060501 0.22193937003612518 0.44849368929862976
0.3832291066646576 0.14476726949214935 0.5840155482292175
0.2901662588119507 0.29179561138153076 0.5980374813079834
0.2771787643432617 0.2815381586551666 0.4496106803417206
0.3356272876262665 0.14934103190898895 0.4733370244503021
0.20768454670906067 0.13978052139282227 0.4881996810436249
0.3768421709537506 0.16280785202980042 0.45667707920074463
0.270453542470932 0.1954871565103531 0.45959100127220154
0.34743282198905945 0.27203330397605896 0.5705832242965698
0.3367237150669098 0.1576661318540573 0.5292973518371582
0.2595875561237335 0.18433180451393127 0.472258597612381
0.2780691087245941 0.2083337903022766 0.5233357548713684
0.25786373019218445 0.2782951295375824 0.6233773827552795
0.2402491271495819 0.2205185741186142 0.5694926977157593
0.22660952806472778 0.19864678382873535 0.5554876923561096
0.21623580157756805 0.12562492489814758 0.4841545522212982
0.2375735342502594 0.177846759557724 0.6130647659301758
0.36112385988235474 0.2627284526824951 0.5049190521240234
0.2286931276321411 0.1466219425201416 0.6263505816459656
0.2696685791015625 0.27937474846839905 0.6249379515647888
0.23857855796813965 0.16939540207386017 0.44138622283935547
0.38094204664230347 0.26174283027648926 0.6017769575119019
0.21394723653793335 0.21940310299396515 0.5052757859230042
0.3488095700740814 0.1737401932477951 0.49637284874916077
0.3212035000324249 0.1569564938545227 0.49868300557136536
0.22341638803482056 0.31122127175331116 0.5477199554443359
0.366025447845459 0.19237442314624786 0.5138221383094788
0.33228757977485657 0.24504666030406952 0.5613218545913696
0.32541918754577637 0.22230376303195953 0.5581763982772827
0.34111037850379944 0.1856275200843811 0.4407954812049866
0.21013548970222473 0.19551382958889008 0.5664459466934204
0.24025677144527435 0.21003547310829163 0.5879731774330139
0.3284139335155487 0.3098568022251129 0.5762906670570374
0.2576025724411011 0.20591992139816284 0.6127546429634094
0.3675743043422699 0.29495999217033386 0.5228152275085449
0.3169895112514496 0.20250250399112701 0.5674980282783508
0.18017207086086273 0.24600791931152344 0.4775121212005615
0.33705824613571167 0.31446513533592224 0.5973657965660095
0.3634844422340393 0.28673604130744934 0.5090171694755554
0.27442044019699097 0.18102937936782837 0.5545480251312256
0.24242545664310455 0.2937887907028198 0.4534318447113037
0.23816640675067902 0.15163922309875488 0.5857153534889221
0.3558140695095062 0.28051695227622986 0.44241371750831604
0.3239755928516388 0.1931357979774475 0.5128374695777893
0.30512169003486633 0.2268308848142624 0.5643745064735413
0.20947431027889252 0.3038505017757416 0.6137984395027161
0.2531298100948334 0.3052584230899811 0.48837706446647644
0.2889624238014221 0.25541093945503235 0.5510135293006897
0.3723253011703491 0.18937040865421295 0.6188718676567078
0.3706822097301483 0.14787790179252625 0.4351477026939392
0.31652721762657166 0.26273682713508606 0.47200265526771545
0.23870928585529327 0.12402023375034332 0.46303626894950867
0.22177816927433014 0.2812870442867279 0.4397440552711487
0.2311469167470932 0.19285321235656738 0.5780946612358093
0.23263618350028992 0.18506699800491333 0.6123034954071045
0.3084076941013336 0.300834596157074 0.4719339609146118
0.3072564899921417 0.18241122364997864 0.6021708846092224
0.35611364245414734 0.24069267511367798 0.5267871618270874
0.292044073343277 0.18299013376235962 0.5784797668457031
0.26569700241088867 0.28160974383354187 0.5691481232643127
0.21717362105846405 0.21120354533195496 0.5585559010505676
0.23902450501918793 0.14030325412750244 0.46426451206207275
0.2267206460237503 0.12714692950248718 0.5032455325126648
0.3319874107837677 0.25226905941963196 0.5457932353019714
0.3306347727775574 0.3047564923763275 0.605722188949585
0.2427884340286255 0.17792503535747528 0.4455376863479614
0.2385626882314682 0.2028086632490158 0.5333852171897888
0.2566969692707062 0.2808658182621002 0.5106451511383057
0.3560740351676941 0.2496233731508255 0.6248338222503662
0.2712017595767975 0.22692151367664337 0.6062017679214478
0.36545366048812866 0.2979649007320404 0.4667786955833435
0.28950974345207214 0.12709996104240417 0.5266910791397095
0.3477596044540405 0.12400555610656738 0.43757620453834534
0.21907249093055725 0.2180791050195694 0.5855305790901184
0.24947702884674072 0.26621654629707336 0.46453988552093506
0.29828351736068726 0.2793160080909729 0.5295462012290955
0.26990410685539246 0.16087056696414948 0.4672629237174988
0.33145779371261597 0.22999036312103271 0.5407586693763733
0.2721058130264282 0.15368418395519257 0.4627259373664856
0.18724918365478516 0.2731863856315613 0.6073735356330872
0.37739071249961853 0.15230955183506012 0.5937179923057556
0.334576278924942 0.21288342773914337 0.6055341958999634
0.37296929955482483 0.2483016401529312 0.5591644048690796
0.2984391748905182 0.24948638677597046 0.48501911759376526
0.3355514407157898 0.26066872477531433 0.5678119659423828
0.23237481713294983 0.24776118993759155 0.5166929960250854
0.3224363327026367 0.20761078596115112 0.48397257924079895
0.248688742518425 0.16208593547344208 0.43684953451156616
0.3077613413333893 0.23690809309482574 0.621801495552063
0.2796820402145386 0.19557976722717285 0.5212595462799072
0.2625020146369934 0.2728137969970703 0.5624040961265564
0.29647690057754517 0.18733751773834229 0.6105275750160217
0.27354511618614197 0.1910102367401123 0.5028173327445984
0.17995721101760864 0.2855280041694641 0.4402618110179901
0.37509649991989136 0.2934189736843109 0.6209149956703186
0.33708882331848145 0.20599617063999176 0.46923136711120605
0.3724188208580017 0.16370531916618347 0.5502814650535583
0.384713739156723 0.18721328675746918 0.5409053564071655
0.2789722681045532 0.1206916868686676 0.5258272886276245
0.3784351646900177 0.24616575241088867 0.6072578430175781
0.19786867499351501 0.2076142430305481 0.5626589059829712
0.3118911385536194 0.31489911675453186 0.5066918730735779
0.19000773131847382 0.24444478750228882 0.4780580699443817
0.30270153284072876 0.14587882161140442 0.4445956349372864
0.3641459047794342 0.21435989439487457 0.5016118884086609
0.22786058485507965 0.296988308429718 0.4861457943916321
0.23898938298225403 0.2987019419670105 0.5131388902664185
0.21649375557899475 0.2825544476509094 0.4649661183357239
0.32027530670166016 0.20262588560581207 0.4981984496116638
0.320252001285553 0.2803133428096771 0.5986352562904358
0.36033743619918823 0.1993456929922104 0.596224844455719
0.3437800109386444 0.21377454698085785 0.6096882224082947
0.2633586525917053 0.30226996541023254 0.5796544551849365
0.37394726276397705 0.3245677351951599 0.6156801581382751
0.25660935044288635 0.2930167615413666 0.4562077522277832
0.22171169519424438 0.23349052667617798 0.5932046175003052
0.25586268305778503 0.24649421870708466 0.5789173245429993
0.24889856576919556 0.18690697848796844 0.4599049985408783
0.24196864664554596 0.17788031697273254 0.44955530762672424
0.3728576898574829 0.25917986035346985 0.5654023289680481
0.3220030963420868 0.12508061528205872 0.4518180787563324
0.23685848712921143 0.3005598187446594 0.4959578514099121
0.2395857274532318 0.12383384257555008 0.4443452060222626
0.19324518740177155 0.16994062066078186 0.44582343101501465
0.29628750681877136 0.1569056659936905 0.5813820958137512
0.35607171058654785 0.2813532054424286 0.5504875183105469
0.31050702929496765 0.15952438116073608 0.5408896803855896
0.18399420380592346 0.2378225326538086 0.5259381532669067
0.2625974416732788 0.12731453776359558 0.448357492685318
0.17872287333011627 0.27793824672698975 0.4937947988510132
0.3289704918861389 0.2244073450565338 0.43570855259895325
0.34842297434806824 0.17880937457084656 0.5535609126091003
0.3802982568740845 0.1389467716217041 0.5397383570671082
0.2972815930843353 0.3027394711971283 0.4295077919960022
0.26209646463394165 0.2068108767271042 0.6256095767021179
0.3243032693862915 0.2004520744085312 0.4958588778972626
0.31615322828292847 0.29790404438972473 0.5957657694816589
0.30332255363464355 0.2214856743812561 0.5545024275779724
0.3474273085594177 0.3220367729663849 0.49831995368003845
0.20625510811805725 0.14687669277191162 0.5289944410324097
0.23042359948158264 0.1745355874300003 0.6289850473403931
0.2803628444671631 0.2596035301685333 0.5751703977584839
0.2908698618412018 0.1806231588125229 0.48930779099464417
0.1926775425672531 0.1816743165254593 0.6048534512519836
0.3634789288043976 0.26987650990486145 0.4863986372947693
0.3801915943622589 0.21727509796619415 0.6113641858100891
0.2607101500034332 0.2695263624191284 0.5044370293617249
0.26710882782936096 0.28302404284477234 0.4964892864227295
0.38933151960372925 0.19684962928295135 0.6124175786972046
0.355887234210968 0.312091588973999 0.444141149520874
0.19819630682468414 0.15393278002738953 0.6274735331535339
0.3295513093471527 0.24334494769573212 0.514443039894104
0.3880385458469391 0.14823013544082642 0.5223545432090759
0.3194964528083801 0.18082989752292633 0.45403507351875305
0.29781240224838257 0.15303072333335876 0.6209545731544495
0.23323115706443787 0.31053730845451355 0.4754926264286041
0.3780638575553894 0.2372652143239975 0.5866256952285767
0.20479972660541534 0.3135766088962555 0.5098711252212524
0.3157805800437927 0.2424435019493103 0.43353506922721863
0.27366068959236145 0.12950275838375092 0.4670630991458893
0.32314032316207886 0.1980585753917694 0.5598866939544678
0.2989144027233124 0.3094286620616913 0.4925079643726349
0.2747543752193451 0.2384135127067566 0.5054860711097717
0.2350534349679947 0.20959289371967316 0.46205005049705505
0.27887874841690063 0.27928581833839417 0.5606177449226379
0.37112075090408325 0.3246658146381378 0.4315244257450104
0.3540855944156647 0.1729746311903 0.5016086101531982
0.2967204749584198 0.2380211055278778 0.43201500177383423
0.2023048847913742 0.25886717438697815 0.5645684003829956
0.3952644467353821 0.14590243995189667 0.594794750213623
0.18522967398166656 0.2379923164844513 0.5012671947479248
0.22530314326286316 0.12679985165596008 0.4957319498062134
0.3277609944343567 0.2550877332687378 0.4892452359199524
0.24668340384960175 0.2569185197353363 0.4761076867580414
0.298896461725235 0.27390754222869873 0.5894715785980225
0.3376426100730896 0.1899769902229309 0.44165417551994324
0.2977146506309509 0.214692622423172 0.5077472925186157
0.29176217317581177 0.22201624512672424 0.5186424851417542
0.21951675415039062 0.16946566104888916 0.6215611100196838
0.2564820945262909 0.15437033772468567 0.6080584526062012
0.22141756117343903 0.2991834282875061 0.47224345803260803
0.377422571182251 0.17453645169734955 0.5337241291999817
0.21519482135772705 0.29123058915138245 0.4339481592178345
0.2787599265575409 0.21068988740444183 0.43818092346191406
0.37962961196899414 0.24515438079833984 0.4828835427761078
0.2607487440109253 0.20103046298027039 0.619758129119873
0.27112123370170593 0.28490686416625977 0.44050243496894836
0.31345394253730774 0.2126810997724533 0.595542311668396
0.2360386699438095 0.2062109112739563 0.609250545501709
0.241677388548851 0.20069964230060577 0.5443586707115173
0.20524734258651733 0.23524436354637146 0.5610776543617249
0.30833008885383606 0.15175269544124603 0.44515058398246765
0.2515607178211212 0.2099359929561615 0.5649521946907043
0.35424888134002686 0.17336688935756683 0.4327784776687622
0.2673221528530121 0.29159945249557495 0.5721746683120728
0.3458031713962555 0.17740550637245178 0.4739949405193329
0.2214319109916687 0.2502213418483734 0.5924232006072998
0.2726730406284332 0.2064993530511856 0.4891747236251831
0.20391926169395447 0.1686156839132309 0.5281469225883484
0.35805222392082214 0.16164787113666534 0.49333563446998596
0.20353473722934723 0.17262817919254303 0.4583374857902527
0.20272350311279297 0.2946183383464813 0.532845675945282
0.24879834055900574 0.30062228441238403 0.5278398990631104
0.19167229533195496 0.2466948926448822 0.6178964972496033
0.20071357488632202 0.12599433958530426 0.44041550159454346
0.2438686639070511 0.29341191053390503 0.543368935585022
0.3710970878601074 0.19826824963092804 0.5522097945213318
0.28113386034965515 0.12989258766174316 0.4899216890335083
0.25559163093566895 0.30365288257598877 0.4305262863636017
0.3289838433265686 0.1697404980659485 0.44747498631477356
0.18701320886611938 0.2863273620605469 0.5129039287567139
0.37208396196365356 0.18062348663806915 0.5418606400489807
0.23423387110233307 0.16115637123584747 0.6004013419151306
0.3148328363895416 0.19406084716320038 0.5648958683013916
0.3517744839191437 0.16939128935337067 0.5901536345481873
0.26719146966934204 0.2630247175693512 0.4601607322692871
0.22367361187934875 0.2804148197174072 0.564811646938324
0.21190664172172546 0.26752933859825134 0.4898911416530609
0.20203447341918945 0.1543954312801361 0.6246170401573181
0.3175004720687866 0.3185577690601349 0.4397748112678528
0.27517491579055786 0.13564532995224 0.5416550636291504
0.3132992684841156 0.16847513616085052 0.6141560673713684
0.2740596532821655 0.21070188283920288 0.5175069570541382
0.1967916637659073 0.11749645322561264 0.5275403261184692
0.21394789218902588 0.24143671989440918 0.5625960826873779
0.25886934995651245 0.18967290222644806 0.5420981645584106
0.26172807812690735 0.16624492406845093 0.43918055295944214
0.20232897996902466 0.11577445268630981 0.4743584096431732
0.22059951722621918 0.20534230768680573 0.6277458071708679
0.3447559177875519 0.23829962313175201 0.5906369686126709
0.2166433036327362 0.19254648685455322 0.5240707993507385
0.3473275303840637 0.2511328160762787 0.6042190194129944
0.18370437622070312 0.2337956428527832 0.4844658672809601
0.3004699945449829 0.1663902848958969 0.5317698121070862
0.2963888645172119 0.19307801127433777 0.6046713590621948
0.35200271010398865 0.19772988557815552 0.490088552236557
0.3379395604133606 0.19661478698253632 0.4459029734134674
0.3756387531757355 0.23390403389930725 0.4694065749645233
0.2831227779388428 0.19857633113861084 0.44640082120895386
0.27837997674942017 0.18748371303081512 0.4583873450756073
0.3812659680843353 0.24549025297164917 0.5668604969978333
0.20287208259105682 0.11698698997497559 0.46694546937942505
0.20030075311660767 0.12914633750915527 0.44935479760169983
0.26506534218788147 0.15967458486557007 0.5451037883758545
0.33468422293663025 0.26847708225250244 0.4974117577075958
0.3060382902622223 0.2608235478401184 0.4530816972255707
0.23136849701404572 0.1262119561433792 0.4418804347515106
0.22982408106327057 0.3056237995624542 0.4873598515987396
0.32792583107948303 0.17124874889850616 0.4409494698047638
0.21568606793880463 0.1253068894147873 0.5876241326332092
0.18623527884483337 0.28955698013305664 0.4560004770755768
0.3478948771953583 0.2682384252548218 0.47088873386383057
0.2918629050254822 0.18413697183132172 0.5396066308021545
0.26236191391944885 0.1923501342535019 0.5764538049697876
0.24784623086452484 0.2231474220752716 0.560040295124054
0.19509243965148926 0.1722548007965088 0.4785269498825073
0.22093333303928375 0.23341749608516693 0.6008957624435425
0.2943980395793915 0.220733180642128 0.5270305275917053
0.353390097618103 0.26270219683647156 0.549466073513031
0.32360583543777466 0.17938192188739777 0.4449717402458191
0.28820154070854187 0.22971804440021515 0.6110824346542358
0.23103326559066772 0.3088369369506836 0.5373649597167969
0.2516115605831146 0.2388795018196106 0.4393886923789978
0.3473275303840637 0.2511328160762787 0.6042190194129944
0.18370437622070312 0.2337956428527832 0.4844658672809601
0.3004699945449829 0.1663902848958969 0.5317698121070862
0.2963888645172119 0.19307801127433777 0.6046713590621948
0.35200271010398865 0.19772988557815552 0.490088552236557
0.3379395604133606 0.19661478698253632 0.4459029734134674
0.3756387531757355 0.23390403389930725 0.4694065749645233
0.3239755928516388 0.1931357979774475 0.5128374695777893
0.37509649991989136 0.2934189736843109 0.6209149956703186
0.33708882331848145 0.20599617063999176 0.46923136711120605
0.3724188208580017 0.16370531916618347 0.5502814650535583
0.384713739156723 0.18721328675746918 0.5409053564071655
0.23129276931285858 0.3087403476238251 0.5029775500297546
0.2063380777835846 0.2241760790348053 0.4417288899421692
0.3518860638141632 0.295560359954834 0.4618898332118988
0.21350686252117157 0.21702876687049866 0.5268048048019409
0.2507082521915436 0.13409754633903503 0.46336665749549866
0.3871963918209076 0.15719474852085114 0.6070145964622498
0.2065373659133911 0.26538223028182983 0.4775789678096771
0.19727478921413422 0.21226580440998077 0.442055881023407
0.21838393807411194 0.26457449793815613 0.4317910075187683
0.2353549599647522 0.22160817682743073 0.5826064348220825
0.20329736173152924 0.16512389481067657 0.5780977010726929
0.22059951722621918 0.20534230768680573 0.6277458071708679
0.3447559177875519 0.23829962313175201 0.5906369686126709
0.2166433036327362 0.19254648685455322 0.5240707993507385
0.3473275303840637 0.2511328160762787 0.6042190194129944
0.18370437622070312 0.2337956428527832 0.4844658672809601
0.3004699945449829 0.1663902848958969 0.5317698121070862
0.2963888645172119 0.19307801127433777 0.6046713590621948
0.35200271010398865 0.19772988557815552 0.490088552236557
0.3379395604133606 0.19661478698253632 0.4459029734134674
0.3756387531757355 0.23390403389930725 0.4694065749645233
0.3503021001815796 0.23135599493980408 0.6000930070877075
0.3755677044391632 0.2753280997276306 0.5832979083061218
0.2734554409980774 0.3213302791118622 0.5324469804763794
0.2681184709072113 0.28467148542404175 0.4529319703578949
0.34178653359413147 0.1623866707086563 0.611423134803772
0.341764360666275 0.1275302916765213 0.43856313824653625
0.21637097001075745 0.15024645626544952 0.5973115563392639
0.2787599265575409 0.21068988740444183 0.43818092346191406
0.37962961196899414 0.24515438079833984 0.4828835427761078
0.2607487440109253 0.20103046298027039 0.619758129119873
0.30104291439056396 0.1709008365869522 0.5341082215309143
0.2719845473766327 0.32194632291793823 0.5772373080253601
0.1950775384902954 0.15361474454402924 0.5710211396217346
0.3443293273448944 0.2324160933494568 0.5307013392448425
0.22813434898853302 0.3079751133918762 0.6243031620979309
0.31091544032096863 0.2212185114622116 0.6244798302650452
0.3359869718551636 0.12393730878829956 0.5112327933311462
0.29156145453453064 0.1737852692604065 0.5872882008552551
0.2306097447872162 0.3148267865180969 0.5737572908401489
0.3492942750453949 0.12471792846918106 0.4418978691101074
0.3759462833404541 0.18948888778686523 0.45931005477905273
0.24125273525714874 0.17631344497203827 0.5831362009048462
0.19973860681056976 0.1496191769838333 0.5434998869895935
0.1902618557214737 0.15836553275585175 0.4680114984512329
0.17779524624347687 0.2999739944934845 0.48523831367492676
0.246865913271904 0.20016808807849884 0.5044128894805908
0.3429456949234009 0.20718137919902802 0.6255824565887451
0.24772995710372925 0.11902551352977753 0.5197759866714478
0.2693328857421875 0.1812284141778946 0.5345673561096191
0.2884865999221802 0.24356330931186676 0.534428596496582
0.2559092044830322 0.19154687225818634 0.5488506555557251
0.23089367151260376 0.2643605172634125 0.4360117018222809
0.2770944833755493 0.29255056381225586 0.4800000786781311
0.28278592228889465 0.202958881855011 0.48508960008621216
0.38563546538352966 0.13807938992977142 0.566978394985199
0.23652303218841553 0.16611835360527039 0.6296274662017822
0.3713497519493103 0.24187248945236206 0.5861482620239258
0.2210373729467392 0.16336482763290405 0.5644081830978394
0.2977146506309509 0.214692622423172 0.5077472925186157
0.18856625258922577 0.24750766158103943 0.6235916018486023
0.35106968879699707 0.13598670065402985 0.5773875713348389
0.29631948471069336 0.1637059450149536 0.6063592433929443
0.258776992559433 0.2858213484287262 0.5262553691864014
0.27012261748313904 0.27391350269317627 0.4886927306652069
0.3110829293727875 0.24724556505680084 0.516532301902771
0.2700318694114685 0.15644027292728424 0.44675758481025696
0.35910385847091675 0.20561160147190094 0.5900407433509827
0.24994288384914398 0.30059686303138733 0.5174562931060791
0.25413915514945984 0.3102474808692932 0.4547227621078491
0.36456266045570374 0.1893901526927948 0.5307347774505615
0.33797356486320496 0.24183282256126404 0.521179735660553
0.34684014320373535 0.16082283854484558 0.6098329424858093
0.283435583114624 0.26467299461364746 0.48491695523262024
0.25948846340179443 0.12281674891710281 0.6281471848487854
0.22059951722621918 0.20534230768680573 0.6277458071708679
0.3447559177875519 0.23829962313175201 0.5906369686126709
0.2166433036327362 0.19254648685455322 0.5240707993507385
0.3473275303840637 0.2511328160762787 0.6042190194129944
0.18370437622070312 0.2337956428527832 0.4844658672809601
0.3004699945449829 0.1663902848958969 0.5317698121070862
0.2632807791233063 0.26577475666999817 0.5166054368019104
0.33378732204437256 0.31028956174850464 0.4896993935108185
0.19807486236095428 0.2583123743534088 0.512409508228302
0.37178918719291687 0.18767158687114716 0.46653953194618225
0.3273119330406189 0.23778797686100006 0.5131469368934631
0.3440439999103546 0.32723960280418396 0.608503520488739
0.2499835342168808 0.27956971526145935 0.492695689201355
0.25929951667785645 0.11782971769571304 0.43732506036758423
0.33751124143600464 0.13456106185913086 0.5888816714286804
0.30794745683670044 0.24276864528656006 0.523975670337677
0.3690548539161682 0.17434056103229523 0.5985766053199768
0.38217759132385254 0.18357080221176147 0.6282959580421448
0.18682821094989777 0.27632829546928406 0.580787181854248
0.27112123370170593 0.28490686416625977 0.44050243496894836
0.31345394253730774 0.2126810997724533 0.595542311668396
0.2360386699438095 0.2062109112739563 0.609250545501709
0.241677388548851 0.20069964230060577 0.5443586707115173
0.20524734258651733 0.23524436354637146 0.5610776543617249
0.30833008885383606 0.15175269544124603 0.44515058398246765
0.2515607178211212 0.2099359929561615 0.5649521946907043
0.2787991166114807 0.13753758370876312 0.5295016765594482
0.33563509583473206 0.209097757935524 0.4637368619441986
0.3493277132511139 0.19667184352874756 0.5825405120849609
0.21042630076408386 0.13079345226287842 0.47369006276130676
0.2250455766916275 0.17776010930538177 0.5495079755783081
0.3653341233730316 0.1885000765323639 0.5479913949966431
0.24135278165340424 0.19381575286388397 0.6245610117912292
0.32134532928466797 0.13791407644748688 0.4696851372718811
0.37181755900382996 0.14122751355171204 0.541791558265686
0.3195496201515198 0.23669090867042542 0.46588441729545593
0.3347167372703552 0.2902858853340149 0.4971773624420166
0.2848972678184509 0.13835662603378296 0.5804872512817383
0.3433333933353424 0.28822967410087585 0.4232097268104553
0.22164858877658844 0.2491571307182312 0.5971782207489014
0.3716585338115692 0.13836894929409027 0.6020220518112183
0.20321139693260193 0.15683217346668243 0.5700896978378296
0.3638060986995697 0.28562459349632263 0.46497663855552673
0.227115198969841 0.23507319390773773 0.6085546016693115
0.25091394782066345 0.27207860350608826 0.5964823365211487
0.31139588356018066 0.21472132205963135 0.562316358089447
0.3199755549430847 0.2996564209461212 0.5874162912368774
0.25117596983909607 0.289170503616333 0.6263336539268494
0.17995721101760864 0.2855280041694641 0.4402618110179901
0.3525938391685486 0.2632746994495392 0.4326144754886627
0.3348452150821686 0.20514501631259918 0.5268861055374146
0.36399364471435547 0.2819842994213104 0.4683678150177002
0.307705283164978 0.26402944326400757 0.440213143825531
0.3132034242153168 0.25236788392066956 0.4917539656162262
0.35622459650039673 0.2138170301914215 0.47911974787712097
0.35390323400497437 0.30349966883659363 0.6004533767700195
0.3876858651638031 0.14897845685482025 0.46981126070022583
0.30176982283592224 0.1641068160533905 0.5571203827857971
0.32806140184402466 0.3203585147857666 0.4358071982860565
0.34128788113594055 0.27908754348754883 0.6051952242851257
0.33846718072891235 0.2921906113624573 0.4408091902732849
0.33184143900871277 0.27984121441841125 0.5276461243629456
0.28737321496009827 0.1865580528974533 0.45437005162239075
0.2925652265548706 0.20731884241104126 0.5813118815422058
0.3738325834274292 0.2947212755680084 0.5304877758026123
0.3034665882587433 0.1931089460849762 0.5023795962333679
0.31178849935531616 0.20698517560958862 0.5695162415504456
0.3406050205230713 0.13872063159942627 0.4558723568916321
0.3658297061920166 0.21255268156528473 0.5800632238388062
0.21477748453617096 0.2495519518852234 0.6190183758735657
0.3448133170604706 0.24963782727718353 0.4733216166496277
0.28090760111808777 0.155961811542511 0.5537821650505066
0.21912053227424622 0.16018186509609222 0.48670560121536255
0.3422435224056244 0.2095962017774582 0.46272188425064087
0.3095000982284546 0.2630314826965332 0.618986964225769
0.3055584132671356 0.2574736177921295 0.6237890124320984
0.34647125005722046 0.15284638106822968 0.6195382475852966
0.28926882147789 0.13598869740962982 0.530677318572998
0.36602261662483215 0.3219124376773834 0.5778844952583313
0.29187822341918945 0.24054399132728577 0.5636968612670898
0.27366068959236145 0.12950275838375092 0.4670630991458893
0.2402573823928833 0.24109920859336853 0.6305289268493652
0.22101907432079315 0.2822265326976776 0.6108068823814392
0.2525668442249298 0.18839909136295319 0.5294017791748047
0.21040736138820648 0.2801535129547119 0.4680083990097046
0.19747774302959442 0.20358048379421234 0.5924943685531616
0.31213971972465515 0.1507473886013031 0.59346604347229
0.35332369804382324 0.29645803570747375 0.5891354084014893
0.38747894763946533 0.14675207436084747 0.564413845539093
0.2739572823047638 0.2343023419380188 0.5263997912406921
0.2968777120113373 0.1443590670824051 0.5573965907096863
0.2870738208293915 0.14148803055286407 0.6217202544212341
0.18400630354881287 0.2903522551059723 0.6243200898170471
0.2626230716705322 0.1951904445886612 0.4868334233760834
0.30630871653556824 0.22200164198875427 0.5855251550674438
0.23420783877372742 0.18019671738147736 0.476379930973053
0.3803596496582031 0.1382964700460434 0.47464320063591003
0.29774370789527893 0.3094441890716553 0.43795493245124817
0.3056690990924835 0.19177551567554474 0.5446888208389282
0.3668966293334961 0.23788079619407654 0.5885241627693176
0.21169698238372803 0.3095986545085907 0.5137427449226379
0.2908722460269928 0.2008410096168518 0.4925684332847595
0.33317890763282776 0.23720097541809082 0.6121702194213867
0.30278170108795166 0.20317044854164124 0.4603077471256256
0.3923766613006592 0.14768363535404205 0.4945933520793915
0.26511693000793457 0.17416338622570038 0.48548081517219543
0.3409978151321411 0.25752773880958557 0.5861126184463501
0.25378137826919556 0.21383991837501526 0.4594632089138031
0.3079962432384491 0.26477301120758057 0.45592331886291504
0.32228782773017883 0.23333477973937988 0.43554478883743286
0.2878841757774353 0.12289228290319443 0.5381641387939453
0.23053793609142303 0.2575233280658722 0.4971059560775757
0.2971249520778656 0.2156161218881607 0.4958571195602417
0.23042359948158264 0.1745355874300003 0.6289850473403931
0.21946778893470764 0.29749366641044617 0.46941283345222473
0.2993331253528595 0.1646116077899933 0.5626694560050964
0.2950824797153473 0.18485774099826813 0.47641628980636597
0.38938310742378235 0.13877250254154205 0.5678128004074097
0.27315133810043335 0.264035165309906 0.5099358558654785
0.31296971440315247 0.14438502490520477 0.5615172982215881
0.2775299549102783 0.2908596694469452 0.5930492281913757
0.2693249583244324 0.2436952143907547 0.6225701570510864
0.36869728565216064 0.313359797000885 0.511094868183136
0.35230979323387146 0.29457318782806396 0.6106402277946472
0.34133994579315186 0.2323729544878006 0.5033393502235413
0.22342057526111603 0.12053098529577255 0.5952173471450806
0.2987805902957916 0.2922302186489105 0.6084177494049072
0.3481723964214325 0.2828386425971985 0.42319998145103455
0.2733555734157562 0.24224638938903809 0.5446459650993347
0.23511728644371033 0.12831541895866394 0.5743790864944458
0.3730100095272064 0.15220525860786438 0.6010067462921143
0.3681369125843048 0.15785326063632965 0.46832412481307983
0.3412526845932007 0.15863251686096191 0.4915478229522705
0.2960471510887146 0.24308465421199799 0.5370557308197021
0.1909727305173874 0.1568221151828766 0.46115803718566895
0.2833263576030731 0.19293896853923798 0.50279700756073
0.24749495089054108 0.22255158424377441 0.5047097206115723
0.3361969590187073 0.2135232388973236 0.5523079633712769
0.2915746867656708 0.2724497318267822 0.4921134114265442
0.3567792773246765 0.23318368196487427 0.458977609872818
0.21012350916862488 0.1382855474948883 0.5521449446678162
0.25291991233825684 0.29709210991859436 0.4599250853061676
0.33042028546333313 0.25896522402763367 0.5735317468643188
0.37811973690986633 0.1353783905506134 0.4359636604785919
0.20554760098457336 0.31005945801734924 0.5470526814460754
0.2519543468952179 0.14969414472579956 0.4548815190792084
0.25684142112731934 0.199872225522995 0.6160104870796204
0.29503223299980164 0.16772310435771942 0.49763891100883484
0.29828932881355286 0.12167197465896606 0.4752751588821411
0.3766426146030426 0.32674962282180786 0.5685195326805115
0.20163170993328094 0.13207845389842987 0.49644458293914795
0.2308000773191452 0.24258138239383698 0.4614124596118927
0.32375362515449524 0.282314270734787 0.5634934306144714
0.33428651094436646 0.2628803551197052 0.607591986656189
0.24529938399791718 0.30000895261764526 0.5487388968467712
0.3494512736797333 0.12811225652694702 0.5809001326560974
0.21796491742134094 0.13045422732830048 0.5156549215316772
0.2113284468650818 0.2735764980316162 0.46234411001205444
0.31415462493896484 0.2930632531642914 0.4256574213504791
0.3542540967464447 0.20008134841918945 0.5212327241897583
0.19193843007087708 0.2254916876554489 0.440231591463089
0.2984672784805298 0.22072641551494598 0.5653750896453857
0.24729353189468384 0.2521027624607086 0.5818721055984497
0.1901930570602417 0.2633090913295746 0.5889855027198792
0.38124796748161316 0.28984934091567993 0.5681619048118591
0.33607858419418335 0.2053506225347519 0.6193690299987793
0.27894124388694763 0.2626480162143707 0.4698180854320526
0.3542226254940033 0.20808948576450348 0.4606863856315613
0.23337632417678833 0.15470361709594727 0.4391655921936035
0.3393973708152771 0.2253013700246811 0.6198484897613525
0.19146443903446198 0.18597981333732605 0.4904608428478241
0.21756303310394287 0.27132782340049744 0.4883154630661011
0.2502341568470001 0.12073270976543427 0.519555389881134
0.32752111554145813 0.261695921421051 0.5429058074951172
0.3672407269477844 0.3033290207386017 0.5035349130630493
0.2121124416589737 0.18780483305454254 0.4556424021720886
0.3653341233730316 0.1885000765323639 0.5479913949966431
0.36796700954437256 0.23094868659973145 0.43146613240242004
0.27347949147224426 0.18122947216033936 0.5711914896965027
0.3676358759403229 0.3086167275905609 0.48379963636398315
0.3716585338115692 0.13836894929409027 0.6020220518112183
0.20321139693260193 0.15683217346668243 0.5700896978378296
0.3638060986995697 0.28562459349632263 0.46497663855552673
0.227115198969841 0.23507319390773773 0.6085546016693115
0.25091394782066345 0.27207860350608826 0.5964823365211487
0.31139588356018066 0.21472132205963135 0.562316358089447
0.3199755549430847 0.2996564209461212 0.5874162912368774
0.25117596983909607 0.289170503616333 0.6263336539268494
0.2887396514415741 0.22813817858695984 0.5466585159301758
0.3277930021286011 0.31448617577552795 0.481073260307312
0.3146395683288574 0.2772194743156433 0.5838480591773987
0.18571870028972626 0.31066128611564636 0.5447881817817688
0.3397250771522522 0.15006743371486664 0.4728211462497711
0.2506965398788452 0.13366766273975372 0.49955281615257263
0.2049393653869629 0.30540192127227783 0.43673819303512573
0.3457627594470978 0.30749496817588806 0.5660685300827026
0.2186340093612671 0.2122594714164734 0.603567361831665
0.2378646284341812 0.2511311173439026 0.4859570264816284
0.24210190773010254 0.2922974228858948 0.5688028335571289
0.3389914035797119 0.19615796208381653 0.6188971400260925
0.2706707715988159 0.17308259010314941 0.5162904858589172
0.23244711756706238 0.13446366786956787 0.544513463973999
0.30803629755973816 0.2174098640680313 0.5101562738418579
0.24491605162620544 0.2105526328086853 0.6242355704307556
0.37592899799346924 0.27967214584350586 0.49154162406921387
0.29090964794158936 0.2017558068037033 0.466583788394928
0.25908786058425903 0.20268560945987701 0.5597211122512817
0.2589529752731323 0.26234230399131775 0.5403136610984802
0.3284207284450531 0.29703226685523987 0.4545571208000183
0.25929951667785645 0.11782971769571304 0.43732506036758423
0.33751124143600464 0.13456106185913086 0.5888816714286804
0.32788267731666565 0.26690250635147095 0.49475207924842834
0.3088186979293823 0.1375710666179657 0.6116212010383606
0.3653820753097534 0.17458747327327728 0.5689052939414978
0.2135058492422104 0.26223224401474 0.5163484811782837
0.2392047643661499 0.21914063394069672 0.6272467970848083
0.3035103678703308 0.3243257999420166 0.5677391886711121
0.32933008670806885 0.3075166642665863 0.43933552503585815
0.34855151176452637 0.29588186740875244 0.4964134991168976
0.3405838906764984 0.23715777695178986 0.4916483759880066
0.2708622217178345 0.17122426629066467 0.6219524145126343
0.24774345755577087 0.16713190078735352 0.5606010556221008
0.21120291948318481 0.13963750004768372 0.5530975461006165
0.23103483021259308 0.11953766644001007 0.5035748481750488
0.3605085015296936 0.31898775696754456 0.4973037540912628
0.3053329885005951 0.24358442425727844 0.47412756085395813
0.30237847566604614 0.1275593340396881 0.6296409964561462
0.1901930570602417 0.2633090913295746 0.5889855027198792
0.38124796748161316 0.28984934091567993 0.5681619048118591
0.33607858419418335 0.2053506225347519 0.6193690299987793
0.27894124388694763 0.2626480162143707 0.4698180854320526
0.3542226254940033 0.20808948576450348 0.4606863856315613
0.23337632417678833 0.15470361709594727 0.4391655921936035
0.3393973708152771 0.2253013700246811 0.6198484897613525
0.19146443903446198 0.18597981333732605 0.4904608428478241
0.21756303310394287 0.27132782340049744 0.4883154630661011
0.2502341568470001 0.12073270976543427 0.519555389881134
0.32752111554145813 0.261695921421051 0.5429058074951172
0.3672407269477844 0.3033290207386017 0.5035349130630493
0.2121124416589737 0.18780483305454254 0.4556424021720886
0.3481193482875824 0.27928176522254944 0.4744773805141449
0.36827582120895386 0.17995306849479675 0.5941236019134521
0.1864098310470581 0.28519752621650696 0.6294826865196228
0.21322385966777802 0.14697930216789246 0.6111104488372803
0.2637675106525421 0.2870681583881378 0.5184684991836548
0.3643689453601837 0.27691659331321716 0.4797322750091553
0.27200162410736084 0.13302868604660034 0.50315260887146
0.20578697323799133 0.2981604039669037 0.46121835708618164
0.2781401574611664 0.2006298303604126 0.5712098479270935
0.2700594961643219 0.28728827834129333 0.6113145351409912
0.26263508200645447 0.1804526001214981 0.4984916150569916
0.283788800239563 0.2798827886581421 0.6137144565582275
0.24295084178447723 0.17722198367118835 0.5423819422721863
0.3604244291782379 0.2406540811061859 0.539435625076294
0.21359895169734955 0.29374414682388306 0.47663113474845886
0.1901930570602417 0.2633090913295746 0.5889855027198792
0.38124796748161316 0.28984934091567993 0.5681619048118591
0.33607858419418335 0.2053506225347519 0.6193690299987793
0.27894124388694763 0.2626480162143707 0.4698180854320526
0.3542226254940033 0.20808948576450348 0.4606863856315613
0.23337632417678833 0.15470361709594727 0.4391655921936035
0.3393973708152771 0.2253013700246811 0.6198484897613525
0.19146443903446198 0.18597981333732605 0.4904608428478241
0.21756303310394287 0.27132782340049744 0.4883154630661011
0.2502341568470001 0.12073270976543427 0.519555389881134
0.32752111554145813 0.261695921421051 0.5429058074951172
0.3672407269477844 0.3033290207386017 0.5035349130630493
0.2121124416589737 0.18780483305454254 0.4556424021720886
0.2904541492462158 0.20540966093540192 0.4663127064704895
0.37129539251327515 0.23151445388793945 0.5216660499572754
0.22820326685905457 0.14512242376804352 0.6036356687545776
0.36864256858825684 0.30160239338874817 0.47789809107780457
0.1795361340045929 0.2963128387928009 0.48018303513526917
0.3668966293334961 0.23788079619407654 0.5885241627693176
0.21169698238372803 0.3095986545085907 0.5137427449226379
0.2908722460269928 0.2008410096168518 0.4925684332847595
0.33317890763282776 0.23720097541809082 0.6121702194213867
0.30278170108795166 0.20317044854164124 0.4603077471256256
0.3923766613006592 0.14768363535404205 0.4945933520793915
0.26511693000793457 0.17416338622570038 0.48548081517219543
0.27275213599205017 0.30353087186813354 0.5662520527839661
0.2099771946668625 0.11789970099925995 0.5022808909416199
0.2925572693347931 0.15433606505393982 0.5561791658401489
0.35792258381843567 0.18036603927612305 0.5526868104934692
0.37184959650039673 0.13139668107032776 0.5516917109489441
0.3098660111427307 0.21924448013305664 0.47270631790161133
0.34844061732292175 0.29171696305274963 0.4625680446624756
0.3738698959350586 0.28760403394699097 0.44813963770866394
0.2516639530658722 0.27684715390205383 0.4665427505970001
0.2912997901439667 0.22987428307533264 0.5739330649375916
0.2611992657184601 0.24757739901542664 0.4492729902267456
0.2031143456697464 0.18768885731697083 0.5888396501541138
0.18121108412742615 0.30483534932136536 0.5586174130439758
0.3805530369281769 0.1366305649280548 0.46074774861335754
0.32179170846939087 0.2906586527824402 0.6173161268234253
0.19014981389045715 0.2434542179107666 0.4772448241710663
0.350900262594223 0.19438262283802032 0.49070024490356445
0.22056244313716888 0.19337677955627441 0.5872299671173096
0.30665743350982666 0.2054198980331421 0.5183520913124084
0.26290786266326904 0.1538676619529724 0.4906170964241028
0.28219738602638245 0.25361645221710205 0.435634970664978
0.2993185520172119 0.3239292800426483 0.5911765098571777
0.23617306351661682 0.23522698879241943 0.5256045460700989
0.2794439196586609 0.22638849914073944 0.48750239610671997
0.20321139693260193 0.15683217346668243 0.5700896978378296
0.3658297061920166 0.21255268156528473 0.5800632238388062
0.21477748453617096 0.2495519518852234 0.6190183758735657
0.3448133170604706 0.24963782727718353 0.4733216166496277
0.28090760111808777 0.155961811542511 0.5537821650505066
0.21912053227424622 0.16018186509609222 0.48670560121536255
0.3422435224056244 0.2095962017774582 0.46272188425064087
0.3095000982284546 0.2630314826965332 0.618986964225769
0.3055584132671356 0.2574736177921295 0.6237890124320984
0.36602261662483215 0.3219124376773834 0.5778844952583313
0.22031624615192413 0.1872989684343338 0.4982813596725464
0.23343181610107422 0.1502171754837036 0.6203514337539673
0.3834382891654968 0.192130908370018 0.6153994202613831
0.2775729298591614 0.24106192588806152 0.5557488203048706
0.33089956641197205 0.30686238408088684 0.4785628318786621
0.3641927242279053 0.3276302218437195 0.5408462882041931
0.3695017993450165 0.18272072076797485 0.5069065093994141
0.19536922872066498 0.1286678910255432 0.5014434456825256
0.3805530369281769 0.1366305649280548 0.46074774861335754
0.32179170846939087 0.2906586527824402 0.6173161268234253
0.19014981389045715 0.2434542179107666 0.4772448241710663
0.31961286067962646 0.15526244044303894 0.4770384728908539
0.2727755010128021 0.13687360286712646 0.5397054553031921
0.3633919358253479 0.30053776502609253 0.4951241612434387
0.21393409371376038 0.18665234744548798 0.5633276700973511
0.28457319736480713 0.2762995660305023 0.4907911419868469
0.34775206446647644 0.18062029778957367 0.5158304572105408
0.3849017918109894 0.25371912121772766 0.6230595707893372
0.2794439196586609 0.22638849914073944 0.48750239610671997
0.3055932819843292 0.13851764798164368 0.5774943828582764
0.29301920533180237 0.27625682950019836 0.5237019658088684
0.24787431955337524 0.2294864058494568 0.531252384185791
0.3638060986995697 0.28562459349632263 0.46497663855552673
0.21477748453617096 0.2495519518852234 0.6190183758735657
0.3448133170604706 0.24963782727718353 0.4733216166496277
0.28090760111808777 0.155961811542511 0.5537821650505066
0.21912053227424622 0.16018186509609222 0.48670560121536255
0.3422435224056244 0.2095962017774582 0.46272188425064087
0.3095000982284546 0.2630314826965332 0.618986964225769
0.22946478426456451 0.1269317865371704 0.4656335115432739
0.22031624615192413 0.1872989684343338 0.4982813596725464
0.23343181610107422 0.1502171754837036 0.6203514337539673
0.3834382891654968 0.192130908370018 0.6153994202613831
0.24084560573101044 0.1342802196741104 0.5807770490646362
0.25773805379867554 0.17633381485939026 0.4708518087863922
0.21918216347694397 0.13506491482257843 0.6146702170372009
0.3805530369281769 0.1366305649280548 0.46074774861335754
0.32179170846939087 0.2906586527824402 0.6173161268234253
0.19014981389045715 0.2434542179107666 0.4772448241710663
0.350900262594223 0.19438262283802032 0.49070024490356445
0.3509003520011902 0.19438262283802032 0.490700364112854
0.3633919358253479 0.30053776502609253 0.4951241612434387
0.21393409371376038 0.18665234744548798 0.5633276700973511
0.28457319736480713 0.2762995660305023 0.4907911419868469
0.2029692381620407 0.23547054827213287 0.572055995464325
0.2993185520172119 0.3239292800426483 0.5911765098571777
0.3849017918109894 0.25371912121772766 0.6230595707893372
0.26076242327690125 0.12186230719089508 0.572913408279419
0.3055932819843292 0.13851764798164368 0.5774943828582764
0.24787431955337524 0.2294864058494568 0.531252384185791
0.36936670541763306 0.20023156702518463 0.48029041290283203
0.2694782614707947 0.1948070228099823 0.4727419912815094
0.36061811447143555 0.2219739705324173 0.45593345165252686
0.2352927029132843 0.3115285336971283 0.4901787042617798
0.3277930021286011 0.31448617577552795 0.481073260307312
0.3122216463088989 0.306400865316391 0.5276784896850586
0.27510979771614075 0.28600892424583435 0.5448655486106873
0.29816657304763794 0.25331130623817444 0.5691060423851013
0.19597627222537994 0.22295430302619934 0.5330987572669983
0.19044698774814606 0.2363254576921463 0.46571028232574463
0.2761525809764862 0.251321017742157 0.6029126048088074
0.2618929445743561 0.3138647675514221 0.5691707730293274
0.36845526099205017 0.21844887733459473 0.45602312684059143
0.19907957315444946 0.2923792600631714 0.4522015452384949
0.2260996252298355 0.13002470135688782 0.49164509773254395
0.21119116246700287 0.21431033313274384 0.5131262540817261
0.37499621510505676 0.2072666436433792 0.506986677646637
0.3272179663181305 0.21932943165302277 0.5091090798377991
0.3856698274612427 0.1582360714673996 0.5643037557601929
0.32102781534194946 0.2654787600040436 0.6167377829551697
0.22926364839076996 0.20595942437648773 0.5409929156303406
0.19923993945121765 0.20706072449684143 0.49100592732429504
0.30491480231285095 0.13128873705863953 0.5724413990974426
0.34244969487190247 0.15896309912204742 0.5369930863380432
0.24115097522735596 0.1564742624759674 0.6093007922172546
0.33880504965782166 0.1562565267086029 0.45935994386672974
0.2970717251300812 0.1985454559326172 0.581833004951477
0.3086484372615814 0.3147258460521698 0.5396720170974731
0.3830188810825348 0.12691228091716766 0.48865318298339844
0.27040863037109375 0.1488812416791916 0.5508342981338501
0.2404741644859314 0.1571781188249588 0.5102855563163757
0.30064138770103455 0.15343239903450012 0.6249175667762756
0.3403153121471405 0.2797606885433197 0.6076346039772034
0.23145097494125366 0.17864249646663666 0.5565246939659119
0.21396906673908234 0.3139036297798157 0.5504744648933411
0.24459773302078247 0.15128009021282196 0.6151480078697205
0.21477748453617096 0.2495519518852234 0.6190183758735657
0.2058888077735901 0.13718070089817047 0.5292665362358093
0.2521730363368988 0.2151501327753067 0.4582133889198303
0.25986820459365845 0.12741145491600037 0.5218400955200195
0.18327461183071136 0.2992018163204193 0.43534210324287415
0.2589070796966553 0.22322975099086761 0.4635510742664337
