ply
format ascii 1.0
element vertex 824
property float x
property float y
property float z
end_header
0.34785470366477966 0.3211968243122101 0.4449584186077118
0.272814005613327 0.18771138787269592 0.5057944655418396
0.2195206582546234 0.15891318023204803 0.5148343443870544
0.24026264250278473 0.21825702488422394 0.5602822303771973
0.2681201696395874 0.26998355984687805 0.5576581954956055
0.3587022125720978 0.18172863125801086 0.5160844922065735
0.26209962368011475 0.2364463359117508 0.6291320323944092
0.31047120690345764 0.3174360394477844 0.6143428087234497
0.1651947796344757 0.2922818064689636 0.5428332090377808
0.18719826638698578 0.23596128821372986 0.49373582005500793
0.2814895510673523 0.28388431668281555 0.446673184633255
0.194938063621521 0.13344337046146393 0.4720185399055481
0.33837220072746277 0.2039281278848648 0.4457738697528839
0.3775394856929779 0.15176518261432648 0.5506594181060791
0.21437199413776398 0.2960822880268097 0.4796260595321655
0.318619966506958 0.15795360505580902 0.4749342203140259
0.3271450996398926 0.19359028339385986 0.5255677700042725
0.3791687786579132 0.19233907759189606 0.5467846989631653
0.34987911581993103 0.16234272718429565 0.47521308064460754
0.19700399041175842 0.3152385652065277 0.6308050155639648
0.21825045347213745 0.31716838479042053 0.4460240602493286
0.2654557228088379 0.310185968875885 0.46605774760246277
0.3664196729660034 0.14810630679130554 0.5510066151618958
0.2873750627040863 0.19572129845619202 0.6103642582893372
0.2681078314781189 0.28954771161079407 0.6264085173606873
0.34835806488990784 0.2607074975967407 0.5604426860809326
0.36511966586112976 0.26224982738494873 0.476606547832489
0.3371051549911499 0.25014638900756836 0.5368303656578064
0.31309494376182556 0.18418650329113007 0.5460121631622314
0.23264135420322418 0.19869107007980347 0.5357416868209839
0.30926597118377686 0.14518295228481293 0.4451387822628021
0.3474760353565216 0.31822577118873596 0.518837571144104
0.2915789783000946 0.2439509481191635 0.492877721786499
0.21803875267505646 0.22633612155914307 0.517535924911499
0.36766213178634644 0.3153538703918457 0.597520649433136
0.2897719442844391 0.2646147906780243 0.5818990468978882
0.2681201696395874 0.26998355984687805 0.5576581954956055
0.2311507910490036 0.30212125182151794 0.566508948802948
0.30572736263275146 0.14696769416332245 0.5828315615653992
0.22252292931079865 0.26159611344337463 0.46551457047462463
0.2478020340204239 0.23890183866024017 0.6181221604347229
0.2326093465089798 0.27078279852867126 0.43463000655174255
0.3587022125720978 0.18172863125801086 0.5160844922065735
0.26209962368011475 0.2364463359117508 0.6291320323944092
0.31047120690345764 0.3174360394477844 0.6143428087234497
0.1651947796344757 0.2922818064689636 0.5428332090377808
0.18719826638698578 0.23596128821372986 0.49373582005500793
0.2814895510673523 0.28388431668281555 0.446673184633255
0.194938063621521 0.13344337046146393 0.4720185399055481
0.33837220072746277 0.2039281278848648 0.4457738697528839
0.3817885220050812 0.1486528366804123 0.5542677044868469
0.28143423795700073 0.1631903052330017 0.43515706062316895
0.21227984130382538 0.1413789987564087 0.49674004316329956
0.26545432209968567 0.17193830013275146 0.48676615953445435
0.31789717078208923 0.23751375079154968 0.49869421124458313
0.28304609656333923 0.16154462099075317 0.43982550501823425
0.1810811311006546 0.21092239022254944 0.5514492988586426
0.3334627151489258 0.17588773369789124 0.5612373352050781
0.34956660866737366 0.1411205679178238 0.47249919176101685
0.254465252161026 0.1495826691389084 0.5071730613708496
0.30126991868019104 0.30666613578796387 0.44936007261276245
0.1817413717508316 0.21501392126083374 0.6068241000175476
0.3411411643028259 0.18365928530693054 0.4929281771183014
0.29610151052474976 0.3141254484653473 0.5824382901191711
0.19431452453136444 0.283179372549057 0.4958849847316742
0.34784531593322754 0.3368735909461975 0.5792067646980286
0.20402580499649048 0.14487634599208832 0.5811394453048706
0.18748341500759125 0.19977664947509766 0.6348643898963928
0.22188596427440643 0.2137424796819687 0.6095468401908875
0.2311507910490036 0.30212125182151794 0.566508948802948
0.30572736263275146 0.14696769416332245 0.5828315615653992
0.21113574504852295 0.1289617270231247 0.48362573981285095
0.2299039512872696 0.182313933968544 0.6140987277030945
0.3490988612174988 0.2724246382713318 0.5067673325538635
0.22266680002212524 0.1504913568496704 0.6266281604766846
0.2573137879371643 0.2850111722946167 0.6270519495010376
0.2310754954814911 0.1752069741487503 0.4411490559577942
0.36979198455810547 0.27135711908340454 0.6033276915550232
0.2039179652929306 0.22388103604316711 0.5063884854316711
0.3402920663356781 0.18361049890518188 0.49656230211257935
0.3129918575286865 0.166730597615242 0.4987979531288147
0.30785444378852844 0.20681625604629517 0.6194050312042236
0.21226131916046143 0.2640396058559418 0.6033341884613037
0.3348746597766876 0.14168353378772736 0.46484702825546265
0.3325745165348053 0.33401039242744446 0.5812429785728455
0.35858604311943054 0.16811908781528473 0.5883401036262512
0.23815461993217468 0.28609681129455566 0.5465071797370911
0.34339696168899536 0.3330243229866028 0.49513524770736694
0.34948182106018066 0.24566711485385895 0.5596534609794617
0.24076704680919647 0.21917618811130524 0.5851663947105408
0.28967177867889404 0.1584460437297821 0.5846269130706787
0.2605300545692444 0.17692171037197113 0.45229050517082214
0.22608941793441772 0.32091018557548523 0.6109872460365295
0.22506684064865112 0.2481781244277954 0.570928156375885
0.18821638822555542 0.29302385449409485 0.4702375531196594
0.32507070899009705 0.15105852484703064 0.4692305028438568
0.35019832849502563 0.29645249247550964 0.5114492177963257
0.2659390866756439 0.18824502825737 0.5550441741943359
0.22760652005672455 0.30076298117637634 0.4564037621021271
0.23148055374622345 0.15721459686756134 0.5859984755516052
0.2311507910490036 0.30212125182151794 0.566508948802948
0.2387528419494629 0.2646229565143585 0.4597131013870239
0.2810920178890228 0.18446692824363708 0.5967123508453369
0.23584865033626556 0.28835952281951904 0.6057519316673279
0.3450569212436676 0.28665032982826233 0.5887348651885986
0.23984785377979279 0.199040487408638 0.6028768420219421
0.16186991333961487 0.30693086981773376 0.4918074905872345
0.3420719802379608 0.25418102741241455 0.5414842367172241
0.2119898796081543 0.1861516535282135 0.6158404350280762
0.3493211567401886 0.31448277831077576 0.5789962410926819
0.23059195280075073 0.20938445627689362 0.47929108142852783
0.31499218940734863 0.229583278298378 0.48233965039253235
0.2707958221435547 0.1982581913471222 0.4789389967918396
0.21087053418159485 0.23275978863239288 0.5223422646522522
0.194963276386261 0.13495860993862152 0.46431800723075867
0.2678843140602112 0.31788477301597595 0.5175361037254333
0.20357073843479156 0.3039313852787018 0.6231524348258972
0.29503241181373596 0.3216765224933624 0.5048954486846924
0.22341972589492798 0.14175324141979218 0.6043429970741272
0.2777402102947235 0.1701032817363739 0.6222286224365234
0.16484448313713074 0.2872743308544159 0.46704691648483276
0.3256927728652954 0.25037723779678345 0.6058446168899536
0.2258814573287964 0.19474905729293823 0.49993687868118286
0.23382766544818878 0.27177348732948303 0.5495957136154175
0.32831433415412903 0.2830953896045685 0.5240184664726257
0.1811506748199463 0.29771655797958374 0.5587539076805115
0.2149617224931717 0.15058481693267822 0.6207981705665588
0.30734115839004517 0.32069215178489685 0.5925984382629395
0.2502579092979431 0.25978705286979675 0.493770569562912
0.22684317827224731 0.15888583660125732 0.4937535226345062
0.2955705225467682 0.21055710315704346 0.5609247088432312
0.19372504949569702 0.16130931675434113 0.5997968912124634
0.30576348304748535 0.21944014728069305 0.6208128929138184
0.2814895510673523 0.28388431668281555 0.446673184633255
0.194938063621521 0.13344337046146393 0.4720185399055481
0.33837220072746277 0.2039281278848648 0.4457738697528839
0.3775394856929779 0.15176518261432648 0.5506594181060791
0.3573167026042938 0.18040731549263 0.5567632913589478
0.2039179652929306 0.22388103604316711 0.5063884854316711
0.3402920663356781 0.18361049890518188 0.49656230211257935
0.3129918575286865 0.166730597615242 0.4987979531288147
0.30785444378852844 0.20681625604629517 0.6194050312042236
0.21226131916046143 0.2640396058559418 0.6033341884613037
0.3348746597766876 0.14168353378772736 0.46484702825546265
0.1858776956796646 0.21433526277542114 0.4361240565776825
0.2779240608215332 0.23206818103790283 0.5577461123466492
0.21470272541046143 0.14781706035137177 0.4530787765979767
0.18868312239646912 0.23830488324165344 0.6277773380279541
0.2677593529224396 0.12559446692466736 0.4871981143951416
0.35177457332611084 0.15776613354682922 0.5579554438591003
0.2225261926651001 0.22824914753437042 0.4496444761753082
0.37623974680900574 0.15636038780212402 0.5843683481216431
0.2770346403121948 0.2981639802455902 0.6002869606018066
0.26363328099250793 0.2899366021156311 0.45235803723335266
0.3274798095226288 0.15915116667747498 0.47361716628074646
0.2018900066614151 0.1432875394821167 0.48765483498573303
0.3685951828956604 0.17278671264648438 0.45684459805488586
0.2613752782344818 0.2027871012687683 0.4598774313926697
0.335214763879776 0.2804381549358368 0.5724930763244629
0.32848048210144043 0.16840754449367523 0.5295554399490356
0.25105056166648865 0.19081057608127594 0.47232553362846375
0.26832813024520874 0.21578183770179749 0.5241338610649109
0.24557067453861237 0.283479243516922 0.6255544424057007
0.23047947883605957 0.22578667104244232 0.5709389448165894
0.21779079735279083 0.20330965518951416 0.5563955307006836
0.21113574504852295 0.1289617270231247 0.48362573981285095
0.2299039512872696 0.182313933968544 0.6140987277030945
0.3490988612174988 0.2724246382713318 0.5067673325538635
0.22266680002212524 0.1504913568496704 0.6266281604766846
0.2573137879371643 0.2850111722946167 0.6270519495010376
0.2310754954814911 0.1752069741487503 0.4411490559577942
0.36979198455810547 0.27135711908340454 0.6033276915550232
0.2039179652929306 0.22388103604316711 0.5063884854316711
0.3402920663356781 0.18361049890518188 0.49656230211257935
0.3129918575286865 0.166730597615242 0.4987979531288147
0.20836228132247925 0.315426230430603 0.5506791472434998
0.35730183124542236 0.20254084467887878 0.5141826868057251
0.3213854134082794 0.2532925009727478 0.5628719925880432
0.31546750664711 0.23105745017528534 0.5594044327735901
0.3325052559375763 0.19453345239162445 0.4408990740776062
0.2016354501247406 0.19913910329341888 0.5674551725387573
0.23112620413303375 0.21508893370628357 0.5893954038619995
0.3144473433494568 0.3173123300075531 0.5787916779518127
0.24874934554100037 0.21151605248451233 0.614199697971344
0.35392022132873535 0.30464187264442444 0.5252952575683594
0.3079112768173218 0.2111155390739441 0.5685514807701111
0.1684645116329193 0.24848440289497375 0.4795842170715332
0.3232147991657257 0.32202932238578796 0.5997977256774902
0.35019832849502563 0.29645249247550964 0.5114492177963257
0.2659390866756439 0.18824502825737 0.5550441741943359
0.22760652005672455 0.30076298117637634 0.4564037621021271
0.23148055374622345 0.15721459686756134 0.5859984755516052
0.3430146276950836 0.291457861661911 0.4452182650566101
0.3149273991584778 0.20231978595256805 0.513279378414154
0.2949165999889374 0.23470640182495117 0.5657427906990051
0.19561779499053955 0.3065003454685211 0.6168405413627625
0.23810042440891266 0.31192412972450256 0.49132999777793884
0.27708855271339417 0.26238498091697693 0.5528188347816467
0.3644334673881531 0.1986459493637085 0.6201030611991882
0.3627755045890808 0.15727156400680542 0.43563804030418396
0.3042449653148651 0.27153757214546204 0.47411102056503296
0.23342661559581757 0.12836164236068726 0.46259981393814087
0.2072020024061203 0.2874963581562042 0.44256189465522766
0.2226824015378952 0.1974821388721466 0.5791294574737549
0.22469785809516907 0.1892205774784088 0.6134718656539917
0.29437360167503357 0.3094451427459717 0.47501787543296814
0.2991308867931366 0.19025114178657532 0.6032863855361938
0.3453441858291626 0.2501826584339142 0.5280811190605164
0.2836903929710388 0.19068923592567444 0.5793454051017761
0.2525688409805298 0.2875874936580658 0.5714107751846313
0.20790532231330872 0.21534426510334015 0.5598102807998657
0.23281916975975037 0.14558543264865875 0.4638206958770752
0.22138221561908722 0.13107796013355255 0.5028917789459229
0.32058265805244446 0.2605411112308502 0.5474178791046143
0.3172769546508789 0.3120863437652588 0.6080230474472046
0.2348034679889679 0.18386442959308624 0.4454258382320404
0.22931797802448273 0.20838381350040436 0.5341501235961914
0.24301357567310333 0.28732427954673767 0.512986421585083
0.34570467472076416 0.2580968141555786 0.6264888644218445
0.26137781143188477 0.23308904469013214 0.6078429818153381
0.3518643081188202 0.30863112211227417 0.4699375331401825
0.28287196159362793 0.13572798669338226 0.526851236820221
0.34047961235046387 0.13243579864501953 0.4390108287334442
0.20968718826770782 0.2219974398612976 0.5871663093566895
0.23634839057922363 0.2732650339603424 0.46678751707077026
0.28501516580581665 0.28668832778930664 0.5317829251289368
0.2622028887271881 0.1682010442018509 0.467085599899292
0.3211020231246948 0.23886613547801971 0.5419901609420776
0.2646620273590088 0.16116675734519958 0.4625526964664459
0.17515861988067627 0.274684876203537 0.6102339029312134
0.370164155960083 0.1633179485797882 0.594292402267456
0.32551249861717224 0.22138643264770508 0.6069658994674683
0.36203286051750183 0.25806429982185364 0.5605597496032715
0.2866191267967224 0.25763535499572754 0.4867018163204193
0.32388967275619507 0.2687341570854187 0.5696046948432922
0.22066037356853485 0.25300905108451843 0.5184025764465332
0.31287702918052673 0.2166905701160431 0.4845421314239502
0.24148240685462952 0.16851939260959625 0.43659645318984985
0.29766955971717834 0.24397245049476624 0.6235225200653076
0.27045708894729614 0.20300401747226715 0.5217670202255249
0.24974331259727478 0.27878156304359436 0.5645644664764404
0.288210928440094 0.1946171075105667 0.611749529838562
0.264504998922348 0.198183074593544 0.5031465291976929
0.16483481228351593 0.28893283009529114 0.4434676170349121
0.3624922037124634 0.3024960458278656 0.6227635145187378
0.32772132754325867 0.21536435186862946 0.4697040319442749
0.36449286341667175 0.1748993843793869 0.550629734992981
0.3764573633670807 0.19794127345085144 0.5413038730621338
0.27306368947029114 0.1277356892824173 0.5260021686553955
0.3681204915046692 0.25572943687438965 0.6087213754653931
0.18892596662044525 0.21060669422149658 0.5639517307281494
0.29716649651527405 0.3228609561920166 0.5097392797470093
0.1783381849527359 0.24760082364082336 0.47997981309890747
0.2951752245426178 0.15421465039253235 0.44480592012405396
0.3545433282852173 0.22449877858161926 0.5022658705711365
0.21279513835906982 0.3024788498878479 0.489019513130188
0.22427646815776825 0.30429136753082275 0.5158913135528564
0.20192672312259674 0.28784891963005066 0.4676777422428131
0.3108600974082947 0.21166887879371643 0.4987328350543976
0.30783024430274963 0.28752249479293823 0.6007105708122253
0.35189712047576904 0.20879100263118744 0.5974608063697815
0.3347649574279785 0.22247770428657532 0.6111133694648743
0.24936451017856598 0.3079656958580017 0.5821519494056702
0.3598909080028534 0.33344000577926636 0.6179586052894592
0.24215638637542725 0.30056050419807434 0.4591439962387085
0.21160036325454712 0.23734742403030396 0.5951308608055115
0.24478542804718018 0.25207778811454773 0.5807567238807678
0.24037578701972961 0.19296693801879883 0.4599861204624176
0.23397845029830933 0.18370124697685242 0.4494473338127136
0.36138468980789185 0.2687819302082062 0.5669898390769958
0.3146742582321167 0.13348914682865143 0.4528072774410248
0.22184695303440094 0.30633729696273804 0.4988166093826294
0.23444825410842896 0.12832778692245483 0.4439772665500641
0.1860724240541458 0.17310650646686554 0.4455168843269348
0.2886919379234314 0.1657232642173767 0.581881046295166
0.34319302439689636 0.29025596380233765 0.552546501159668
0.3024190366268158 0.1693132519721985 0.5411363840103149
0.1732252687215805 0.24012921750545502 0.5278732180595398
0.2566731572151184 0.1332945078611374 0.4482755661010742
0.16483619809150696 0.28006935119628906 0.4967525005340576
0.31868046522140503 0.23441801965236664 0.43688324093818665
0.34016451239585876 0.1888171285390854 0.554180383682251
0.3729289174079895 0.15116696059703827 0.5400389432907104
0.28336891531944275 0.3121568262577057 0.4329240024089813
0.2532693147659302 0.21246854960918427 0.6270789504051208
0.3149978816509247 0.20956918597221375 0.49633365869522095
0.3029026687145233 0.30491533875465393 0.5980491042137146
0.2932579517364502 0.22955067455768585 0.5557237267494202
0.3327108323574066 0.33120137453079224 0.5016461610794067
0.20007503032684326 0.1506768763065338 0.5287134051322937
0.22301247715950012 0.1782405823469162 0.6300151348114014
0.2685198485851288 0.2660239636898041 0.5770981907844543
0.2821666896343231 0.18862126767635345 0.48940926790237427
0.18505920469760895 0.18388190865516663 0.6059411764144897
0.3510771095752716 0.27996787428855896 0.48857399821281433
0.3711029589176178 0.22712823748588562 0.6126453876495361
0.24760396778583527 0.2762777507305145 0.5065399408340454
0.2533029317855835 0.29011401534080505 0.49891388416290283
0.38116854429244995 0.2068476527929306 0.6135579943656921
0.3419056236743927 0.3229442834854126 0.447783499956131
0.19200022518634796 0.155721515417099 0.6279403567314148
0.3184325397014618 0.2519957721233368 0.5158714652061462
0.38022303581237793 0.16021698713302612 0.5225921869277954
0.31098508834838867 0.18942594528198242 0.45407262444496155
0.29062706232070923 0.16086573898792267 0.6215394735336304
0.21742764115333557 0.31644877791404724 0.47867459058761597
0.36796385049819946 0.24707576632499695 0.5879805684089661
0.18883949518203735 0.31716084480285645 0.5132140517234802
0.30440691113471985 0.25228196382522583 0.43531760573387146
0.267123281955719 0.13643145561218262 0.4670368731021881
0.31420716643333435 0.20697619020938873 0.5608087778091431
0.28429847955703735 0.31740984320640564 0.4955850839614868
0.2634087800979614 0.24574828147888184 0.5068903565406799
0.22537550330162048 0.21547077596187592 0.4627537727355957
0.2658108174800873 0.2857886552810669 0.5628261566162109
0.35670751333236694 0.33648085594177246 0.435564786195755
0.3456052541732788 0.18305926024913788 0.5018150806427002
0.2854937016963959 0.2473098635673523 0.43371641635894775
0.19052688777446747 0.2617845833301544 0.5669451951980591
0.3884548544883728 0.15749827027320862 0.5951554179191589
0.17423924803733826 0.24056701362133026 0.5030961632728577
0.22000257670879364 0.13059557974338531 0.4953259825706482
0.31597667932510376 0.2638357877731323 0.4910200536251068
0.23414203524589539 0.2635844349861145 0.4780648648738861
0.28655123710632324 0.280652791261673 0.5915376543998718
0.32890498638153076 0.19895069301128387 0.4418191909790039
0.287685364484787 0.22298280894756317 0.5086082816123962
0.2813919484615326 0.22995519638061523 0.5197038054466248
0.2123429924249649 0.17276190221309662 0.6224380135536194
0.24961380660533905 0.16055431962013245 0.608559787273407
0.2059555947780609 0.30456557869911194 0.47527211904525757
0.3692875802516937 0.1854119449853897 0.5340017676353455
0.1998310685157776 0.29714855551719666 0.43705201148986816
0.268979549407959 0.2190384417772293 0.438996285200119
0.3685026466846466 0.2558189928531647 0.48429036140441895
0.25211670994758606 0.20664294064044952 0.6211686134338379
0.2573801577091217 0.2933681309223175 0.44340530037879944
0.30420511960983276 0.22068287432193756 0.5969601273536682
0.22724537551403046 0.21071408689022064 0.6107416749000549
0.23256412148475647 0.20633994042873383 0.5451582074165344
0.19483767449855804 0.23850080370903015 0.5629389882087708
0.30059614777565 0.1602478325366974 0.44529229402542114
0.2421623319387436 0.21589508652687073 0.5661236047744751
0.3459482491016388 0.18211451172828674 0.4328221082687378
0.25375351309776306 0.2975618541240692 0.5745514631271362
0.33727672696113586 0.1867668479681015 0.4741007685661316
0.21039080619812012 0.2539450228214264 0.5945960879325867
0.26300248503685 0.2138751745223999 0.48980027437210083
0.19663536548614502 0.17217327654361725 0.5281304121017456
0.3496544361114502 0.1720360368490219 0.4935395121574402
0.19611608982086182 0.17623136937618256 0.45811498165130615
0.18824763596057892 0.2978152632713318 0.5357945561408997
0.23422221839427948 0.3064231872558594 0.5305538773536682
0.1812399923801422 0.2484419047832489 0.6203253865242004
0.19600000977516174 0.1288604885339737 0.4397290349006653
0.2297782003879547 0.29879510402679443 0.5459485650062561
0.36241671442985535 0.20856572687625885 0.5529307126998901
0.27436280250549316 0.13751761615276337 0.4899715781211853
0.24075208604335785 0.31169524788856506 0.4339504539966583
0.3207397758960724 0.17848359048366547 0.44750380516052246
0.17277687788009644 0.2887510359287262 0.5159243941307068
0.36386385560035706 0.19122102856636047 0.542278528213501
0.22721193730831146 0.16599799692630768 0.6009998321533203
0.3060581088066101 0.20263424515724182 0.5658116936683655
0.3440413475036621 0.17919597029685974 0.5910574197769165
0.2544061839580536 0.2708258628845215 0.4623584747314453
0.21051880717277527 0.28455469012260437 0.5673336982727051
0.19864653050899506 0.27199408411979675 0.4921882450580597
0.19577398896217346 0.15653271973133087 0.6250948905944824
0.3032178282737732 0.3281731903553009 0.4435098171234131
0.2683549225330353 0.14389951527118683 0.5416412353515625
0.30559712648391724 0.17656627297401428 0.6151090264320374
0.2641950249671936 0.21804161369800568 0.5183326601982117
0.1924789547920227 0.1200283095240593 0.5272247195243835
0.2031499296426773 0.24511615931987762 0.5645264387130737
0.2500555217266083 0.1961611658334732 0.5426132082939148
0.2541367709636688 0.1732904464006424 0.4390066862106323
0.19810909032821655 0.1178969293832779 0.4737411439418793
0.21203114092350006 0.2086864560842514 0.6292998790740967
0.334599107503891 0.24672789871692657 0.5922311544418335
0.2080492377281189 0.19680306315422058 0.5245538949966431
0.336698979139328 0.25928452610969543 0.6059547066688538
0.17289486527442932 0.23645804822444916 0.48616164922714233
0.2921852469444275 0.17539112269878387 0.531947672367096
0.2878997325897217 0.200416699051857 0.6059322357177734
0.342972993850708 0.20738880336284637 0.4904510974884033
0.3289646506309509 0.20582352578639984 0.44619104266166687
0.3650690019130707 0.24449461698532104 0.47050708532333374
0.2739126980304718 0.20665602385997772 0.4467887282371521
0.2695927023887634 0.1950756460428238 0.4585023820400238
0.3705354630947113 0.25556808710098267 0.5681915283203125
0.19859358668327332 0.1192292794585228 0.46628251671791077
0.1953360140323639 0.13206514716148376 0.4486531913280487
0.25733867287635803 0.1671481430530548 0.5451535582542419
0.3222382068634033 0.27730342745780945 0.4994840621948242
0.2937496602535248 0.26982447504997253 0.45526939630508423
0.22621850669384003 0.13053178787231445 0.4414435923099518
0.21433235704898834 0.3111579120159149 0.49039819836616516
0.31969794631004333 0.1798531413078308 0.4409700334072113
0.2111462950706482 0.1288546472787857 0.587317705154419
0.17094823718070984 0.292997807264328 0.4591870605945587
0.3355793058872223 0.27803170680999756 0.47312361001968384
0.28313159942626953 0.19210149347782135 0.5400509834289551
0.2537253499031067 0.19864989817142487 0.577405571937561
0.23781079053878784 0.22890879213809967 0.5614339113235474
0.18773476779460907 0.17521439492702484 0.47833487391471863
0.2109004706144333 0.23713473975658417 0.6028543710708618
0.2841339111328125 0.22872322797775269 0.5280956625938416
0.34153327345848083 0.27161645889282227 0.5511953234672546
0.3151749074459076 0.18798992037773132 0.4450004994869232
0.27829602360725403 0.2364220768213272 0.6127426624298096
0.21601031720638275 0.31361085176467896 0.5402648448944092
0.24010802805423737 0.24649673700332642 0.4410892426967621
0.336698979139328 0.25928452610969543 0.6059547066688538
0.17289486527442932 0.23645804822444916 0.48616164922714233
0.2921852469444275 0.17539112269878387 0.531947672367096
0.2878997325897217 0.200416699051857 0.6059322357177734
0.342972993850708 0.20738880336284637 0.4904510974884033
0.3289646506309509 0.20582352578639984 0.44619104266166687
0.3650690019130707 0.24449461698532104 0.47050708532333374
0.3149273991584778 0.20231978595256805 0.513279378414154
0.3624922037124634 0.3024960458278656 0.6227635145187378
0.32772132754325867 0.21536435186862946 0.4697040319442749
0.36449286341667175 0.1748993843793869 0.550629734992981
0.3764573633670807 0.19794127345085144 0.5413038730621338
0.21585072576999664 0.31405994296073914 0.5059970617294312
0.19586166739463806 0.22907386720180511 0.4430754482746124
0.33841171860694885 0.3058439791202545 0.46497437357902527
0.20372909307479858 0.22131678462028503 0.5279704928398132
0.24459390342235565 0.13981260359287262 0.463027685880661
0.37997332215309143 0.16796179115772247 0.6077026724815369
0.19326961040496826 0.26971960067749023 0.4798944592475891
0.18763798475265503 0.2164224535226822 0.44305700063705444
0.20495982468128204 0.2707146108150482 0.43426406383514404
0.2256816327571869 0.2264382243156433 0.584200382232666
0.19626161456108093 0.16844554245471954 0.5785917639732361
0.21203114092350006 0.2086864560842514 0.6292998790740967
0.334599107503891 0.24672789871692657 0.5922311544418335
0.2080492377281189 0.19680306315422058 0.5245538949966431
0.336698979139328 0.25928452610969543 0.6059547066688538
0.17289486527442932 0.23645804822444916 0.48616164922714233
0.2921852469444275 0.17539112269878387 0.531947672367096
0.2878997325897217 0.200416699051857 0.6059322357177734
0.342972993850708 0.20738880336284637 0.4904510974884033
0.3289646506309509 0.20582352578639984 0.44619104266166687
0.3650690019130707 0.24449461698532104 0.47050708532333374
0.34055840969085693 0.2400670349597931 0.6016302704811096
0.3634311556816101 0.28480133414268494 0.585066020488739
0.25834155082702637 0.327886164188385 0.5353743433952332
0.2542809545993805 0.2927177846431732 0.45571640133857727
0.334206759929657 0.17168296873569489 0.6123025417327881
0.33432719111442566 0.13609875738620758 0.43976715207099915
0.2100995033979416 0.15408924221992493 0.5976234078407288
0.268979549407959 0.2190384417772293 0.438996285200119
0.3685026466846466 0.2558189928531647 0.48429036140441895
0.25211670994758606 0.20664294064044952 0.6211686134338379
0.2926630973815918 0.1797296553850174 0.5343563556671143
0.25723546743392944 0.3278568983078003 0.5799747705459595
0.18867987394332886 0.1565617173910141 0.5712112784385681
0.3339213728904724 0.24166716635227203 0.5318974256515503
0.21427610516548157 0.3115752637386322 0.6271078586578369
0.30150941014289856 0.2286839336156845 0.6260256767272949
0.32883647084236145 0.1345134824514389 0.5120377540588379
0.2835639715194702 0.18162359297275543 0.5881125926971436
0.2157580703496933 0.3190653622150421 0.5766696929931641
0.34193435311317444 0.13350674510002136 0.44325852394104004
0.3672688603401184 0.19926249980926514 0.45944270491600037
0.23341427743434906 0.18161797523498535 0.5838904976844788
0.19347329437732697 0.15305471420288086 0.543362557888031
0.1837221086025238 0.16098685562610626 0.46752914786338806
0.16220135986804962 0.3021842837333679 0.4887624979019165
0.23758932948112488 0.2062167227268219 0.504951536655426
0.3342575132846832 0.21557961404323578 0.6269770264625549
0.24268412590026855 0.12341691553592682 0.5197296142578125
0.260731965303421 0.18828056752681732 0.5348674058914185
0.27709299325942993 0.2508428394794464 0.5359766483306885
0.24709177017211914 0.19784915447235107 0.5494693517684937
0.21761776506900787 0.27113333344459534 0.4384327232837677
0.262926310300827 0.30024874210357666 0.48277077078819275
0.2732733190059662 0.21071022748947144 0.48560652136802673
0.3787664771080017 0.15020941197872162 0.5671842098236084
0.22944390773773193 0.1702485829591751 0.6304816603660583
0.3610471785068512 0.2513142228126526 0.5875884890556335
0.21386680006980896 0.1679621934890747 0.5647010207176208
0.287685364484787 0.22298280894756317 0.5086082816123962
0.17814083397388458 0.24899038672447205 0.6260691285133362
0.34401556849479675 0.1472111940383911 0.5776089429855347
0.2887319028377533 0.1716715395450592 0.6071571707725525
0.2449621558189392 0.29209381341934204 0.5286756157875061
0.25677695870399475 0.28125131130218506 0.4909522831439972
0.299591988325119 0.2552873194217682 0.5180846452713013
0.26264500617980957 0.1638578325510025 0.4466128945350647
0.3503493368625641 0.21516408026218414 0.5912795662879944
0.23528794944286346 0.30661511421203613 0.520195722579956
0.23887287080287933 0.31762638688087463 0.4580425024032593
0.35598233342170715 0.1996842324733734 0.5311797261238098
0.3270283639431 0.2507193982601166 0.522558867931366
0.33929792046546936 0.17036554217338562 0.6106839179992676
0.2706688344478607 0.27244284749031067 0.48698556423187256
0.2546123266220093 0.12822537124156952 0.6275783777236938
0.21203114092350006 0.2086864560842514 0.6292998790740967
0.334599107503891 0.24672789871692657 0.5922311544418335
0.2080492377281189 0.19680306315422058 0.5245538949966431
0.336698979139328 0.25928452610969543 0.6059547066688538
0.17289486527442932 0.23645804822444916 0.48616164922714233
0.2921852469444275 0.17539112269878387 0.531947672367096
0.25045743584632874 0.2724194824695587 0.5186164379119873
0.3194677531719208 0.31920552253723145 0.49284714460372925
0.1857345849275589 0.2615048289299011 0.5146268010139465
0.3631574809551239 0.19740931689739227 0.4666784703731537
0.3164389133453369 0.24650464951992035 0.5144597887992859
0.3298821449279785 0.33494025468826294 0.6110394597053528
0.2362169623374939 0.2860795855522156 0.4950729310512543
0.2542091906070709 0.12248901277780533 0.43734729290008545
0.33056408166885376 0.1450730264186859 0.589029848575592
0.2966872751712799 0.250727117061615 0.5254478454589844
0.36143311858177185 0.18424177169799805 0.5995726585388184
0.37454351782798767 0.19289381802082062 0.6295116543769836
0.17420594394207 0.27810341119766235 0.5836676359176636
0.2573801577091217 0.2933681309223175 0.44340530037879944
0.30420511960983276 0.22068287432193756 0.5969601273536682
0.22724537551403046 0.21071408689022064 0.6107416749000549
0.23256412148475647 0.20633994042873383 0.5451582074165344
0.19483767449855804 0.23850080370903015 0.5629389882087708
0.30059614777565 0.1602478325366974 0.44529229402542114
0.2421623319387436 0.21589508652687073 0.5661236047744751
0.2717627286911011 0.14584773778915405 0.5294740796089172
0.3261442184448242 0.21851101517677307 0.4642872214317322
0.340831995010376 0.20599055290222168 0.5836795568466187
0.20511291921138763 0.1341678351163864 0.47307273745536804
0.21712370216846466 0.18245568871498108 0.5498986840248108
0.35691916942596436 0.19874447584152222 0.548587441444397
0.23310644924640656 0.19823750853538513 0.6259176731109619
0.31356915831565857 0.14743219316005707 0.4701211452484131
0.3642972707748413 0.15322621166706085 0.5420864224433899
0.3086073398590088 0.24573059380054474 0.4672602415084839
0.32117411494255066 0.29911351203918457 0.49979639053344727
0.2780728042125702 0.14724290370941162 0.5805862545967102
0.33021432161331177 0.2992338538169861 0.42628684639930725
0.21071834862232208 0.25283876061439514 0.5993481278419495
0.36492276191711426 0.149338498711586 0.6023257970809937
0.19657722115516663 0.1602935791015625 0.5703323483467102
0.35073122382164 0.2962820827960968 0.4677947461605072
0.21703705191612244 0.23899996280670166 0.6105096340179443
0.23862288892269135 0.27718862891197205 0.5986770391464233
0.30172961950302124 0.22311687469482422 0.5634870529174805
0.3065510392189026 0.3068276643753052 0.5897451043128967
0.23835860192775726 0.2940254211425781 0.6286594867706299
0.16483481228351593 0.28893283009529114 0.4434676170349121
0.3404991924762726 0.27430009841918945 0.43495088815689087
0.32547882199287415 0.214667409658432 0.5276155471801758
0.35106414556503296 0.29255473613739014 0.471050888299942
0.29528629779815674 0.27344992756843567 0.4425791800022125
0.3014054000377655 0.26073044538497925 0.49346616864204407
0.34660303592681885 0.22370341420173645 0.4797302782535553
0.3405337631702423 0.3116922080516815 0.6026467084884644
0.37961071729660034 0.15999650955200195 0.47018224000930786
0.29372334480285645 0.1731947660446167 0.5575191974639893
0.3137800693511963 0.33040162920951843 0.4396260678768158
0.3291131258010864 0.2868928015232086 0.6071718335151672
0.3251482844352722 0.30252933502197266 0.44391781091690063
0.31882598996162415 0.2880707085132599 0.5298288464546204
0.2786048650741577 0.19452641904354095 0.45447197556495667
0.283359557390213 0.2148164063692093 0.5825626254081726
0.36020663380622864 0.30460676550865173 0.5328840017318726
0.2943282425403595 0.20154333114624023 0.5027527213096619
0.30252087116241455 0.21537546813488007 0.5706464648246765
0.3326984643936157 0.1483200490474701 0.4564901292324066
0.3567236661911011 0.222446009516716 0.5812435746192932
0.2041013240814209 0.25255194306373596 0.6212877631187439
0.3334770202636719 0.25905272364616394 0.47498807311058044
0.2731868624687195 0.1644170582294464 0.5539461970329285
0.21215438842773438 0.16454996168613434 0.48634594678878784
0.3327583074569702 0.21916256844997406 0.4632713794708252
0.2981022894382477 0.26989850401878357 0.6209111213684082
0.29447445273399353 0.2642267942428589 0.6256723403930664
0.3391267657279968 0.1623188555240631 0.6202274560928345
0.28212523460388184 0.14504945278167725 0.5307318568229675
0.3516177237033844 0.3307573199272156 0.5803409814834595
0.28094401955604553 0.24765044450759888 0.5652908682823181
0.267123281955719 0.13643145561218262 0.4670368731021881
0.23004375398159027 0.2453620433807373 0.6324772834777832
0.20837558805942535 0.28564536571502686 0.613405704498291
0.24379375576972961 0.19462253153324127 0.5297918319702148
0.19598229229450226 0.28498655557632446 0.4706868827342987
0.18890482187271118 0.20624448359012604 0.5939786434173584
0.3047637939453125 0.15998034179210663 0.5939614772796631
0.3401288390159607 0.304745078086853 0.5912890434265137
0.38024744391441345 0.15874819457530975 0.5646668672561646
0.2629537284374237 0.24137644469738007 0.5277586579322815
0.2894512712955475 0.15398016571998596 0.5575693249702454
0.2804080843925476 0.1491546779870987 0.6219119429588318
0.17108502984046936 0.29137128591537476 0.627483606338501
0.25351136922836304 0.20190314948558807 0.4871819317340851
0.296550989151001 0.22975106537342072 0.5869919061660767
0.22608782351016998 0.1852879673242569 0.47635334730148315
0.37250465154647827 0.1495923399925232 0.4752560257911682
0.2836032509803772 0.31863850355148315 0.4414656162261963
0.29675817489624023 0.20023025572299957 0.5453406572341919
0.3568045496940613 0.24719102680683136 0.5899703502655029
0.1960940957069397 0.3135901093482971 0.5169107913970947
0.28142935037612915 0.20885948836803436 0.4930616617202759
0.32317349314689636 0.24506385624408722 0.6138544082641602
0.29339370131492615 0.21174676716327667 0.4607653319835663
0.3843781054019928 0.15930843353271484 0.4949077069759369
0.2568855881690979 0.18096797168254852 0.48544010519981384
0.3297848701477051 0.2655571401119232 0.5878950357437134
0.24382033944129944 0.22078415751457214 0.46028149127960205
0.2955423593521118 0.2737615704536438 0.45820140838623047
0.3114553689956665 0.2432592660188675 0.4370158612728119
0.28166666626930237 0.1312277466058731 0.5383287072181702
0.21806448698043823 0.2629760503768921 0.49903589487075806
0.2870528995990753 0.22393251955509186 0.49669843912124634
0.22301247715950012 0.1782405823469162 0.6300151348114014
0.20404309034347534 0.3028261959552765 0.47243043780326843
0.2913292646408081 0.1735127717256546 0.5631182193756104
0.2862846255302429 0.19295573234558105 0.4765293300151825
0.38253703713417053 0.15096542239189148 0.568012535572052
0.26040133833885193 0.27111726999282837 0.5119020938873291
0.30546119809150696 0.1546611487865448 0.5617793202400208
0.2643119692802429 0.2969171702861786 0.5953300595283508
0.25886213779449463 0.24935907125473022 0.6244027614593506
0.354250431060791 0.32320496439933777 0.5141449570655823
0.3394719064235687 0.3026825785636902 0.6127097010612488
0.3308355212211609 0.2416287511587143 0.504483699798584
0.21928277611732483 0.12413478642702103 0.5947584509849548
0.28579017519950867 0.2987483739852905 0.6106293797492981
0.33527225255966187 0.29404887557029724 0.4261382818222046
0.26209014654159546 0.24896344542503357 0.5462291240692139
0.22991567850112915 0.1335296928882599 0.5742032527923584
0.3657837212085724 0.16291752457618713 0.6016344428062439
0.3598583936691284 0.16806884109973907 0.46855276823043823
0.33287596702575684 0.16873420774936676 0.4917394518852234
0.28474780917167664 0.2505577504634857 0.5385870933532715
0.1845269650220871 0.15952053666114807 0.46063750982284546
0.2741788625717163 0.20055213570594788 0.5031675100326538
0.23707066476345062 0.2289179116487503 0.5057885050773621
0.32665181159973145 0.222837433218956 0.5533546209335327
0.2784859240055084 0.2802833318710327 0.4943283200263977
0.346265971660614 0.24323077499866486 0.4601627588272095
0.20442909002304077 0.142274871468544 0.551990807056427
0.2381848394870758 0.30438393354415894 0.46291685104370117
0.31888526678085327 0.26680266857147217 0.5753350257873535
0.37056663632392883 0.1452401578426361 0.43695247173309326
0.19039851427078247 0.3132181465625763 0.5501776933670044
0.24515026807785034 0.15600991249084473 0.4545741379261017
0.24824629724025726 0.20532989501953125 0.6174002289772034
0.28668269515037537 0.1762205809354782 0.4976416230201721
0.29149922728538513 0.12947675585746765 0.47579920291900635
0.3619050979614258 0.33617398142814636 0.5710711479187012
0.19629375636577606 0.13514702022075653 0.49592819809913635
0.2191048413515091 0.24860790371894836 0.4630890190601349
0.3107917010784149 0.2899363040924072 0.5656639337539673
0.3229653239250183 0.2704889476299286 0.6094714403152466
0.23094870150089264 0.30536526441574097 0.5513999462127686
0.3428453207015991 0.13911032676696777 0.5809396505355835
0.2125367522239685 0.13439077138900757 0.515311062335968
0.19732150435447693 0.278585284948349 0.46488186717033386
0.30066630244255066 0.30302029848098755 0.4288732707500458
0.34520527720451355 0.21005718410015106 0.5217903852462769
0.18149112164974213 0.22942568361759186 0.4416920244693756
0.2885282039642334 0.22849877178668976 0.5666683912277222
0.23595695197582245 0.2572375535964966 0.5838404893875122
0.17847123742103577 0.26525935530662537 0.5916319489479065
0.36812135577201843 0.2996997535228729 0.5701636672019958
0.3273906111717224 0.21367423236370087 0.6207592487335205
0.26626259088516235 0.27057763934135437 0.4719390273094177
0.3448123037815094 0.21792201697826385 0.46117085218429565
0.22667638957500458 0.1602279543876648 0.43879759311676025
0.3299754858016968 0.23355633020401 0.6213875412940979
0.18336351215839386 0.18878766894340515 0.49063369631767273
0.20404052734375 0.27619099617004395 0.4906616508960724
0.24499496817588806 0.1254674643278122 0.5195063352584839
0.3155403733253479 0.2697395384311676 0.5447193384170532
0.35320591926574707 0.3132416903972626 0.5064560174942017
0.20378224551677704 0.1920325607061386 0.45576706528663635
0.35691916942596436 0.19874447584152222 0.548587441444397
0.3573557436466217 0.24196234345436096 0.43274617195129395
0.26514312624931335 0.1882694959640503 0.5718894600868225
0.3535001277923584 0.31893351674079895 0.48708203434944153
0.36492276191711426 0.149338498711586 0.6023257970809937
0.19657722115516663 0.1602935791015625 0.5703323483467102
0.35073122382164 0.2962820827960968 0.4677947461605072
0.21703705191612244 0.23899996280670166 0.6105096340179443
0.23862288892269135 0.27718862891197205 0.5986770391464233
0.30172961950302124 0.22311687469482422 0.5634870529174805
0.3065510392189026 0.3068276643753052 0.5897451043128967
0.23835860192775726 0.2940254211425781 0.6286594867706299
0.27824586629867554 0.23560407757759094 0.547967791557312
0.31339940428733826 0.32339194416999817 0.48438727855682373
0.30214741826057434 0.28441038727760315 0.5859315991401672
0.17042872309684753 0.312581866979599 0.5481953620910645
0.33153513073921204 0.15995477139949799 0.4731091856956482
0.2445431351661682 0.13919603824615479 0.49930304288864136
0.18852105736732483 0.3105016052722931 0.4401981830596924
0.33178189396858215 0.3156418800354004 0.568528413772583
0.20964866876602173 0.2159167379140854 0.6052045822143555
0.22571785748004913 0.2571750283241272 0.487742155790329
0.2283584028482437 0.2972918152809143 0.5713348984718323
0.3306506872177124 0.20451980829238892 0.620233952999115
0.2623220980167389 0.1803147792816162 0.516352117061615
0.2266392856836319 0.1397026926279068 0.5443460941314697
0.2979351580142975 0.22604554891586304 0.5110715627670288
0.23600031435489655 0.21535591781139374 0.6257742643356323
0.3630243241786957 0.2902889847755432 0.4939596652984619
0.28151607513427734 0.2098994255065918 0.46701914072036743
0.24990658462047577 0.2090550810098648 0.5606814026832581
0.24653196334838867 0.26846885681152344 0.5422893762588501
0.3148168623447418 0.3066489100456238 0.4577009677886963
0.2542091906070709 0.12248901277780533 0.43734729290008545
0.33056408166885376 0.1450730264186859 0.589029848575592
0.31547456979751587 0.2755601108074188 0.49680763483047485
0.3019966781139374 0.14634370803833008 0.6117048263549805
0.35748374462127686 0.18492648005485535 0.569593608379364
0.20091457664966583 0.2663436532020569 0.5185052752494812
0.2299737185239792 0.22360141575336456 0.6289065480232239
0.2889203131198883 0.33114656805992126 0.5705234408378601
0.31542783975601196 0.3175257742404938 0.44283342361450195
0.33482825756073 0.3052133023738861 0.4991896450519562
0.329839289188385 0.24635513126850128 0.49291276931762695
0.2632947862148285 0.1774379312992096 0.6229549646377563
0.24003444612026215 0.17340925335884094 0.5608896017074585
0.2054220736026764 0.1436975747346878 0.5529606938362122
0.2261774092912674 0.1229991540312767 0.5033146739006042
0.3459015190601349 0.3286953568458557 0.5006315112113953
0.29389721155166626 0.2520967125892639 0.47569483518600464
0.2961603105068207 0.13528449833393097 0.6292347311973572
0.17847123742103577 0.26525935530662537 0.5916319489479065
0.36812135577201843 0.2996997535228729 0.5701636672019958
0.3273906111717224 0.21367423236370087 0.6207592487335205
0.26626259088516235 0.27057763934135437 0.4719390273094177
0.3448123037815094 0.21792201697826385 0.46117085218429565
0.22667638957500458 0.1602279543876648 0.43879759311676025
0.3299754858016968 0.23355633020401 0.6213875412940979
0.18336351215839386 0.18878766894340515 0.49063369631767273
0.20404052734375 0.27619099617004395 0.4906616508960724
0.24499496817588806 0.1254674643278122 0.5195063352584839
0.3155403733253479 0.2697395384311676 0.5447193384170532
0.35320591926574707 0.3132416903972626 0.5064560174942017
0.20378224551677704 0.1920325607061386 0.45576706528663635
0.33525246381759644 0.2890996038913727 0.47700467705726624
0.36051657795906067 0.1897759735584259 0.5951569080352783
0.17384624481201172 0.2863111197948456 0.632530152797699
0.20725078880786896 0.15025684237480164 0.6113665699958801
0.24985384941101074 0.29365113377571106 0.520915150642395
0.351632297039032 0.2872183620929718 0.48217007517814636
0.26532918214797974 0.1402171105146408 0.5030819773674011
0.19004568457603455 0.30278846621513367 0.4643918573856354
0.2690953016281128 0.20767268538475037 0.5722438097000122
0.2571633458137512 0.2929883897304535 0.6135456562042236
0.254121869802475 0.18708409368991852 0.4985954165458679
0.27132418751716614 0.28602200746536255 0.6158221960067749
0.23480424284934998 0.18302129209041595 0.5426568984985352
0.3497321903705597 0.2502141296863556 0.5407242178916931
0.19841104745864868 0.29857638478279114 0.4795742332935333
0.17847123742103577 0.26525935530662537 0.5916319489479065
0.36812135577201843 0.2996997535228729 0.5701636672019958
0.3273906111717224 0.21367423236370087 0.6207592487335205
0.26626259088516235 0.27057763934135437 0.4719390273094177
0.3448123037815094 0.21792201697826385 0.46117085218429565
0.22667638957500458 0.1602279543876648 0.43879759311676025
0.3299754858016968 0.23355633020401 0.6213875412940979
0.18336351215839386 0.18878766894340515 0.49063369631767273
0.20404052734375 0.27619099617004395 0.4906616508960724
0.24499496817588806 0.1254674643278122 0.5195063352584839
0.3155403733253479 0.2697395384311676 0.5447193384170532
0.35320591926574707 0.3132416903972626 0.5064560174942017
0.20378224551677704 0.1920325607061386 0.45576706528663635
0.2809070944786072 0.2135927677154541 0.46684274077415466
0.3609730303287506 0.24173705279827118 0.5226877927780151
0.2221418172121048 0.14962899684906006 0.6038455963134766
0.35482898354530334 0.31211593747138977 0.48106586933135986
0.16410957276821136 0.29874294996261597 0.48359352350234985
0.3568045496940613 0.24719102680683136 0.5899703502655029
0.1960940957069397 0.3135901093482971 0.5169107913970947
0.28142935037612915 0.20885948836803436 0.4930616617202759
0.32317349314689636 0.24506385624408722 0.6138544082641602
0.29339370131492615 0.21174676716327667 0.4607653319835663
0.3843781054019928 0.15930843353271484 0.4949077069759369
0.2568855881690979 0.18096797168254852 0.48544010519981384
0.25862911343574524 0.3096853494644165 0.568783164024353
0.20547591149806976 0.12051814794540405 0.5019016265869141
0.28481176495552063 0.16342902183532715 0.5564102530479431
0.34969231486320496 0.19056394696235657 0.5532834529876709
0.3649471700191498 0.14347787201404572 0.5519720911979675
0.2997446656227112 0.22807222604751587 0.4735686779022217
0.3351005017757416 0.30186498165130615 0.46553513407707214
0.36078938841819763 0.2991032600402832 0.4511830806732178
0.23795002698898315 0.28396421670913696 0.46902403235435486
0.2810128629207611 0.23708020150661469 0.5754299163818359
0.24924592673778534 0.25534379482269287 0.45114001631736755
0.19511708617210388 0.19069939851760864 0.5899341106414795
0.1665049046278 0.3063812553882599 0.5619956851005554
0.3727922737598419 0.14760178327560425 0.461488276720047
0.30912265181541443 0.29774942994117737 0.6194432973861694
0.17854513227939606 0.24663208425045013 0.4791383147239685
0.34197258949279785 0.2039925754070282 0.491021066904068
0.21220731735229492 0.19729925692081451 0.588399350643158
0.2970743477344513 0.2140568494796753 0.5190569758415222
0.2555249333381653 0.160749614238739 0.4903896450996399
0.2700596749782562 0.2624247670173645 0.43777012825012207
0.28493738174438477 0.33044227957725525 0.5938408970832825
0.22523851692676544 0.24066239595413208 0.5270571112632751
0.2687705159187317 0.23412904143333435 0.48861169815063477
0.19657722115516663 0.1602935791015625 0.5703323483467102
0.3567236661911011 0.222446009516716 0.5812435746192932
0.2041013240814209 0.25255194306373596 0.6212877631187439
0.3334770202636719 0.25905272364616394 0.47498807311058044
0.2731868624687195 0.1644170582294464 0.5539461970329285
0.21215438842773438 0.16454996168613434 0.48634594678878784
0.3327583074569702 0.21916256844997406 0.4632713794708252
0.2981022894382477 0.26989850401878357 0.6209111213684082
0.29447445273399353 0.2642267942428589 0.6256723403930664
0.3516177237033844 0.3307573199272156 0.5803409814834595
0.21192628145217896 0.19171084463596344 0.4984830617904663
0.2271159291267395 0.15457385778427124 0.6207393407821655
0.3754886984825134 0.2018188089132309 0.6165702939033508
0.26649242639541626 0.24780191481113434 0.5573503375053406
0.31679922342300415 0.3159528076648712 0.48174333572387695
0.3492937684059143 0.3368604779243469 0.5437582731246948
0.3610314130783081 0.19293057918548584 0.5071350336074829
0.19027404487133026 0.13139691948890686 0.5009509921073914
0.3727922737598419 0.14760178327560425 0.461488276720047
0.30912265181541443 0.29774942994117737 0.6194432973861694
