ply
format ascii 1.0
element vertex 826
property float x
property float y
property float z
end_header
0.3979342579841614 0.11365103721618652 0.5551350116729736
0.5280469655990601 0.11262720078229904 0.5991698503494263
0.4267996847629547 0.2692825496196747 0.531599760055542
0.5083175897598267 0.20121552050113678 0.5825995206832886
0.4768918752670288 0.28823891282081604 0.49155786633491516
0.3542024791240692 0.14625658094882965 0.4243193566799164
0.5008416771888733 0.15168409049510956 0.5268791317939758
0.3905627429485321 0.1186097264289856 0.42574042081832886
0.4875888526439667 0.24596954882144928 0.4546957015991211
0.4953354299068451 0.29015055298805237 0.4374089539051056
0.49919459223747253 0.12262602150440216 0.5817272067070007
0.3569171726703644 0.29021385312080383 0.5251192450523376
0.4148220419883728 0.16117388010025024 0.44848787784576416
0.38334304094314575 0.1095438227057457 0.4773285686969757
0.35378241539001465 0.12520655989646912 0.4618586003780365
0.39467114210128784 0.22857025265693665 0.4855145812034607
0.4177113473415375 0.13843560218811035 0.4548686742782593
0.44498831033706665 0.11263457685709 0.5887660384178162
0.4323382079601288 0.26109838485717773 0.5317452549934387
0.44766637682914734 0.2876741588115692 0.513032853603363
0.4323032796382904 0.26994818449020386 0.583756148815155
0.5012030601501465 0.1441175937652588 0.5352586507797241
0.4354727268218994 0.12729212641716003 0.5281834602355957
0.48822999000549316 0.2214571237564087 0.4488059878349304
0.35740625858306885 0.2750973403453827 0.5633623600006104
0.35900723934173584 0.2608262300491333 0.5330005884170532
0.35648393630981445 0.2647975981235504 0.5665199160575867
0.410724401473999 0.1986190229654312 0.5302073359489441
0.5144680142402649 0.23946471512317657 0.4096599221229553
0.4287111461162567 0.24054957926273346 0.46181008219718933
0.4195922911167145 0.26804491877555847 0.5604892373085022
0.4296106994152069 0.18776443600654602 0.5982527732849121
0.5149103403091431 0.11004170030355453 0.4971279203891754
0.3851608633995056 0.1590576469898224 0.49780014157295227
0.5280088186264038 0.17429272830486298 0.561216413974762
0.4807593822479248 0.23191556334495544 0.586580216884613
0.443652480840683 0.2611062824726105 0.5098546147346497
0.3550480902194977 0.2294556349515915 0.5334734916687012
0.38426560163497925 0.25675487518310547 0.4465850591659546
0.5294259190559387 0.12824644148349762 0.4294310510158539
0.412811279296875 0.14946821331977844 0.48899778723716736
0.43280112743377686 0.2215050905942917 0.4562961757183075
0.48766741156578064 0.1122259795665741 0.47581350803375244
0.4807974696159363 0.26474860310554504 0.5041429400444031
0.5033394694328308 0.2712225914001465 0.4252207279205322
0.38336464762687683 0.18096262216567993 0.4372865855693817
0.5271130800247192 0.26014918088912964 0.4178658127784729
0.5482688546180725 0.24258887767791748 0.5128913521766663
0.35661202669143677 0.24381045997142792 0.44756656885147095
0.4550645053386688 0.12899474799633026 0.4691304862499237
0.380140095949173 0.1922638863325119 0.48266512155532837
0.3769952654838562 0.12590381503105164 0.593383252620697
0.3620959222316742 0.2036733329296112 0.5690749883651733
0.5501540303230286 0.1570555865764618 0.46274304389953613
0.4370070993900299 0.24668769538402557 0.45763736963272095
0.4821917414665222 0.14396925270557404 0.4416202902793884
0.44819748401641846 0.14531570672988892 0.5354422926902771
0.358286589384079 0.23068591952323914 0.4893876910209656
0.5280088186264038 0.17429272830486298 0.561216413974762
0.48463186621665955 0.23577940464019775 0.4455176293849945
0.3979342579841614 0.11365103721618652 0.5551350116729736
0.5280469655990601 0.11262720078229904 0.5991698503494263
0.4267996847629547 0.2692825496196747 0.531599760055542
0.5083175897598267 0.20121552050113678 0.5825995206832886
0.4768918752670288 0.28823891282081604 0.49155786633491516
0.3542024791240692 0.14625658094882965 0.4243193566799164
0.5008416771888733 0.15168409049510956 0.5268791317939758
0.5245561003684998 0.22309793531894684 0.41573411226272583
0.4828876256942749 0.1585768610239029 0.4871804416179657
0.5427447557449341 0.245428666472435 0.4247097969055176
0.36391404271125793 0.2564114034175873 0.572516143321991
0.4334242045879364 0.22509272396564484 0.5017771124839783
0.5178847908973694 0.16265349090099335 0.46167176961898804
0.462412029504776 0.2139011025428772 0.5364450216293335
0.4932039976119995 0.1365666389465332 0.518707811832428
0.39462292194366455 0.2592860460281372 0.515552818775177
0.5257883667945862 0.15352953970432281 0.47015202045440674
0.48010969161987305 0.1280953288078308 0.44247767329216003
0.4400857985019684 0.13695865869522095 0.5194026827812195
0.45565158128738403 0.22356531023979187 0.48273760080337524
0.4465610682964325 0.23075447976589203 0.46172502636909485
0.4036509096622467 0.2701765298843384 0.5895442366600037
0.3769952654838562 0.12590381503105164 0.593383252620697
0.3620959222316742 0.2036733329296112 0.5690749883651733
0.3924882709980011 0.11558127403259277 0.4114667773246765
0.4370070993900299 0.24668769538402557 0.45763736963272095
0.4821917414665222 0.14396925270557404 0.4416202902793884
0.5285553336143494 0.2219645082950592 0.47915104031562805
0.5280088186264038 0.17429272830486298 0.561216413974762
0.48463186621665955 0.23577940464019775 0.4455176293849945
0.4798308312892914 0.20808330178260803 0.5575597882270813
0.5482065677642822 0.11054101586341858 0.5772082805633545
0.5219799876213074 0.18927998840808868 0.4669572710990906
0.5145474672317505 0.14073245227336884 0.4162190854549408
0.546649694442749 0.14728917181491852 0.5626426339149475
0.49874141812324524 0.1351149082183838 0.42316147685050964
0.5123863816261292 0.18577496707439423 0.5304845571517944
0.5071287751197815 0.16456304490566254 0.43270793557167053
0.3862117528915405 0.20922446250915527 0.5806311368942261
0.49414363503456116 0.26489248871803284 0.5888825058937073
0.5146440267562866 0.1168706864118576 0.5908860564231873
0.48038047552108765 0.18985599279403687 0.48910650610923767
0.4267462193965912 0.22486495971679688 0.4668327271938324
0.4637114107608795 0.10919992625713348 0.5460439324378967
0.44324547052383423 0.2872815728187561 0.4746464192867279
0.3978242576122284 0.25844767689704895 0.4252033233642578
0.4067450165748596 0.15648458898067474 0.42086246609687805
0.5211186408996582 0.17018167674541473 0.4776966869831085
0.5035102367401123 0.2010629028081894 0.45630311965942383
0.4413934051990509 0.21229389309883118 0.4056187868118286
0.49249204993247986 0.11339793354272842 0.4207475185394287
0.4763787090778351 0.2141064554452896 0.4053793251514435
0.44400086998939514 0.11121591925621033 0.5201921463012695
0.4621678590774536 0.25121545791625977 0.593270480632782
0.48975807428359985 0.20568686723709106 0.4061937630176544
0.5020849704742432 0.2909340262413025 0.4469052255153656
0.5431469082832336 0.132235586643219 0.408019483089447
0.5337134003639221 0.19219185411930084 0.49365779757499695
0.45824185013771057 0.21635153889656067 0.5239484906196594
0.4834231734275818 0.185010626912117 0.46424371004104614
0.5381351709365845 0.11203555017709732 0.4927986264228821
0.47996267676353455 0.22819887101650238 0.5202829241752625
0.535296618938446 0.1970444768667221 0.4568950831890106
0.43348199129104614 0.12195324897766113 0.421215295791626
0.3660873770713806 0.16835039854049683 0.514289140701294
0.4126415550708771 0.21742190420627594 0.4356515407562256
0.5473182201385498 0.2626022398471832 0.5156018137931824
0.5199868679046631 0.21140462160110474 0.5690886974334717
0.4936468303203583 0.18812702596187592 0.46065449714660645
0.47302794456481934 0.28340187668800354 0.5906031727790833
0.4484999477863312 0.25603458285331726 0.44332510232925415
0.47857826948165894 0.14243413507938385 0.5676664113998413
0.47737404704093933 0.11480654031038284 0.4094197154045105
0.35342663526535034 0.2105528861284256 0.5010455846786499
0.4982089400291443 0.275507390499115 0.544176459312439
0.45912832021713257 0.16392137110233307 0.4980296194553375
0.4529627561569214 0.2910328209400177 0.599494457244873
0.3791236877441406 0.29153138399124146 0.4575515389442444
0.5511073470115662 0.11558181792497635 0.5095654726028442
0.3532988727092743 0.13809433579444885 0.41033580899238586
0.48179084062576294 0.1941511332988739 0.5389921069145203
0.3898121416568756 0.1971322000026703 0.4714021682739258
0.402670681476593 0.27270495891571045 0.43282660841941833
0.3814986050128937 0.2530505657196045 0.5764898657798767
0.4413279891014099 0.18947404623031616 0.4882248044013977
0.37337467074394226 0.1563248634338379 0.5523681044578552
0.513459324836731 0.19252246618270874 0.5023171305656433
0.4808604121208191 0.11281900107860565 0.4143005311489105
0.380140095949173 0.1922638863325119 0.48266512155532837
0.3769952654838562 0.12590381503105164 0.593383252620697
0.3620959222316742 0.2036733329296112 0.5690749883651733
0.3924882709980011 0.11558127403259277 0.4114667773246765
0.4634029269218445 0.14770551025867462 0.5340747833251953
0.5141228437423706 0.14294598996639252 0.40737810730934143
0.35696932673454285 0.20614242553710938 0.5348339080810547
0.39623552560806274 0.20105727016925812 0.4340061545372009
0.4902576208114624 0.21430008113384247 0.4355960488319397
0.4642006456851959 0.25789397954940796 0.5072561502456665
0.49633583426475525 0.15093263983726501 0.49968281388282776
0.4696543514728546 0.27006325125694275 0.5572389364242554
0.48684459924697876 0.14650465548038483 0.5082062482833862
0.5287907123565674 0.23812294006347656 0.4688855707645416
0.42707359790802 0.11349806934595108 0.3980088531970978
0.3788822889328003 0.2914935350418091 0.4854090213775635
0.527833104133606 0.16118967533111572 0.432950884103775
0.38711386919021606 0.2023555338382721 0.5194514989852905
0.4610728919506073 0.11965542286634445 0.5109297633171082
0.38336464762687683 0.18096262216567993 0.4372865855693817
0.5037879943847656 0.2801125943660736 0.43796026706695557
0.5222269892692566 0.1479165107011795 0.5432485342025757
0.5108624696731567 0.24608345329761505 0.5115941762924194
0.4776538908481598 0.11471353471279144 0.5851045250892639
0.4536691904067993 0.16642647981643677 0.5142161846160889
0.46946316957473755 0.11049064993858337 0.4733431339263916
0.4176536202430725 0.15748469531536102 0.5619331002235413
0.44838616251945496 0.11993817985057831 0.4591062068939209
0.44036027789115906 0.193328395485878 0.4311612844467163
0.4251617193222046 0.125946044921875 0.5539072155952454
0.46538397669792175 0.2655598819255829 0.5838658213615417
0.5344208478927612 0.25548502802848816 0.5031353831291199
0.4146806597709656 0.12505844235420227 0.525571882724762
0.4308040738105774 0.24777883291244507 0.5755366683006287
0.3813152015209198 0.11005938053131104 0.4558754861354828
0.3524473011493683 0.28391242027282715 0.5802276730537415
0.5067625641822815 0.12998321652412415 0.5437289476394653
0.4689069092273712 0.25696292519569397 0.4413124918937683
0.4733811020851135 0.21841876208782196 0.4684286415576935
0.4616345763206482 0.16545642912387848 0.5712400078773499
0.40673935413360596 0.17348207533359528 0.4253265857696533
0.3759598731994629 0.12077236920595169 0.5606889724731445
0.5345215797424316 0.1908356100320816 0.41846662759780884
0.48450934886932373 0.22471055388450623 0.40975484251976013
0.514109194278717 0.14675277471542358 0.5223179459571838
0.539373517036438 0.14689446985721588 0.4972190856933594
0.5097761750221252 0.22843259572982788 0.5680750012397766
0.43747538328170776 0.22580604255199432 0.5398260951042175
0.43566787242889404 0.22923371195793152 0.5399726629257202
0.502973735332489 0.1998281180858612 0.4483787715435028
0.5020579099655151 0.2164635807275772 0.43017759919166565
0.38336464762687683 0.18096262216567993 0.4372865855693817
0.5037879943847656 0.2801125943660736 0.43796026706695557
0.5222269892692566 0.1479165107011795 0.5432485342025757
0.5108624696731567 0.24608345329761505 0.5115941762924194
0.4776538908481598 0.11471353471279144 0.5851045250892639
0.4536691904067993 0.16642647981643677 0.5142161846160889
0.46946316957473755 0.11049064993858337 0.4733431339263916
0.4176536202430725 0.15748469531536102 0.5619331002235413
0.44838616251945496 0.11993817985057831 0.4591062068939209
0.3684736490249634 0.2049609124660492 0.48860543966293335
0.3756166696548462 0.1894918829202652 0.4872532784938812
0.407052606344223 0.16123275458812714 0.4425731301307678
0.3802770674228668 0.2820540964603424 0.42836636304855347
0.4435306489467621 0.20416900515556335 0.5056087970733643
0.3745958209037781 0.24606193602085114 0.4297829270362854
0.5312433838844299 0.17031078040599823 0.4641718566417694
0.4640675485134125 0.11121297627687454 0.44018468260765076
0.5280430912971497 0.20984025299549103 0.4061853885650635
0.3578367531299591 0.1969814896583557 0.5165347456932068
0.5091367959976196 0.21086715161800385 0.5235337615013123
0.5154016613960266 0.1102716475725174 0.5381551384925842
0.5008031725883484 0.2212148904800415 0.41393816471099854
0.3517310917377472 0.14097751677036285 0.5865111947059631
0.5087342858314514 0.1758492887020111 0.4427724778652191
0.4939418137073517 0.19928638637065887 0.437448650598526
0.5143734216690063 0.16117839515209198 0.5481492877006531
0.49174830317497253 0.27352267503738403 0.5500862002372742
0.5441931486129761 0.23734775185585022 0.5528261065483093
0.35790687799453735 0.22306965291500092 0.5463227033615112
0.5092881917953491 0.22178369760513306 0.4806211590766907
0.5351925492286682 0.2465570718050003 0.5298751592636108
0.4316343367099762 0.2815972566604614 0.5454655885696411
0.47552788257598877 0.125531405210495 0.49559205770492554
0.40436851978302 0.27688705921173096 0.477438747882843
0.3590157628059387 0.17590489983558655 0.5423470139503479
0.35147061944007874 0.2428731918334961 0.5251985192298889
0.45764175057411194 0.21009033918380737 0.4228619635105133
0.4746498465538025 0.11486763507127762 0.5859007835388184
0.3822178840637207 0.194454625248909 0.5267737507820129
0.5353003144264221 0.2554280161857605 0.509768545627594
0.499216228723526 0.283047080039978 0.5249552130699158
0.38160425424575806 0.11043111234903336 0.533344030380249
0.5080064535140991 0.20102596282958984 0.4829357862472534
0.3666861951351166 0.2836512327194214 0.4297695457935333
0.37720173597335815 0.15954940021038055 0.5142179131507874
0.49176669120788574 0.17810563743114471 0.48084959387779236
0.4760966897010803 0.24658460915088654 0.46145206689834595
0.5148535966873169 0.1353207528591156 0.44942349195480347
0.4073883295059204 0.17303496599197388 0.5305052399635315
0.507482647895813 0.19792647659778595 0.502054750919342
0.5103998184204102 0.24077941477298737 0.5216831564903259
0.3684539496898651 0.1469208300113678 0.4862636923789978
0.5219668745994568 0.11789562553167343 0.48597562313079834
0.5400813221931458 0.1089346632361412 0.5534805655479431
0.512965202331543 0.2558548152446747 0.5669114589691162
0.4439927637577057 0.20057381689548492 0.5886017680168152
0.4819161891937256 0.1903454065322876 0.5936981439590454
0.4713088274002075 0.2219654768705368 0.5669058561325073
0.5274183750152588 0.14756497740745544 0.4582612216472626
0.44758379459381104 0.1271599680185318 0.5096637010574341
0.44835057854652405 0.14495059847831726 0.42871010303497314
0.48604410886764526 0.16039198637008667 0.46920275688171387
0.4643670618534088 0.2812691032886505 0.5625090003013611
0.43774864077568054 0.23169246315956116 0.5369313955307007
0.4126415550708771 0.21742190420627594 0.4356515407562256
0.5271527171134949 0.26079893112182617 0.4827916920185089
0.4912307560443878 0.17067362368106842 0.4908982813358307
0.5123887062072754 0.117231085896492 0.47471630573272705
0.5488743782043457 0.23222702741622925 0.5505081415176392
0.3882957100868225 0.2518601417541504 0.40262115001678467
0.47128811478614807 0.17121471464633942 0.5370496511459351
0.448591411113739 0.2834869921207428 0.5560603737831116
0.5151767134666443 0.1297433078289032 0.41772305965423584
0.42812734842300415 0.1526438593864441 0.4046470522880554
0.5496010184288025 0.2296506017446518 0.5954416990280151
0.37875986099243164 0.10957184433937073 0.4142308235168457
0.5381880402565002 0.209405317902565 0.4819815456867218
0.5079014897346497 0.24483706057071686 0.5871627926826477
0.4044993221759796 0.2281947284936905 0.45466288924217224
0.3504848778247833 0.14938341081142426 0.4341451823711395
0.4760966897010803 0.24658460915088654 0.46145206689834595
0.5148535966873169 0.1353207528591156 0.44942349195480347
0.4073883295059204 0.17303496599197388 0.5305052399635315
0.507482647895813 0.19792647659778595 0.502054750919342
0.5103998184204102 0.24077941477298737 0.5216831564903259
0.3684539496898651 0.1469208300113678 0.4862636923789978
0.5219668745994568 0.11789562553167343 0.48597562313079834
0.5400813221931458 0.1089346632361412 0.5534805655479431
0.512965202331543 0.2558548152446747 0.5669114589691162
0.4439927637577057 0.20057381689548492 0.5886017680168152
0.4819161891937256 0.1903454065322876 0.5936981439590454
0.4713088274002075 0.2219654768705368 0.5669058561325073
0.5274183750152588 0.14756497740745544 0.4582612216472626
0.44758379459381104 0.1271599680185318 0.5096637010574341
0.44835057854652405 0.14495059847831726 0.42871010303497314
0.48604410886764526 0.16039198637008667 0.46920275688171387
0.5080064535140991 0.20102596282958984 0.4829357862472534
0.5103998184204102 0.24077941477298737 0.5216831564903259
0.3684539496898651 0.1469208300113678 0.4862636923789978
0.5219668745994568 0.11789562553167343 0.48597562313079834
0.5400813221931458 0.1089346632361412 0.5534805655479431
0.512965202331543 0.2558548152446747 0.5669114589691162
0.4439927637577057 0.20057381689548492 0.5886017680168152
0.4819161891937256 0.1903454065322876 0.5936981439590454
0.4713088274002075 0.2219654768705368 0.5669058561325073
0.5274183750152588 0.14756497740745544 0.4582612216472626
0.4952814280986786 0.2870059609413147 0.5768346786499023
0.43284326791763306 0.157730370759964 0.5249648690223694
0.46801677346229553 0.13855208456516266 0.5064505934715271
0.5153031349182129 0.23430408537387848 0.48165205121040344
0.4362241327762604 0.12118902057409286 0.4903443157672882
0.3826250731945038 0.2113049328327179 0.5545701384544373
0.37680697441101074 0.20301242172718048 0.5295060276985168
0.5113530158996582 0.20012670755386353 0.5719490051269531
0.473385214805603 0.2665414810180664 0.529326856136322
0.46477365493774414 0.20767498016357422 0.424979031085968
0.36884140968322754 0.1966770887374878 0.46205323934555054
0.547839879989624 0.16365113854408264 0.41685783863067627
0.49508360028266907 0.24003693461418152 0.5054174065589905
0.5166404843330383 0.25934484601020813 0.4484193027019501
0.3827499747276306 0.17162737250328064 0.5476491451263428
0.3838745653629303 0.16625963151454926 0.4202587604522705
0.3786069452762604 0.1182987168431282 0.4700317978858948
0.37866273522377014 0.11844035238027573 0.4187965393066406
0.5264327526092529 0.11808494478464127 0.5349851250648499
0.49316638708114624 0.15573637187480927 0.4502122402191162
0.5269423127174377 0.21211019158363342 0.5193965435028076
0.5369762182235718 0.1395868957042694 0.438896119594574
0.5080064535140991 0.20102596282958984 0.4829357862472534
0.5103998184204102 0.24077941477298737 0.5216831564903259
0.3684539496898651 0.1469208300113678 0.4862636923789978
0.5219668745994568 0.11789562553167343 0.48597562313079834
0.5400813221931458 0.1089346632361412 0.5534805655479431
0.512965202331543 0.2558548152446747 0.5669114589691162
0.4439927637577057 0.20057381689548492 0.5886017680168152
0.4819161891937256 0.1903454065322876 0.5936981439590454
0.4713088274002075 0.2219654768705368 0.5669058561325073
0.5274183750152588 0.14756497740745544 0.4582612216472626
0.44758379459381104 0.1271599680185318 0.5096637010574341
0.44835057854652405 0.14495059847831726 0.42871010303497314
0.48604410886764526 0.16039198637008667 0.46920275688171387
0.4643670618534088 0.2812691032886505 0.5625090003013611
0.43774864077568054 0.23169246315956116 0.5369313955307007
0.484389066696167 0.2233659327030182 0.4754137694835663
0.5359699130058289 0.1521594077348709 0.5176948308944702
0.3758028447628021 0.12983812391757965 0.5719512701034546
0.4876471161842346 0.2854846119880676 0.5181910395622253
0.473385214805603 0.2665414810180664 0.529326856136322
0.46477365493774414 0.20767498016357422 0.424979031085968
0.36884140968322754 0.1966770887374878 0.46205323934555054
0.547839879989624 0.16365113854408264 0.41685783863067627
0.49508360028266907 0.24003693461418152 0.5054174065589905
0.5166404843330383 0.25934484601020813 0.4484193027019501
0.3827499747276306 0.17162737250328064 0.5476491451263428
0.3838745653629303 0.16625963151454926 0.4202587604522705
0.37866273522377014 0.11844035238027573 0.4187965393066406
0.4793877899646759 0.17920757830142975 0.47568532824516296
0.509576678276062 0.19457624852657318 0.4453313648700714
0.49316638708114624 0.15573637187480927 0.4502122402191162
0.5269423127174377 0.21211019158363342 0.5193965435028076
0.4614948630332947 0.28430846333503723 0.4193846881389618
0.5151162147521973 0.19686968624591827 0.5146850943565369
0.4021224081516266 0.1264040470123291 0.5195547342300415
0.41153326630592346 0.27619829773902893 0.47543275356292725
0.40522587299346924 0.21208573877811432 0.4576692581176758
0.42671674489974976 0.19548948109149933 0.4804478585720062
0.474366158246994 0.15558484196662903 0.4508340358734131
0.546302855014801 0.11245612055063248 0.4749263823032379
0.48339903354644775 0.18106578290462494 0.45884838700294495
0.47886762022972107 0.2747543454170227 0.4514901041984558
0.45496314764022827 0.27908098697662354 0.5033676028251648
0.5041374564170837 0.19480904936790466 0.47955095767974854
0.40462812781333923 0.26560816168785095 0.5253646373748779
0.3744128942489624 0.21929611265659332 0.5609579682350159
0.4665902853012085 0.26610681414604187 0.40418124198913574
0.37932994961738586 0.16739869117736816 0.4677332937717438
0.5411083698272705 0.18144048750400543 0.448831170797348
0.5151093006134033 0.17338509857654572 0.5384126901626587
0.5260142087936401 0.18235760927200317 0.5943045616149902
0.4357703626155853 0.11414285749197006 0.45153483748435974
0.45087966322898865 0.23801271617412567 0.4977772831916809
0.38765910267829895 0.16856592893600464 0.4510551989078522
0.445090651512146 0.14665135741233826 0.5592110753059387
0.41663244366645813 0.16311299800872803 0.4744659960269928
0.44587916135787964 0.21054629981517792 0.47995880246162415
0.43857041001319885 0.23747695982456207 0.43395301699638367
0.45492368936538696 0.13082614541053772 0.43745070695877075
0.5213015079498291 0.22685879468917847 0.5942641496658325
0.5430082082748413 0.2754673957824707 0.5248644351959229
0.4506266117095947 0.17219975590705872 0.5148593783378601
0.5432138442993164 0.16276755928993225 0.5705468058586121
0.37206530570983887 0.22864414751529694 0.4894365966320038
0.5033746361732483 0.16505786776542664 0.5422645211219788
0.45410117506980896 0.1842450350522995 0.5113142132759094
0.4424716830253601 0.152235746383667 0.4814963638782501
0.4835413098335266 0.1697763204574585 0.5219452977180481
0.42524653673171997 0.2530093193054199 0.46194586157798767
0.4401038885116577 0.166407510638237 0.444080650806427
0.4075855314731598 0.21159899234771729 0.5793529748916626
0.5161460041999817 0.15644241869449615 0.40897807478904724
0.3782827854156494 0.16760697960853577 0.4811774492263794
0.4049966633319855 0.19288724660873413 0.4983619153499603
0.48312684893608093 0.12803693115711212 0.5049191117286682
0.54097980260849 0.17857402563095093 0.44366636872291565
0.527033269405365 0.20896929502487183 0.5512069463729858
0.37736502289772034 0.2528015375137329 0.5744485855102539
0.3958958387374878 0.25190669298171997 0.43609562516212463
0.4188838303089142 0.2856355607509613 0.5346701145172119
0.5441296696662903 0.19184383749961853 0.47752314805984497
0.4901876747608185 0.16982759535312653 0.432117223739624
0.3661581575870514 0.2464297115802765 0.5774405598640442
0.37782859802246094 0.11366459727287292 0.4865712821483612
0.4784039855003357 0.1139993742108345 0.452383816242218
0.361163467168808 0.1353958249092102 0.47804251313209534
0.3570616841316223 0.2377224862575531 0.5874525308609009
0.4142540395259857 0.12687082588672638 0.4512086510658264
0.5194929838180542 0.20751480758190155 0.5144995450973511
0.5174508094787598 0.27757972478866577 0.5440329313278198
0.41510048508644104 0.26072174310684204 0.5289807915687561
0.4251386821269989 0.1714823693037033 0.4960394501686096
0.37453311681747437 0.15562985837459564 0.5210941433906555
0.5153619647026062 0.14918582141399384 0.4081670343875885
0.49623504281044006 0.2544436752796173 0.4421098232269287
0.5492873787879944 0.26488277316093445 0.44428661465644836
0.41907358169555664 0.28527185320854187 0.5904778838157654
0.4519987404346466 0.2276666909456253 0.5637050867080688
0.43326517939567566 0.2058732509613037 0.5991041660308838
0.3824537694454193 0.1278671771287918 0.5041795969009399
0.383121520280838 0.1533094346523285 0.439027339220047
0.4897611141204834 0.25286605954170227 0.41718730330467224
0.4784763753414154 0.16019730269908905 0.44093072414398193
0.5189383625984192 0.10908385366201401 0.40657493472099304
0.3939271569252014 0.2150060534477234 0.4938405752182007
0.5125815868377686 0.2894502878189087 0.44287288188934326
0.4955656826496124 0.2459484487771988 0.45177730917930603
0.5383923053741455 0.26987963914871216 0.4402739107608795
0.4174918830394745 0.1337573230266571 0.47731804847717285
0.4440995454788208 0.1373748481273651 0.4659736156463623
0.3523561358451843 0.1107696071267128 0.5080766081809998
0.4578889310359955 0.18875351548194885 0.4699738919734955
0.39650779962539673 0.2633357346057892 0.5809997320175171
0.4238326847553253 0.2665141522884369 0.48010310530662537
0.37782859802246094 0.11366459727287292 0.4865712821483612
0.5118776559829712 0.2417626678943634 0.5747053623199463
0.47757044434547424 0.2262725532054901 0.565005898475647
0.3682384192943573 0.2791936695575714 0.4907393157482147
0.38297030329704285 0.27936384081840515 0.4372135400772095
0.4440521001815796 0.24882738292217255 0.5420514941215515
0.5288382768630981 0.21556252241134644 0.5224453806877136
0.5285273790359497 0.2349490523338318 0.46654751896858215
0.3829803764820099 0.1397356241941452 0.5778235197067261
0.4213545620441437 0.1677899807691574 0.570676863193512
0.40961354970932007 0.23173381388187408 0.4387131333351135
0.5185304284095764 0.24861769378185272 0.4614788293838501
0.38285788893699646 0.17147833108901978 0.4344308376312256
0.47253674268722534 0.24052083492279053 0.4251910448074341
0.4371931850910187 0.16795992851257324 0.5327814221382141
0.4515862464904785 0.11855828762054443 0.45419666171073914
0.3894035220146179 0.16997331380844116 0.5825220942497253
0.40053102374076843 0.2010386884212494 0.48870232701301575
0.45820701122283936 0.1329936981201172 0.5299482345581055
0.36566174030303955 0.24611414968967438 0.4592765271663666
0.4519987404346466 0.2276666909456253 0.5637050867080688
0.43326517939567566 0.2058732509613037 0.5991041660308838
0.3824537694454193 0.1278671771287918 0.5041795969009399
0.383121520280838 0.1533094346523285 0.439027339220047
0.4897611141204834 0.25286605954170227 0.41718730330467224
0.4784763753414154 0.16019730269908905 0.44093072414398193
0.5189383625984192 0.10908385366201401 0.40657493472099304
0.4832422435283661 0.11429495364427567 0.5846210718154907
0.3670567572116852 0.11431612074375153 0.5415799021720886
0.5125815868377686 0.2894502878189087 0.44287288188934326
0.4955656826496124 0.2459484487771988 0.45177730917930603
0.5383923053741455 0.26987963914871216 0.4402739107608795
0.44671639800071716 0.18816015124320984 0.42332321405410767
0.3523561358451843 0.1107696071267128 0.5080766081809998
0.4578889310359955 0.18875351548194885 0.4699738919734955
0.5303032398223877 0.17466801404953003 0.4023629426956177
0.5118776559829712 0.2417626678943634 0.5747053623199463
0.36666014790534973 0.12478121370077133 0.4802984595298767
0.3682384192943573 0.2791936695575714 0.4907393157482147
0.38297030329704285 0.27936384081840515 0.4372135400772095
0.4440521001815796 0.24882738292217255 0.5420514941215515
0.5288382768630981 0.21556252241134644 0.5224453806877136
0.5301591157913208 0.11708645522594452 0.5900285243988037
0.4094860255718231 0.15781620144844055 0.503980278968811
0.4213545620441437 0.1677899807691574 0.570676863193512
0.4784211814403534 0.1648467630147934 0.5727266669273376
0.43747538328170776 0.22580604255199432 0.5398260951042175
0.3598448932170868 0.23834316432476044 0.5386414527893066
0.5204997658729553 0.11480161547660828 0.4566632807254791
0.3972291350364685 0.2696826756000519 0.5137307047843933
0.39314284920692444 0.124442458152771 0.5366896986961365
0.5420938730239868 0.1972966343164444 0.511502206325531
0.41055867075920105 0.16577431559562683 0.5026533603668213
0.5229437947273254 0.13067062199115753 0.6011053919792175
0.5246067643165588 0.1950567215681076 0.5752118229866028
0.47439807653427124 0.2007775455713272 0.5018162131309509
0.45831531286239624 0.21050338447093964 0.5534043908119202
0.5051125884056091 0.17874564230442047 0.43344786763191223
0.473611980676651 0.17671675980091095 0.5437834858894348
0.3606361746788025 0.2159150242805481 0.45256307721138
0.3934800624847412 0.19398638606071472 0.5128915309906006
0.48173969984054565 0.198595330119133 0.5809395909309387
0.5174767374992371 0.22344344854354858 0.4818430542945862
0.5333698987960815 0.2011602371931076 0.5116802453994751
0.5175848603248596 0.1870880275964737 0.42291441559791565
0.38726723194122314 0.1089569702744484 0.4597371220588684
0.3853719234466553 0.22006407380104065 0.5465314388275146
0.38923001289367676 0.1925925314426422 0.47708961367607117
0.4658110737800598 0.1867472529411316 0.4512619376182556
0.4816059172153473 0.1751379668712616 0.5666342973709106
0.40508925914764404 0.1360083967447281 0.4592605531215668
0.3604447841644287 0.2401534616947174 0.5694765448570251
0.4440050721168518 0.21535207331180573 0.4787140190601349
0.3961900770664215 0.24246788024902344 0.4979081451892853
0.3653973340988159 0.2862682342529297 0.4208469092845917
0.5051414966583252 0.1253681629896164 0.4443999230861664
0.4018452763557434 0.11388293653726578 0.44339489936828613
0.35590437054634094 0.1137906163930893 0.5088502764701843
0.43566787242889404 0.22923371195793152 0.5399726629257202
0.5432138442993164 0.16276755928993225 0.5705468058586121
0.37206530570983887 0.22864414751529694 0.4894365966320038
0.5174344778060913 0.2640306055545807 0.479384183883667
0.5064135193824768 0.2633897364139557 0.41504210233688354
0.46617716550827026 0.22191831469535828 0.46775978803634644
0.4634799063205719 0.19895386695861816 0.4593755900859833
0.5497027039527893 0.261636346578598 0.4062650203704834
0.3708640933036804 0.22266024351119995 0.5171934366226196
0.45410117506980896 0.1842450350522995 0.5113142132759094
0.37045222520828247 0.12521857023239136 0.5793868899345398
0.3566719591617584 0.13914451003074646 0.4146748483181
0.4181748330593109 0.137442946434021 0.5126947164535522
0.36566174030303955 0.24611414968967438 0.4592765271663666
0.4519987404346466 0.2276666909456253 0.5637050867080688
0.43326517939567566 0.2058732509613037 0.5991041660308838
0.36721840500831604 0.22504080832004547 0.4811948239803314
0.47841402888298035 0.131769061088562 0.4347163438796997
0.3936077058315277 0.21062366664409637 0.42056336998939514
0.43870052695274353 0.22633416950702667 0.4568835198879242
0.38796567916870117 0.18428760766983032 0.44903886318206787
0.5498398542404175 0.15866252779960632 0.5717949271202087
0.4929836094379425 0.1779574304819107 0.4669305682182312
0.3670567572116852 0.11431612074375153 0.5415799021720886
0.5125815868377686 0.2894502878189087 0.44287288188934326
0.4955656826496124 0.2459484487771988 0.45177730917930603
0.5383923053741455 0.26987963914871216 0.4402739107608795
0.4174918830394745 0.1337573230266571 0.47731804847717285
0.4440995454788208 0.1373748481273651 0.4659736156463623
0.4888647496700287 0.22521144151687622 0.5866520404815674
0.3649168014526367 0.1612570583820343 0.48549196124076843
0.525440514087677 0.10923265665769577 0.5143610835075378
0.39808350801467896 0.2845074534416199 0.5046935677528381
0.41663244366645813 0.16311299800872803 0.4744659960269928
0.44587916135787964 0.21054629981517792 0.47995880246162415
0.43857041001319885 0.23747695982456207 0.43395301699638367
0.45492368936538696 0.13082614541053772 0.43745070695877075
0.5213015079498291 0.22685879468917847 0.5942641496658325
0.5430082082748413 0.2754673957824707 0.5248644351959229
0.4506266117095947 0.17219975590705872 0.5148593783378601
0.5432138442993164 0.16276755928993225 0.5705468058586121
0.37206530570983887 0.22864414751529694 0.4894365966320038
0.5174344778060913 0.2640306055545807 0.479384183883667
0.5064135193824768 0.2633897364139557 0.41504210233688354
0.46617716550827026 0.22191831469535828 0.46775978803634644
0.4634799063205719 0.19895386695861816 0.4593755900859833
0.4634799063205719 0.19895386695861816 0.4593755900859833
0.5497027039527893 0.261636346578598 0.4062650203704834
0.3708640933036804 0.22266024351119995 0.5171934366226196
0.45410117506980896 0.1842450350522995 0.5113142132759094
0.4424716830253601 0.152235746383667 0.4814963638782501
0.3841015100479126 0.24132464826107025 0.5845854878425598
0.5134360194206238 0.1234138235449791 0.5128411650657654
0.38349056243896484 0.1857692152261734 0.4943675994873047
0.4889310300350189 0.13238435983657837 0.5839165449142456
0.3885195255279541 0.291728138923645 0.5945949554443359
0.5273846387863159 0.274198055267334 0.5257984399795532
0.3598426580429077 0.11612719297409058 0.41845405101776123
0.3824537694454193 0.1278671771287918 0.5041795969009399
0.5498398542404175 0.15866252779960632 0.5717949271202087
0.4929836094379425 0.1779574304819107 0.4669305682182312
0.3670567572116852 0.11431612074375153 0.5415799021720886
0.48057153820991516 0.16153492033481598 0.49177414178848267
0.3683001697063446 0.19765816628932953 0.5590763092041016
0.38063427805900574 0.19489772617816925 0.45635101199150085
0.44587916135787964 0.21054629981517792 0.47995880246162415
0.43857041001319885 0.23747695982456207 0.43395301699638367
0.37206530570983887 0.22864414751529694 0.4894365966320038
0.5014809370040894 0.18290962278842926 0.5372103452682495
0.37983861565589905 0.11658021062612534 0.521458089351654
0.3527090847492218 0.15079598128795624 0.41400226950645447
0.4634799063205719 0.19895386695861816 0.4593755900859833
0.5497027039527893 0.261636346578598 0.4062650203704834
0.3708640933036804 0.22266024351119995 0.5171934366226196
0.45410117506980896 0.1842450350522995 0.5113142132759094
0.37045222520828247 0.12521857023239136 0.5793868899345398
0.3566719591617584 0.13914451003074646 0.4146748483181
0.4181748330593109 0.137442946434021 0.5126947164535522
0.36566174030303955 0.24611414968967438 0.4592765271663666
0.4519987404346466 0.2276666909456253 0.5637050867080688
0.43326517939567566 0.2058732509613037 0.5991041660308838
0.36721840500831604 0.22504080832004547 0.4811948239803314
0.47841402888298035 0.131769061088562 0.4347163438796997
0.3936077058315277 0.21062366664409637 0.42056336998939514
0.43870052695274353 0.22633416950702667 0.4568835198879242
0.38796567916870117 0.18428760766983032 0.44903886318206787
0.5498398542404175 0.15866252779960632 0.5717949271202087
0.4929836094379425 0.1779574304819107 0.4669305682182312
0.3670567572116852 0.11431612074375153 0.5415799021720886
0.4578889310359955 0.18875351548194885 0.4699738919734955
0.35304996371269226 0.28222575783729553 0.5856969356536865
0.5498276352882385 0.2638988494873047 0.4744926691055298
0.4454714357852936 0.23340962827205658 0.4523068368434906
0.5187849402427673 0.12452671676874161 0.48537030816078186
0.45932871103286743 0.249590665102005 0.43742769956588745
0.508176326751709 0.24268989264965057 0.48042672872543335
0.48604410886764526 0.16039198637008667 0.46920275688171387
0.4634799063205719 0.19895386695861816 0.4593755900859833
0.5497027039527893 0.261636346578598 0.4062650203704834
0.3708640933036804 0.22266024351119995 0.5171934366226196
0.45410117506980896 0.1842450350522995 0.5113142132759094
0.37045222520828247 0.12521857023239136 0.5793868899345398
0.3566719591617584 0.13914451003074646 0.4146748483181
0.4181748330593109 0.137442946434021 0.5126947164535522
0.36566174030303955 0.24611414968967438 0.4592765271663666
0.4519987404346466 0.2276666909456253 0.5637050867080688
0.43326517939567566 0.2058732509613037 0.5991041660308838
0.36721840500831604 0.22504080832004547 0.4811948239803314
0.47841402888298035 0.131769061088562 0.4347163438796997
0.3936077058315277 0.21062366664409637 0.42056336998939514
0.43870052695274353 0.22633416950702667 0.4568835198879242
0.38796567916870117 0.18428760766983032 0.44903886318206787
0.4929836094379425 0.1779574304819107 0.4669305682182312
0.3670567572116852 0.11431612074375153 0.5415799021720886
0.5125815868377686 0.2894502878189087 0.44287288188934326
0.4955656826496124 0.2459484487771988 0.45177730917930603
0.5383923053741455 0.26987963914871216 0.4402739107608795
0.4174918830394745 0.1337573230266571 0.47731804847717285
0.4440995454788208 0.1373748481273651 0.4659736156463623
0.4888647496700287 0.22521144151687622 0.5866520404815674
0.5094061493873596 0.20260117948055267 0.5417946577072144
0.47650378942489624 0.2621934711933136 0.5866454243659973
0.5420840978622437 0.28289109468460083 0.551956295967102
0.4578889310359955 0.18875351548194885 0.4699738919734955
0.39650779962539673 0.2633357346057892 0.5809997320175171
0.4238326847553253 0.2665141522884369 0.48010310530662537
0.42777466773986816 0.1941637247800827 0.4903974235057831
0.3752671480178833 0.25372976064682007 0.5939431190490723
0.484389066696167 0.2233659327030182 0.4754137694835663
0.3961900770664215 0.24246788024902344 0.4979081451892853
0.3653973340988159 0.2862682342529297 0.4208469092845917
0.5051414966583252 0.1253681629896164 0.4443999230861664
0.4018452763557434 0.11388293653726578 0.44339489936828613
0.35590437054634094 0.1137906163930893 0.5088502764701843
0.5298566818237305 0.18245866894721985 0.4433635473251343
0.45270270109176636 0.2277858555316925 0.5299690961837769
0.3625243902206421 0.13757050037384033 0.5396261215209961
0.5429374575614929 0.15530911087989807 0.40367183089256287
0.4282906949520111 0.11864117532968521 0.5887708067893982
0.5224855542182922 0.27155178785324097 0.46422410011291504
0.5152597427368164 0.2273382842540741 0.5388516783714294
0.4733230173587799 0.15801577270030975 0.454974889755249
0.36233487725257874 0.17047779262065887 0.47865599393844604
0.40609413385391235 0.2320355921983719 0.45257019996643066
0.37742796540260315 0.1335892677307129 0.5867722034454346
0.5441657304763794 0.22958169877529144 0.4529103636741638
0.3487737476825714 0.11580714583396912 0.5634269118309021
0.4604358375072479 0.11804074048995972 0.4874454736709595
0.4582979083061218 0.276155561208725 0.5874201059341431
0.5184042453765869 0.15589001774787903 0.4647398889064789
0.42585498094558716 0.21790282428264618 0.4172331988811493
0.4833376407623291 0.1827460527420044 0.45420944690704346
0.4099348187446594 0.2246418297290802 0.409368097782135
0.41666632890701294 0.22376032173633575 0.4529021978378296
0.38973572850227356 0.28987401723861694 0.4675675928592682
0.5250434279441833 0.13803161680698395 0.44653239846229553
0.5377251505851746 0.1444607377052307 0.5390125513076782
0.4075474739074707 0.12361431866884232 0.5221620798110962
0.418157696723938 0.21338088810443878 0.42092689871788025
0.45626288652420044 0.13022930920124054 0.438567578792572
0.5369762182235718 0.1395868957042694 0.438896119594574
0.3936077058315277 0.21062366664409637 0.42056336998939514
0.43870052695274353 0.22633416950702667 0.4568835198879242
0.38796567916870117 0.18428760766983032 0.44903886318206787
0.5498398542404175 0.15866252779960632 0.5717949271202087
0.4929836094379425 0.1779574304819107 0.4669305682182312
0.3670567572116852 0.11431612074375153 0.5415799021720886
0.5125815868377686 0.2894502878189087 0.44287288188934326
0.4955656826496124 0.2459484487771988 0.45177730917930603
0.5383923053741455 0.26987963914871216 0.4402739107608795
0.4174918830394745 0.1337573230266571 0.47731804847717285
0.4440995454788208 0.1373748481273651 0.4659736156463623
0.4888647496700287 0.22521144151687622 0.5866520404815674
0.5094061493873596 0.20260117948055267 0.5417946577072144
0.47650378942489624 0.2621934711933136 0.5866454243659973
0.5420840978622437 0.28289109468460083 0.551956295967102
0.4578889310359955 0.18875351548194885 0.4699738919734955
0.39650779962539673 0.2633357346057892 0.5809997320175171
0.4238326847553253 0.2665141522884369 0.48010310530662537
0.42777466773986816 0.1941637247800827 0.4903974235057831
0.35653921961784363 0.24293750524520874 0.596800684928894
0.39265304803848267 0.19023065268993378 0.4326302409172058
0.45961499214172363 0.1192396804690361 0.41124051809310913
0.4261457026004791 0.28465455770492554 0.5659566521644592
0.528704047203064 0.24408303201198578 0.5336301922798157
0.4017370343208313 0.22148479521274567 0.47707468271255493
0.4208177328109741 0.250002920627594 0.4208142161369324
0.39446330070495605 0.2001720815896988 0.4819231331348419
0.3925277292728424 0.2678183913230896 0.5212266445159912
0.5300104022026062 0.13366791605949402 0.5677006840705872
0.5300104022026062 0.13366791605949402 0.5677006840705872
0.5175573229789734 0.26666131615638733 0.52960205078125
0.5429374575614929 0.15530911087989807 0.40367183089256287
0.42437514662742615 0.2737320363521576 0.4360107481479645
0.4145224690437317 0.12915675342082977 0.47699546813964844
0.3829445540904999 0.11571940779685974 0.4877389669418335
0.46906572580337524 0.2811085879802704 0.47339382767677307
0.503000020980835 0.11285333335399628 0.44499439001083374
0.35016587376594543 0.2500443756580353 0.5156846642494202
0.4926740229129791 0.11895794421434402 0.4410455524921417
0.37410855293273926 0.22258120775222778 0.41067230701446533
0.46444642543792725 0.2348548024892807 0.49425560235977173
0.4860544502735138 0.26319167017936707 0.4968276023864746
0.3934917151927948 0.2883208096027374 0.4011012315750122
0.5278761982917786 0.2895642817020416 0.4156236946582794
0.5285329222679138 0.2543899714946747 0.44988882541656494
0.3751175105571747 0.20191818475723267 0.45530587434768677
0.4879593849182129 0.282588392496109 0.44451141357421875
0.5003088712692261 0.17944271862506866 0.4419795870780945
0.4311663508415222 0.2832890748977661 0.5335789918899536
0.4311663508415222 0.2832890748977661 0.5335789918899536
0.37390032410621643 0.22697652876377106 0.5320470333099365
0.4090079367160797 0.23338523507118225 0.4072411358356476
0.4996899962425232 0.274979829788208 0.5638181567192078
0.41989976167678833 0.20176057517528534 0.49663349986076355
0.47276756167411804 0.13359422981739044 0.4636154770851135
0.4020066559314728 0.11920072138309479 0.4625181257724762
0.359027236700058 0.26871877908706665 0.5408602952957153
0.5075882077217102 0.11643210798501968 0.4818567633628845
0.3679410219192505 0.21131712198257446 0.42058858275413513
0.4050582945346832 0.2830449938774109 0.4423343241214752
0.49124160408973694 0.1117355227470398 0.39993003010749817
0.5007508993148804 0.10871301591396332 0.4062841534614563
0.42505672574043274 0.22768346965312958 0.5118945240974426
0.38592320680618286 0.2595011591911316 0.5241305232048035
0.3751175105571747 0.20191818475723267 0.45530587434768677
0.4879593849182129 0.282588392496109 0.44451141357421875
0.5003088712692261 0.17944271862506866 0.4419795870780945
0.4311663508415222 0.2832890748977661 0.5335789918899536
0.37390032410621643 0.22697652876377106 0.5320470333099365
0.4090079367160797 0.23338523507118225 0.4072411358356476
0.4996899962425232 0.274979829788208 0.5638181567192078
0.41989976167678833 0.20176057517528534 0.49663349986076355
0.49277424812316895 0.2692200541496277 0.5296365022659302
0.5050056576728821 0.22982192039489746 0.5582820773124695
0.4050582945346832 0.2830449938774109 0.4423343241214752
0.49124160408973694 0.1117355227470398 0.39993003010749817
0.5065299868583679 0.18628086149692535 0.490723192691803
0.44928058981895447 0.2585628628730774 0.5734127163887024
0.48835891485214233 0.15883375704288483 0.5330539345741272
0.42505672574043274 0.22768346965312958 0.5118945240974426
0.44017836451530457 0.17550332844257355 0.5668589472770691
0.5265722870826721 0.26296502351760864 0.5777884721755981
0.37680402398109436 0.1773887276649475 0.40557044744491577
0.5261964201927185 0.24318863451480865 0.4046403467655182
0.5120801329612732 0.12696591019630432 0.5520495772361755
0.43741631507873535 0.1337650567293167 0.4321945607662201
0.4297909736633301 0.22168110311031342 0.446428507566452
0.4391706883907318 0.27523815631866455 0.4401227533817291
0.47283855080604553 0.13522011041641235 0.5232798457145691
0.37876927852630615 0.2693016231060028 0.5342787504196167
0.3658577799797058 0.1356533020734787 0.44035929441452026
0.5494679808616638 0.2836206555366516 0.5018488764762878
0.36781591176986694 0.270112007856369 0.5209245681762695
0.3919142186641693 0.28208404779434204 0.41121789813041687
0.37135815620422363 0.10886800289154053 0.5721524357795715
0.5174344778060913 0.2640306055545807 0.479384183883667
0.44799309968948364 0.23679371178150177 0.5335115194320679
0.500457227230072 0.26583659648895264 0.4927792251110077
0.5309678912162781 0.25751829147338867 0.4085850417613983
0.4224001169204712 0.1986388862133026 0.41755133867263794
0.5149192810058594 0.10875355452299118 0.5483132600784302
0.542232096195221 0.28425443172454834 0.469246506690979
0.37067171931266785 0.1654159426689148 0.5952281355857849
0.4088909327983856 0.11818594485521317 0.5296356678009033
0.4310646653175354 0.14710482954978943 0.5259109139442444
0.3676626980304718 0.21841669082641602 0.5462698936462402
0.5080579519271851 0.20292331278324127 0.4879075586795807
0.41967394948005676 0.16200780868530273 0.5858741402626038
0.5173568725585938 0.15267935395240784 0.40477073192596436
0.517431914806366 0.16248267889022827 0.4587169885635376
0.5226539969444275 0.13364896178245544 0.5739867687225342
0.5174303650856018 0.1584969013929367 0.541989266872406
0.4439464509487152 0.23256924748420715 0.4402486979961395
0.37621405720710754 0.2344001829624176 0.42641061544418335
0.3825526535511017 0.1868639439344406 0.4348481297492981
0.4728718101978302 0.2669256627559662 0.540704071521759
0.5292051434516907 0.12409596145153046 0.5476052761077881
0.3957492709159851 0.2157367467880249 0.4103451073169708
0.35716894268989563 0.19408681988716125 0.5038607120513916
0.412015438079834 0.21155233681201935 0.5105533003807068
0.40594565868377686 0.12126028537750244 0.42010799050331116
0.4294613003730774 0.1828271448612213 0.5341674089431763
0.4685594439506531 0.11336389929056168 0.39978882670402527
0.4355275630950928 0.14734375476837158 0.4311792254447937
0.38659465312957764 0.11184971779584885 0.4157794415950775
0.4241102337837219 0.18382799625396729 0.46293261647224426
0.49545013904571533 0.26487115025520325 0.42247816920280457
0.4519987404346466 0.2276666909456253 0.5637050867080688
0.3710373342037201 0.17451345920562744 0.47154662013053894
0.4708104133605957 0.2875744104385376 0.5248361825942993
0.4796617329120636 0.18961049616336823 0.4709301292896271
0.44849491119384766 0.25719377398490906 0.4603269696235657
0.4772370159626007 0.2185356169939041 0.5737994909286499
0.39265304803848267 0.19023065268993378 0.4326302409172058
0.45961499214172363 0.1192396804690361 0.41124051809310913
0.4913479685783386 0.2645726799964905 0.5744912624359131
0.43082863092422485 0.12213312089443207 0.5400371551513672
0.3749152421951294 0.14090558886528015 0.591852605342865
0.37256720662117004 0.2008305788040161 0.5320106148719788
0.528704047203064 0.24408303201198578 0.5336301922798157
0.4208177328109741 0.250002920627594 0.4208142161369324
0.39446330070495605 0.2001720815896988 0.4819231331348419
0.41420701146125793 0.21319636702537537 0.5413171052932739
0.3925277292728424 0.2678183913230896 0.5212266445159912
0.5300104022026062 0.13366791605949402 0.5677006840705872
0.5175573229789734 0.26666131615638733 0.52960205078125
