ply
format ascii 1.0
element vertex 831
property float x
property float y
property float z
end_header
0.8640547394752502 0.2451646327972412 0.45766007900238037
0.8745991587638855 0.211429625749588 0.42879098653793335
0.8369776010513306 0.20139016211032867 0.37526923418045044
0.7039897441864014 0.23258185386657715 0.495166152715683
0.8619906902313232 0.16232718527317047 0.44661960005760193
0.6960746049880981 0.33203431963920593 0.5251294374465942
0.8505463004112244 0.16994862258434296 0.3820127248764038
0.8295543193817139 0.2856409549713135 0.3642149567604065
0.7757530212402344 0.21761015057563782 0.4412296712398529
0.749811589717865 0.2400672286748886 0.4097655415534973
0.8501633405685425 0.28886425495147705 0.35907992720603943
0.8757195472717285 0.2675530016422272 0.5363408923149109
0.8001555800437927 0.2868638038635254 0.4814302623271942
0.8102881908416748 0.24551014602184296 0.4664284288883209
0.8231230974197388 0.2101713865995407 0.37314373254776
0.8062047362327576 0.2043221890926361 0.39013251662254333
0.7039654850959778 0.21703790128231049 0.5295845866203308
0.7883751392364502 0.2764178216457367 0.48227977752685547
0.8034828305244446 0.13258987665176392 0.491232693195343
0.7584764957427979 0.1824824959039688 0.4447283148765564
0.8003773093223572 0.3435361683368683 0.5450102686882019
0.8205325603485107 0.24678389728069305 0.4672401547431946
0.8560890555381775 0.14630210399627686 0.5613170862197876
0.8152226209640503 0.2650417983531952 0.40163883566856384
0.8553143739700317 0.12575773894786835 0.3810276687145233
0.8571314215660095 0.14694756269454956 0.5228292346000671
0.7129414081573486 0.26376789808273315 0.5353688597679138
0.7442665696144104 0.1538046896457672 0.558594286441803
0.7874744534492493 0.19210177659988403 0.5218755006790161
0.7712234854698181 0.30039674043655396 0.3812325596809387
0.7012890577316284 0.21497267484664917 0.521827220916748
0.8279944062232971 0.18745435774326324 0.5258795619010925
0.8339142799377441 0.3016182780265808 0.4329873025417328
0.8464122414588928 0.2623204290866852 0.44567686319351196
0.8486970663070679 0.13899321854114532 0.5129055380821228
0.7353657484054565 0.1663561463356018 0.41643697023391724
0.7927994728088379 0.18796922266483307 0.40961092710494995
0.705964207649231 0.19607362151145935 0.5616016983985901
0.8545675873756409 0.18133530020713806 0.5555204153060913
0.7786976099014282 0.19413796067237854 0.5572845935821533
0.7826900482177734 0.16462570428848267 0.5104779005050659
0.7780994772911072 0.26811692118644714 0.48685821890830994
0.8400371074676514 0.1720566302537918 0.4317055344581604
0.7092031836509705 0.14931513369083405 0.42603710293769836
0.867051899433136 0.15101727843284607 0.5188337564468384
0.7915664315223694 0.21126946806907654 0.512281060218811
0.858780026435852 0.27652785181999207 0.40921175479888916
0.7755026817321777 0.15720713138580322 0.4732556641101837
0.836546778678894 0.2342672199010849 0.469105064868927
0.8302833437919617 0.3256085515022278 0.49610885977745056
0.8208302855491638 0.18498997390270233 0.5551059246063232
0.7121323347091675 0.18978145718574524 0.5068870186805725
0.7800706028938293 0.19320528209209442 0.5623347163200378
0.7030167579650879 0.32468852400779724 0.45493748784065247
0.8024108409881592 0.18667031824588776 0.49832624197006226
0.7178030014038086 0.13728584349155426 0.43019118905067444
0.8545762300491333 0.21827249228954315 0.36682602763175964
0.8854832053184509 0.3180910348892212 0.4629800021648407
0.8547964096069336 0.25705212354660034 0.4087177515029907
0.8230167031288147 0.2541665732860565 0.5128558874130249
0.8272584080696106 0.2083086371421814 0.5646927952766418
0.8703544735908508 0.2556855380535126 0.5017533898353577
0.7530799508094788 0.2478516399860382 0.3916548192501068
0.8853411674499512 0.3272824287414551 0.500461995601654
0.7663820385932922 0.25477442145347595 0.4392608404159546
0.7629892826080322 0.3494434356689453 0.5381022691726685
0.6976467370986938 0.33934417366981506 0.41918960213661194
0.8445140719413757 0.19981281459331512 0.43618378043174744
0.7516201734542847 0.2067321389913559 0.4997516870498657
0.7859364748001099 0.15302596986293793 0.5031179785728455
0.688465416431427 0.251394659280777 0.3828047513961792
0.8428038358688354 0.15195129811763763 0.47817617654800415
0.8076937794685364 0.19838210940361023 0.4721907675266266
0.8509644269943237 0.1320805847644806 0.4984660744667053
0.7585335969924927 0.2608923316001892 0.4591820240020752
0.8203291296958923 0.28156590461730957 0.4993773102760315
0.8110807538032532 0.1848425716161728 0.3752465546131134
0.7996171116828918 0.21767042577266693 0.5038353800773621
0.7457374930381775 0.13877639174461365 0.3939143121242523
0.7384173274040222 0.29681333899497986 0.39380088448524475
0.7964146137237549 0.21909163892269135 0.5398924350738525
0.8486533761024475 0.34080082178115845 0.5399985909461975
0.8198622465133667 0.16901728510856628 0.4930815100669861
0.8815513849258423 0.31087377667427063 0.527737557888031
0.8436176776885986 0.28360867500305176 0.4836154282093048
0.758205235004425 0.13184486329555511 0.43673673272132874
0.846640944480896 0.2001384049654007 0.43821778893470764
0.791096031665802 0.29022571444511414 0.5229030251502991
0.7166396379470825 0.1444416344165802 0.4251304566860199
0.7984345555305481 0.1925242692232132 0.4953647255897522
0.7525879740715027 0.3509868085384369 0.549851655960083
0.7113105654716492 0.2022741287946701 0.5199573636054993
0.8713732957839966 0.20123951137065887 0.4357292652130127
0.7785801887512207 0.166731595993042 0.4954165816307068
0.7123616337776184 0.17345499992370605 0.4271826148033142
0.8537924289703369 0.33770552277565 0.5261772871017456
0.8637855648994446 0.2477211356163025 0.3629986345767975
0.855684757232666 0.23213066160678864 0.45861440896987915
0.717033326625824 0.27288195490837097 0.4272167384624481
0.721163272857666 0.2945629954338074 0.4291236400604248
0.8208136558532715 0.14258119463920593 0.575238049030304
0.8342365026473999 0.15002715587615967 0.432927668094635
0.7628769278526306 0.16301725804805756 0.5153108835220337
0.8072023987770081 0.3341868221759796 0.5383761525154114
0.7043442726135254 0.16829708218574524 0.5059977769851685
0.7385482788085938 0.23186711966991425 0.5602298378944397
0.6891897916793823 0.24463777244091034 0.3967263996601105
0.8076742887496948 0.1445656269788742 0.41981086134910583
0.7774903178215027 0.3016497492790222 0.46094951033592224
0.7607489824295044 0.2902037799358368 0.5103309154510498
0.747851550579071 0.1909858137369156 0.4286651909351349
0.7791099548339844 0.2901950180530548 0.5128827691078186
0.7128604650497437 0.209443598985672 0.5192144513130188
0.8003168702125549 0.28247183561325073 0.4524655044078827
0.683522641658783 0.1884458214044571 0.4164596199989319
0.8374147415161133 0.23752917349338531 0.5286279320716858
0.7361426949501038 0.24245038628578186 0.5022001266479492
0.7060086727142334 0.28704413771629333 0.37056082487106323
0.8365427255630493 0.2714345157146454 0.4819319546222687
0.868937075138092 0.19145625829696655 0.5678324699401855
0.786850094795227 0.21183229982852936 0.46942704916000366
0.7936943173408508 0.293290376663208 0.39641284942626953
0.8826208114624023 0.23587045073509216 0.5600658655166626
0.8640128374099731 0.16623055934906006 0.5552560687065125
0.7866612076759338 0.28532537817955017 0.46678993105888367
0.832995593547821 0.28905612230300903 0.4085887372493744
0.8505551218986511 0.1339414119720459 0.43842169642448425
0.8349824547767639 0.17926324903964996 0.43206268548965454
0.8510497212409973 0.27836301922798157 0.39557623863220215
0.7655811905860901 0.20238368213176727 0.5204170942306519
0.839424192905426 0.15717487037181854 0.549374520778656
0.7739313840866089 0.325543612241745 0.4074116051197052
0.7590895891189575 0.2325008064508438 0.38395825028419495
0.7180563807487488 0.328537255525589 0.5293576717376709
0.7472482919692993 0.3271763026714325 0.3933601677417755
0.8063924312591553 0.296494722366333 0.5020650029182434
0.7279201745986938 0.21181297302246094 0.5298294425010681
0.8071509003639221 0.1704467535018921 0.3979930579662323
0.7117660641670227 0.14067351818084717 0.44367849826812744
0.7996171116828918 0.21767042577266693 0.5038353800773621
0.7457374930381775 0.13877639174461365 0.3939143121242523
0.7618258595466614 0.300031840801239 0.5346322655677795
0.7616158127784729 0.2924440801143646 0.4585081934928894
0.8164882659912109 0.1400722861289978 0.5423431992530823
0.8476021885871887 0.12846998870372772 0.4617595672607422
0.8423115611076355 0.25430500507354736 0.43566733598709106
0.7431870102882385 0.2563546299934387 0.5433024764060974
0.8739672303199768 0.12985943257808685 0.4296896457672119
0.8461807370185852 0.19212180376052856 0.4018809199333191
0.8387156128883362 0.31946685910224915 0.4100661277770996
0.7370821237564087 0.1752786934375763 0.5100700855255127
0.8514544367790222 0.26702138781547546 0.36956918239593506
0.7699203491210938 0.1390552669763565 0.4063675105571747
0.778012216091156 0.1328190118074417 0.4641018807888031
0.8520626425743103 0.20888379216194153 0.38383063673973083
0.7525879740715027 0.3509868085384369 0.549851655960083
0.7113105654716492 0.2022741287946701 0.5199573636054993
0.8713732957839966 0.20123951137065887 0.4357292652130127
0.7785801887512207 0.166731595993042 0.4954165816307068
0.8529037833213806 0.1433226615190506 0.5619885325431824
0.8553143739700317 0.12575773894786835 0.3810276687145233
0.8571314215660095 0.14694756269454956 0.5228292346000671
0.7129414081573486 0.26376789808273315 0.5353688597679138
0.7442665696144104 0.1538046896457672 0.558594286441803
0.7874744534492493 0.19210177659988403 0.5218755006790161
0.7712234854698181 0.30039674043655396 0.3812325596809387
0.7018052339553833 0.2647846043109894 0.423809677362442
0.7116771340370178 0.2440740168094635 0.565891683101654
0.7060649394989014 0.2476566731929779 0.4998210072517395
0.8506299257278442 0.22264593839645386 0.5379984974861145
0.7727505564689636 0.262149840593338 0.4358518123626709
0.7075914740562439 0.15006673336029053 0.3924999237060547
0.8261163234710693 0.3394465148448944 0.5128569006919861
0.8553852438926697 0.30903834104537964 0.5336960554122925
0.7317063808441162 0.1508255898952484 0.5276238918304443
0.8444989919662476 0.17005863785743713 0.4822431206703186
0.8237283229827881 0.2398156225681305 0.3694678246974945
0.7288033366203308 0.2728106677532196 0.37888088822364807
0.7584421038627625 0.1730450838804245 0.5636096000671387
0.7782881259918213 0.20519915223121643 0.5683782696723938
0.714404284954071 0.3107503652572632 0.39529791474342346
0.8789792656898499 0.2172575443983078 0.4223669171333313
0.8656454682350159 0.3054993152618408 0.4835810363292694
0.7616672515869141 0.22902770340442657 0.5354812145233154
0.856987714767456 0.15841276943683624 0.56458580493927
0.7325904369354248 0.21410830318927765 0.4831216037273407
0.8690040707588196 0.24021193385124207 0.3836480379104614
0.7046213150024414 0.23669017851352692 0.5038692951202393
0.8475794196128845 0.2940766215324402 0.38837409019470215
0.7552322745323181 0.32578301429748535 0.531769335269928
0.7420408725738525 0.22289913892745972 0.4931756556034088
0.7261655926704407 0.20725661516189575 0.40986964106559753
0.8714284300804138 0.16883356869220734 0.4278344213962555
0.7216663360595703 0.2763301730155945 0.47413402795791626
0.7156778573989868 0.3144685924053192 0.40254873037338257
0.8388765454292297 0.23091033101081848 0.5472778081893921
0.8293598890304565 0.19653035700321198 0.45729777216911316
0.7211199998855591 0.2654278576374054 0.3751317262649536
0.8634505867958069 0.19392934441566467 0.473090797662735
0.8838207125663757 0.2307405024766922 0.5628142356872559
0.696576714515686 0.25553181767463684 0.4140237271785736
0.6892694234848022 0.19574233889579773 0.5537031888961792
0.81117182970047 0.19872364401817322 0.43048736453056335
0.8351003527641296 0.15370532870292664 0.4001961350440979
0.8201531171798706 0.2775641679763794 0.5380865335464478
0.8251020908355713 0.2926231622695923 0.37346798181533813
0.8492442965507507 0.20425088703632355 0.3764335513114929
0.7798326015472412 0.3262171745300293 0.517433762550354
0.8596197366714478 0.1781170666217804 0.5220867395401001
0.7787408828735352 0.18766628205776215 0.5544779300689697
0.8234180212020874 0.24575652182102203 0.5060351490974426
0.7333588004112244 0.33310195803642273 0.5211976766586304
0.8592681288719177 0.162574902176857 0.5223292708396912
0.8243021368980408 0.23522938787937164 0.5340752601623535
0.7778459787368774 0.25772953033447266 0.47836682200431824
0.6943173408508301 0.32808661460876465 0.4091990292072296
0.837899386882782 0.18017441034317017 0.4703180491924286
0.8743867874145508 0.2229481190443039 0.5052110552787781
0.8369346857070923 0.19567783176898956 0.40123996138572693
0.7209855318069458 0.3280094861984253 0.45747897028923035
0.7458265423774719 0.2170053869485855 0.4625319540500641
0.7407181859016418 0.31326398253440857 0.5012350082397461
0.8579093813896179 0.16603106260299683 0.42846959829330444
0.8034828305244446 0.13258987665176392 0.491232693195343
0.7265260219573975 0.34894511103630066 0.5172309279441833
0.8716070055961609 0.20529064536094666 0.5505433678627014
0.7097076773643494 0.23131878674030304 0.4479975998401642
0.7847992181777954 0.22372344136238098 0.4684993326663971
0.7990671992301941 0.18922515213489532 0.4453662931919098
0.7182007431983948 0.12909145653247833 0.4013780653476715
0.8737667202949524 0.2857818305492401 0.36764195561408997
0.7202784419059753 0.1797097772359848 0.57664555311203
0.6939380168914795 0.24422937631607056 0.4678087532520294
0.7112133502960205 0.3239457607269287 0.3680182993412018
0.8012121319770813 0.23846881091594696 0.3949804902076721
0.8453596234321594 0.17183639109134674 0.475458025932312
0.8343135118484497 0.1911839097738266 0.46168649196624756
0.7649762034416199 0.3170870840549469 0.5415838360786438
0.8575328588485718 0.1773255616426468 0.379486083984375
0.7331081032752991 0.23024104535579681 0.4439048767089844
0.7719972729682922 0.23310014605522156 0.5123112797737122
0.867978572845459 0.22573035955429077 0.5487626194953918
0.7013755440711975 0.20708446204662323 0.4442429840564728
0.8367699980735779 0.2724827527999878 0.4871724247932434
0.7355484962463379 0.142511785030365 0.4900410771369934
0.8831354379653931 0.28230100870132446 0.4239462912082672
0.794592559337616 0.142762690782547 0.4621638059616089
0.7962988018989563 0.23892824351787567 0.46168962121009827
0.7174299359321594 0.17403565347194672 0.4023597538471222
0.8378843069076538 0.22606328129768372 0.46488213539123535
0.7816373109817505 0.2845776379108429 0.3768235743045807
0.7365247011184692 0.26075711846351624 0.4514980614185333
0.7669299244880676 0.14347486197948456 0.5375058054924011
0.7533631324768066 0.18508578836917877 0.3966725766658783
0.8132690191268921 0.19468066096305847 0.4858495593070984
0.7727505564689636 0.262149840593338 0.4358518123626709
0.8716070055961609 0.20529064536094666 0.5505433678627014
0.7097076773643494 0.23131878674030304 0.4479975998401642
0.7847992181777954 0.22372344136238098 0.4684993326663971
0.7990671992301941 0.18922515213489532 0.4453662931919098
0.7182007431983948 0.12909145653247833 0.4013780653476715
0.8737667202949524 0.2857818305492401 0.36764195561408997
0.7202784419059753 0.1797097772359848 0.57664555311203
0.7103400230407715 0.3223538100719452 0.4849488139152527
0.8342878818511963 0.14433890581130981 0.5150441527366638
0.7676396369934082 0.18705375492572784 0.5305494666099548
0.7580909132957458 0.3014709949493408 0.39487168192863464
0.6987059712409973 0.19946298003196716 0.43069183826446533
0.7696647047996521 0.3188230097293854 0.4597932994365692
0.8601459860801697 0.3227175772190094 0.4306398332118988
0.8641392588615417 0.3221396505832672 0.508196234703064
0.7136727571487427 0.19260971248149872 0.4537371098995209
0.7381199598312378 0.23916102945804596 0.5241866111755371
0.7849897146224976 0.15022291243076324 0.3889092206954956
0.7685174345970154 0.28316715359687805 0.5031888484954834
0.799875020980835 0.2037121057510376 0.5130224823951721
0.7282193303108215 0.3407292366027832 0.5360139012336731
0.8481084108352661 0.17803797125816345 0.5530829429626465
0.7851186990737915 0.2403152883052826 0.46516793966293335
0.78890061378479 0.1681474894285202 0.5123832821846008
0.755286693572998 0.17562687397003174 0.41153740882873535
0.8378843069076538 0.22606328129768372 0.46488213539123535
0.7816373109817505 0.2845776379108429 0.3768235743045807
0.7365247011184692 0.26075711846351624 0.4514980614185333
0.7669299244880676 0.14347486197948456 0.5375058054924011
0.7533631324768066 0.18508578836917877 0.3966725766658783
0.8132690191268921 0.19468066096305847 0.4858495593070984
0.7267411947250366 0.21709971129894257 0.4930870234966278
0.7148283123970032 0.3263450860977173 0.4047349989414215
0.7461636066436768 0.2340807318687439 0.512489378452301
0.8603400588035583 0.28784236311912537 0.3669545352458954
0.6935227513313293 0.24050451815128326 0.4367392361164093
0.7923003435134888 0.305409699678421 0.39933648705482483
0.8409019112586975 0.27321892976760864 0.5585643649101257
0.8620710968971252 0.22636140882968903 0.48996517062187195
0.6977264881134033 0.1549197882413864 0.45369935035705566
0.7051661610603333 0.31450819969177246 0.4647584557533264
0.8575680255889893 0.14222502708435059 0.4958747625350952
0.7288699746131897 0.20167751610279083 0.44688916206359863
0.7758569717407227 0.27486926317214966 0.3718445897102356
0.6984249949455261 0.28894978761672974 0.45548340678215027
0.8565118908882141 0.2321842461824417 0.520275890827179
0.7137899398803711 0.23932188749313354 0.5573186874389648
0.7486533522605896 0.20042793452739716 0.5613515973091125
0.8030810356140137 0.30628281831741333 0.41948390007019043
0.7778459787368774 0.25772953033447266 0.47836682200431824
0.6943173408508301 0.32808661460876465 0.4091990292072296
0.837899386882782 0.18017441034317017 0.4703180491924286
0.8743867874145508 0.2229481190443039 0.5052110552787781
0.8369346857070923 0.19567783176898956 0.40123996138572693
0.7209855318069458 0.3280094861984253 0.45747897028923035
0.7458265423774719 0.2170053869485855 0.4625319540500641
0.7407181859016418 0.31326398253440857 0.5012350082397461
0.8579093813896179 0.16603106260299683 0.42846959829330444
0.8195294737815857 0.2842485010623932 0.5200698971748352
0.7922642230987549 0.2171270102262497 0.3765551447868347
0.7084259986877441 0.31018126010894775 0.4164450466632843
0.8667596578598022 0.15894147753715515 0.415385365486145
0.7433033585548401 0.32787835597991943 0.46868476271629333
0.7866612076759338 0.28532537817955017 0.46678993105888367
0.7202784419059753 0.1797097772359848 0.57664555311203
0.7103400230407715 0.3223538100719452 0.4849488139152527
0.8342878818511963 0.14433890581130981 0.5150441527366638
0.7676396369934082 0.18705375492572784 0.5305494666099548
0.7580909132957458 0.3014709949493408 0.39487168192863464
0.6987059712409973 0.19946298003196716 0.43069183826446533
0.7696647047996521 0.3188230097293854 0.4597932994365692
0.6986945867538452 0.1840469390153885 0.5517402291297913
0.7577081918716431 0.12998519837856293 0.41068869829177856
0.7905799746513367 0.28396496176719666 0.35852017998695374
0.7380639314651489 0.2540980875492096 0.39792656898498535
0.6924604773521423 0.17851774394512177 0.569821298122406
0.8809129595756531 0.28179043531417847 0.4271196126937866
0.8509601354598999 0.3017796576023102 0.4617277979850769
0.784773051738739 0.20846553146839142 0.4738437831401825
0.7242727875709534 0.2582850158214569 0.541637659072876
0.8410916328430176 0.2315078228712082 0.4641610085964203
0.8485836386680603 0.22820700705051422 0.36638692021369934
0.7442821264266968 0.18533086776733398 0.534604012966156
0.8687010407447815 0.12429499626159668 0.3903481662273407
0.7240319848060608 0.26295486092567444 0.5144720077514648
0.8065980672836304 0.18413046002388 0.5566026568412781
0.7016473412513733 0.31904923915863037 0.5537046790122986
0.8773782253265381 0.19912874698638916 0.5161623358726501
0.7206710577011108 0.1965564638376236 0.4086631238460541
0.7861043810844421 0.14683161675930023 0.42584219574928284
0.8607498407363892 0.16845174133777618 0.38453707098960876
0.7646887302398682 0.18044915795326233 0.5036709904670715
0.7845656275749207 0.3369031846523285 0.4814004600048065
0.8009584546089172 0.3165864944458008 0.509610116481781
0.8390034437179565 0.23126325011253357 0.4159260392189026
0.832995593547821 0.28905612230300903 0.4085887372493744
0.8269413113594055 0.27633604407310486 0.44830384850502014
0.6913483142852783 0.14805053174495697 0.4558073878288269
0.8372761011123657 0.13922734558582306 0.4172733426094055
0.8489978313446045 0.17474417388439178 0.5262577533721924
0.739031970500946 0.2453019917011261 0.4011896848678589
0.7107369899749756 0.230916365981102 0.5353572368621826
0.7861260771751404 0.29500332474708557 0.4380318224430084
0.724793016910553 0.30511540174484253 0.38643333315849304
0.7953927516937256 0.3095484972000122 0.5486587882041931
0.6975614428520203 0.17629610002040863 0.48281723260879517
0.7173879146575928 0.19938036799430847 0.5150165557861328
0.846017062664032 0.2747091054916382 0.536532998085022
0.8305249810218811 0.33766964077949524 0.5512943267822266
0.785912036895752 0.1741049736738205 0.43328818678855896
0.7788531184196472 0.25575751066207886 0.4968889355659485
0.8790495991706848 0.17706644535064697 0.5389090180397034
0.7251247763633728 0.21897853910923004 0.4407159686088562
0.7399139404296875 0.32928967475891113 0.4804062247276306
0.7314454317092896 0.301700234413147 0.3799366056919098
0.73410564661026 0.15292857587337494 0.49379780888557434
0.7012960314750671 0.19363662600517273 0.5696775317192078
0.8259246349334717 0.3054201900959015 0.50773024559021
0.7406111359596252 0.31829723715782166 0.4778321087360382
0.685350775718689 0.22984930872917175 0.4609896242618561
0.7374449372291565 0.3209741711616516 0.5130429267883301
0.8094792366027832 0.17652972042560577 0.5241286158561707
0.8681216835975647 0.27221736311912537 0.4149671196937561
0.7875860929489136 0.3313775956630707 0.4612223505973816
0.7795376777648926 0.17317160964012146 0.3875565826892853
0.6971867084503174 0.30490174889564514 0.43418121337890625
0.7850909233093262 0.21535326540470123 0.47525566816329956
0.8668087124824524 0.15279267728328705 0.4241495430469513
0.7406314611434937 0.17173133790493011 0.5219507813453674
0.7648427486419678 0.27063825726509094 0.44852587580680847
0.7323195934295654 0.18300697207450867 0.4310076832771301
0.8488341569900513 0.15915043652057648 0.4665662944316864
0.7046405076980591 0.18364892899990082 0.4528885781764984
0.7733566761016846 0.13175995647907257 0.41154778003692627
0.8746486902236938 0.301699697971344 0.4559389054775238
0.8773804306983948 0.32501882314682007 0.47975125908851624
0.8663233518600464 0.23020878434181213 0.37676358222961426
0.8638715744018555 0.31267452239990234 0.39061594009399414
0.7792844772338867 0.30478405952453613 0.4469807744026184
0.8616099953651428 0.1343909353017807 0.433944970369339
0.8408243656158447 0.17547358572483063 0.4088537395000458
0.7340010404586792 0.284760981798172 0.44855204224586487
0.8737665414810181 0.31290698051452637 0.39601171016693115
0.7549875974655151 0.19737125933170319 0.5069609880447388
0.7755576968193054 0.17598587274551392 0.5583755373954773
0.7099708914756775 0.16222801804542542 0.4147605299949646
0.738458514213562 0.2896662652492523 0.42782843112945557
0.7864568829536438 0.2922278940677643 0.541651725769043
0.8254041075706482 0.272430419921875 0.3566650152206421
0.6946229338645935 0.16007699072360992 0.5361160039901733
0.8138477802276611 0.21976278722286224 0.5088077783584595
0.7228407859802246 0.1553933471441269 0.42854222655296326
0.7373363375663757 0.15703600645065308 0.459697961807251
0.8470579981803894 0.3223406970500946 0.41480234265327454
0.8314322233200073 0.23741230368614197 0.44514647126197815
0.8235087990760803 0.19858857989311218 0.5439079403877258
0.6994303464889526 0.317215234041214 0.49760258197784424
0.8437634110450745 0.21749061346054077 0.4661698341369629
0.8702482581138611 0.287738174200058 0.44705942273139954
0.7525879740715027 0.3509868085384369 0.549851655960083
0.8272924423217773 0.28220829367637634 0.4474624693393707
0.7305656671524048 0.3024929165840149 0.4859012961387634
0.8137331008911133 0.19652511179447174 0.4466826021671295
0.8859784007072449 0.2766909599304199 0.5317967534065247
0.7816373109817505 0.2845776379108429 0.3768235743045807
0.7365247011184692 0.26075711846351624 0.4514980614185333
0.7669299244880676 0.14347486197948456 0.5375058054924011
0.7533631324768066 0.18508578836917877 0.3966725766658783
0.8132690191268921 0.19468066096305847 0.4858495593070984
0.8435395956039429 0.21425513923168182 0.5329478979110718
0.8238662481307983 0.1923810988664627 0.565142810344696
0.8181818723678589 0.2954656183719635 0.4175117611885071
0.7250754833221436 0.3064655065536499 0.5341207981109619
0.7872189879417419 0.2017114907503128 0.4576914608478546
0.7690114974975586 0.18102136254310608 0.5676818490028381
0.7503460645675659 0.14585405588150024 0.4262840151786804
0.8485350608825684 0.23464006185531616 0.5005805492401123
0.8130224347114563 0.30892661213874817 0.351412832736969
0.8494157195091248 0.16868524253368378 0.4755757749080658
0.7893379926681519 0.2710540294647217 0.3733104169368744
0.751904308795929 0.16452810168266296 0.44497808814048767
0.8313128352165222 0.26379474997520447 0.3924270272254944
0.791909396648407 0.17703351378440857 0.5113261938095093
0.7740416526794434 0.2690044343471527 0.5116412043571472
0.7612333297729492 0.16879910230636597 0.5432094931602478
0.8550950884819031 0.3169756531715393 0.4402933418750763
0.8020215630531311 0.3034297227859497 0.41803696751594543
0.8034103512763977 0.13873887062072754 0.47802433371543884
0.8823931813240051 0.2972125709056854 0.4183192253112793
0.8418650031089783 0.22644352912902832 0.543471097946167
0.7426181435585022 0.28749820590019226 0.46982139348983765
0.6892694234848022 0.19574233889579773 0.5537031888961792
0.7792844772338867 0.30478405952453613 0.4469807744026184
0.7282193303108215 0.3407292366027832 0.5360139012336731
0.813959002494812 0.2556435465812683 0.38732120394706726
0.8323457837104797 0.1701957881450653 0.4495575428009033
0.7636707425117493 0.26522016525268555 0.4349566698074341
0.7802525758743286 0.20102578401565552 0.571334183216095
0.7098851203918457 0.24367262423038483 0.5467246770858765
0.8098165392875671 0.2434568852186203 0.432993620634079
0.8453301191329956 0.30672261118888855 0.39190882444381714
0.7364196181297302 0.2960644066333771 0.5361924171447754
0.7597073316574097 0.20920637249946594 0.3924308717250824
0.744864821434021 0.21838445961475372 0.5270853638648987
0.7690114974975586 0.18102136254310608 0.5676818490028381
0.7503460645675659 0.14585405588150024 0.4262840151786804
0.7229098081588745 0.22673732042312622 0.5458534359931946
0.8473142981529236 0.2333354651927948 0.4528104364871979
0.8369367718696594 0.16895443201065063 0.5608265995979309
0.8461862802505493 0.29034727811813354 0.3749394416809082
0.7005817294120789 0.30372652411460876 0.42157626152038574
0.8561163544654846 0.26968175172805786 0.40854912996292114
0.6967151761054993 0.240939199924469 0.483066201210022
0.7699881792068481 0.31957489252090454 0.4542675316333771
0.805597186088562 0.13429200649261475 0.49818623065948486
0.7378969788551331 0.26098379492759705 0.4252639412879944
0.8081071376800537 0.3113255500793457 0.5552613139152527
0.8756027221679688 0.16606393456459045 0.5111419558525085
0.8565895557403564 0.16686126589775085 0.44328880310058594
0.8250073790550232 0.3076353669166565 0.43802472949028015
0.7424735426902771 0.14495278894901276 0.4815385639667511
0.8858089447021484 0.31557992100715637 0.5454692840576172
0.7697253823280334 0.30572253465652466 0.4177840054035187
0.6892694234848022 0.19574233889579773 0.5537031888961792
0.7787408828735352 0.18766628205776215 0.5544779300689697
0.7396454215049744 0.3075052797794342 0.43681126832962036
0.8627578020095825 0.25302472710609436 0.4770435094833374
0.8704161047935486 0.1856323927640915 0.3719860911369324
0.8533100485801697 0.13426867127418518 0.5456990599632263
0.834556519985199 0.2509775757789612 0.503430962562561
0.8261202573776245 0.1661413162946701 0.5270012617111206
0.7472344636917114 0.2611960172653198 0.43418803811073303
0.8724955916404724 0.33668750524520874 0.5101969838142395
0.712973415851593 0.21807639300823212 0.44077762961387634
0.7309377193450928 0.1521977186203003 0.5649945735931396
0.8043451309204102 0.18749788403511047 0.4432368874549866
0.6911593675613403 0.2932201325893402 0.3936954140663147
0.8185521960258484 0.2546404004096985 0.41441553831100464
0.778357207775116 0.24889692664146423 0.4357492923736572
0.8313658833503723 0.13800682127475739 0.5160949230194092
0.8758665323257446 0.26667606830596924 0.3682507276535034
0.8203375935554504 0.14501871168613434 0.4589388370513916
0.8587588667869568 0.1611512005329132 0.5631728172302246
0.815453827381134 0.21215245127677917 0.49228325486183167
0.6847198009490967 0.3016834557056427 0.37465035915374756
0.8688204288482666 0.16940106451511383 0.37540027499198914
0.8671649694442749 0.2773594558238983 0.5213476419448853
0.7839459776878357 0.2670733630657196 0.40033575892448425
0.728664219379425 0.30242443084716797 0.4892401695251465
0.7620177268981934 0.16846390068531036 0.43472781777381897
0.8578895926475525 0.32957443594932556 0.48355263471603394
0.8240928649902344 0.312531054019928 0.44344162940979004
0.7899142503738403 0.31395280361175537 0.402475506067276
0.8383334875106812 0.1871711015701294 0.4194819927215576
0.7528296113014221 0.1290915608406067 0.3973201811313629
0.8516339659690857 0.1809331625699997 0.528194785118103
0.8743867874145508 0.2229481190443039 0.5052110552787781
0.8369346857070923 0.19567783176898956 0.40123996138572693
0.7209855318069458 0.3280094861984253 0.45747897028923035
0.7458265423774719 0.2170053869485855 0.4625319540500641
0.7407181859016418 0.31326398253440857 0.5012350082397461
0.8579093813896179 0.16603106260299683 0.42846959829330444
0.7839459776878357 0.2670733630657196 0.40033575892448425
0.728664219379425 0.30242443084716797 0.4892401695251465
0.7620177268981934 0.16846390068531036 0.43472781777381897
0.8578895926475525 0.32957443594932556 0.48355263471603394
0.8240928649902344 0.312531054019928 0.44344162940979004
0.7012960314750671 0.19363662600517273 0.5696775317192078
0.8259246349334717 0.3054201900959015 0.50773024559021
0.7699881792068481 0.31957489252090454 0.4542675316333771
0.805597186088562 0.13429200649261475 0.49818623065948486
0.7378969788551331 0.26098379492759705 0.4252639412879944
0.7408333420753479 0.24329914152622223 0.3936407268047333
0.8081071376800537 0.3113255500793457 0.5552613139152527
0.8756027221679688 0.16606393456459045 0.5111419558525085
0.8565895557403564 0.16686126589775085 0.44328880310058594
0.8250073790550232 0.3076353669166565 0.43802472949028015
0.7704091668128967 0.1834283471107483 0.5211614966392517
0.8823931813240051 0.2972125709056854 0.4183192253112793
0.8418650031089783 0.22644352912902832 0.543471097946167
0.7426181435585022 0.28749820590019226 0.46982139348983765
0.8046781420707703 0.16664016246795654 0.47430452704429626
0.8582708835601807 0.16021238267421722 0.3995547890663147
0.8134506940841675 0.17560797929763794 0.419720858335495
0.8744634389877319 0.18048220872879028 0.41931429505348206
0.7622678875923157 0.2893510162830353 0.3781578838825226
0.8623102307319641 0.188485249876976 0.47203680872917175
0.8711980581283569 0.3008190095424652 0.5087832808494568
0.8739257454872131 0.308683842420578 0.49276041984558105
0.8277679681777954 0.15232451260089874 0.39995455741882324
0.7413690090179443 0.2758539319038391 0.520782470703125
0.7914904356002808 0.3005346953868866 0.44163602590560913
0.8512595295906067 0.28708720207214355 0.357985258102417
0.7829221487045288 0.2614723742008209 0.46639224886894226
0.8361825942993164 0.2961379289627075 0.48875418305397034
0.8410110473632812 0.1301826536655426 0.4687304198741913
0.8305978178977966 0.24240820109844208 0.49504801630973816
0.7265909910202026 0.15088801085948944 0.5570269227027893
0.8029146790504456 0.30385419726371765 0.4511435329914093
0.6851292848587036 0.15279647707939148 0.38886532187461853
0.7347927093505859 0.21268801391124725 0.5267612934112549
0.7608946561813354 0.29653453826904297 0.48781895637512207
0.8810694217681885 0.2397797703742981 0.46000999212265015
0.7680689692497253 0.31976234912872314 0.5039408206939697
0.6924132704734802 0.2532694637775421 0.4240281283855438
0.8213849663734436 0.19018037617206573 0.5512286424636841
0.8663160800933838 0.3248382806777954 0.47602134943008423
0.7467015385627747 0.340414822101593 0.54853355884552
0.7840848565101624 0.31884241104125977 0.36271199584007263
0.8305259943008423 0.1383627951145172 0.504578173160553
0.8012018203735352 0.15647242963314056 0.4219034016132355
0.8353647589683533 0.31550779938697815 0.5208526849746704
0.6882709860801697 0.16140875220298767 0.42136266827583313
0.7131520509719849 0.204241544008255 0.477840781211853
0.7775130271911621 0.16333426535129547 0.5637877583503723
0.7477172613143921 0.28268715739250183 0.5565252304077148
0.7294907569885254 0.312477707862854 0.5337304472923279
0.8400142788887024 0.18715359270572662 0.5051433444023132
0.8439673185348511 0.17000716924667358 0.40547052025794983
0.8181818723678589 0.2954656183719635 0.4175117611885071
0.8149431347846985 0.2601734399795532 0.45353269577026367
0.813373327255249 0.2585074007511139 0.5466921925544739
0.7720828652381897 0.17313043773174286 0.39127615094184875
0.7907717823982239 0.2109895795583725 0.5079306364059448
0.718622088432312 0.15646731853485107 0.5300641059875488
0.848105251789093 0.19357851147651672 0.5293513536453247
0.8667445182800293 0.2511105239391327 0.4523142874240875
0.7746309041976929 0.3036814332008362 0.5085497498512268
0.7083976864814758 0.2937101125717163 0.41339045763015747
0.7928523421287537 0.1638999879360199 0.5475304126739502
0.8182332515716553 0.24312250316143036 0.37708529829978943
0.7887701392173767 0.14204011857509613 0.5031628012657166
0.7039603590965271 0.2515870928764343 0.4443206787109375
0.7190607786178589 0.2895219027996063 0.45814913511276245
0.8359112739562988 0.2173929512500763 0.5645194053649902
0.7294626235961914 0.15443949401378632 0.5587956309318542
0.8486735224723816 0.2746003270149231 0.45504507422447205
0.7616226673126221 0.16162416338920593 0.44150346517562866
0.8598408102989197 0.12333761155605316 0.4328361749649048
0.762618362903595 0.18713663518428802 0.4194581210613251
0.727867603302002 0.2036314457654953 0.5220322608947754
0.7842373847961426 0.3256884217262268 0.5439517498016357
0.852966845035553 0.2587292790412903 0.41912636160850525
0.8222692608833313 0.19765745103359222 0.48358288407325745
0.7650395035743713 0.16767452657222748 0.45734110474586487
0.7281801700592041 0.3313494026660919 0.4734348654747009
0.7022449374198914 0.21441878378391266 0.4860471189022064
0.743834376335144 0.27946823835372925 0.49646368622779846
0.8481785655021667 0.1863073706626892 0.5198994874954224
0.8056084513664246 0.2702002227306366 0.4084315896034241
0.7200229167938232 0.2773846387863159 0.514379620552063
0.7888243794441223 0.26783499121665955 0.5552159547805786
0.8149431347846985 0.2601734399795532 0.45353269577026367
0.813373327255249 0.2585074007511139 0.5466921925544739
0.7720828652381897 0.17313043773174286 0.39127615094184875
0.7907717823982239 0.2109895795583725 0.5079306364059448
0.718622088432312 0.15646731853485107 0.5300641059875488
0.848105251789093 0.19357851147651672 0.5293513536453247
0.8667445182800293 0.2511105239391327 0.4523142874240875
0.7746309041976929 0.3036814332008362 0.5085497498512268
0.7083976864814758 0.2937101125717163 0.41339045763015747
0.7928523421287537 0.1638999879360199 0.5475304126739502
0.8182332515716553 0.24312250316143036 0.37708529829978943
0.7887701392173767 0.14204011857509613 0.5031628012657166
0.7039603590965271 0.2515870928764343 0.4443206787109375
0.8507166504859924 0.18022996187210083 0.4756278097629547
0.7398976683616638 0.30470845103263855 0.419597864151001
0.830609917640686 0.33344006538391113 0.5113382339477539
0.7099776864051819 0.1342625468969345 0.39275169372558594
0.7757689356803894 0.25992515683174133 0.3687213957309723
0.7741055488586426 0.2249346524477005 0.38655075430870056
0.739510178565979 0.29395967721939087 0.5152290463447571
0.7417428493499756 0.18227539956569672 0.3823435306549072
0.760995626449585 0.2251553237438202 0.5650638937950134
0.8264414668083191 0.18599456548690796 0.5078567266464233
0.7231853604316711 0.15639251470565796 0.5556350946426392
0.7976341843605042 0.29584431648254395 0.4934254288673401
0.8630961179733276 0.1439393013715744 0.40237823128700256
0.852421224117279 0.23549126088619232 0.3822215497493744
0.7416521310806274 0.2016841471195221 0.5015056729316711
0.7854112982749939 0.3005027174949646 0.37217575311660767
0.8035272359848022 0.15904167294502258 0.5645959973335266
0.7423003315925598 0.25087684392929077 0.38506168127059937
0.7844510674476624 0.30051136016845703 0.39328113198280334
0.8311716914176941 0.15367063879966736 0.5460630655288696
0.7921845316886902 0.23938363790512085 0.43349987268447876
0.6948097348213196 0.19772319495677948 0.5730945467948914
0.8582873940467834 0.17725631594657898 0.3958071172237396
0.7860256433486938 0.19858519732952118 0.4963872730731964
0.7151581048965454 0.24588899314403534 0.41375717520713806
0.8547213077545166 0.2821159362792969 0.4059150815010071
0.7797778844833374 0.2900769114494324 0.5205971002578735
0.7830559611320496 0.165524423122406 0.5606462955474854
0.8278506398200989 0.2518797814846039 0.4596131443977356
0.7735550999641418 0.2372516542673111 0.4828105866909027
0.750033974647522 0.2742132246494293 0.3840720057487488
0.7561865448951721 0.33254125714302063 0.5464383363723755
0.8451399207115173 0.25403469800949097 0.5225775241851807
0.7442919611930847 0.3460809290409088 0.5220361351966858
0.8619334101676941 0.3145153820514679 0.37419992685317993
0.7014172673225403 0.2862771153450012 0.47335144877433777
0.7163549065589905 0.28888246417045593 0.467111736536026
0.6902666687965393 0.21309293806552887 0.4296732246875763
0.8600528240203857 0.3144281208515167 0.519571840763092
0.6984148621559143 0.20536531507968903 0.4578250050544739
0.7448211312294006 0.2609712481498718 0.5195522308349609
0.8207816481590271 0.25697067379951477 0.5082111954689026
0.8399268388748169 0.17275357246398926 0.45889538526535034
0.7452130317687988 0.22751200199127197 0.40477874875068665
0.7003064751625061 0.1809932291507721 0.46764227747917175
0.8169000148773193 0.2674611210823059 0.42030206322669983
0.7721565365791321 0.12702755630016327 0.3946976065635681
0.8295269012451172 0.2324731945991516 0.5611000657081604
0.7893383502960205 0.2724859118461609 0.4073065519332886
0.7444671392440796 0.2948143482208252 0.37532785534858704
0.7251247763633728 0.21897853910923004 0.4407159686088562
0.8595877289772034 0.2481800764799118 0.4713898003101349
0.6816129684448242 0.1714356690645218 0.4671616554260254
0.8685575127601624 0.21906457841396332 0.5152799487113953
0.6830681562423706 0.23022006452083588 0.385332316160202
0.6887739896774292 0.18446464836597443 0.4012703001499176
0.7878602147102356 0.23177635669708252 0.39726996421813965
0.734842836856842 0.27143922448158264 0.3759094476699829
0.8243001103401184 0.33368954062461853 0.5512616634368896
0.7662530541419983 0.3248421847820282 0.3789483308792114
0.683840274810791 0.177286297082901 0.39783334732055664
0.8329932689666748 0.26413846015930176 0.46334466338157654
0.696229100227356 0.3001974821090698 0.427704393863678
0.6959440112113953 0.2789728343486786 0.49765774607658386
0.7464045882225037 0.28762897849082947 0.4373149275779724
0.781818151473999 0.2571955621242523 0.4931250810623169
0.7225527167320251 0.14842846989631653 0.5042874217033386
0.7257357835769653 0.17493084073066711 0.47719892859458923
0.7526063323020935 0.27281132340431213 0.5314661860466003
0.8100945353507996 0.17006847262382507 0.47733187675476074
0.860657811164856 0.22880659997463226 0.45074787735939026
0.7430136203765869 0.14903190732002258 0.5562426447868347
0.8717873692512512 0.2312006950378418 0.49633821845054626
0.7301549911499023 0.2735927402973175 0.41855376958847046
0.7954723834991455 0.18043042719364166 0.5372597575187683
0.7917243242263794 0.264803409576416 0.5204471349716187
0.7077893018722534 0.3282572627067566 0.39772486686706543
0.8652259111404419 0.2883196175098419 0.5278707146644592
0.8628052473068237 0.2378862202167511 0.5114356875419617
0.7172538638114929 0.31496286392211914 0.5508318543434143
0.7561447024345398 0.2949863374233246 0.5171694159507751
0.7045437097549438 0.1701083779335022 0.5429519414901733
0.8130224347114563 0.30892661213874817 0.351412832736969
0.7775130271911621 0.16333426535129547 0.5637877583503723
0.7477172613143921 0.28268715739250183 0.5565252304077148
0.7294907569885254 0.312477707862854 0.5337304472923279
0.8400142788887024 0.18715359270572662 0.5051433444023132
0.8439673185348511 0.17000716924667358 0.40547052025794983
0.751275360584259 0.22205030918121338 0.4728493094444275
0.751275360584259 0.22205030918121338 0.4728493094444275
0.8161443471908569 0.1490238457918167 0.5131277441978455
0.727180540561676 0.15617863833904266 0.43881386518478394
0.8753315806388855 0.32034170627593994 0.4176574945449829
0.8487799167633057 0.20520292222499847 0.40282708406448364
0.8595877289772034 0.2481800764799118 0.4713898003101349
0.6816129684448242 0.1714356690645218 0.4671616554260254
0.8685575127601624 0.21906457841396332 0.5152799487113953
0.6830681562423706 0.23022006452083588 0.385332316160202
0.6887739896774292 0.18446464836597443 0.4012703001499176
0.6887739896774292 0.18446464836597443 0.4012703001499176
0.7414236068725586 0.2754867672920227 0.38678714632987976
0.7930080890655518 0.3236178457736969 0.5456405878067017
0.7701817154884338 0.17110934853553772 0.5586862564086914
0.8421047925949097 0.19169537723064423 0.39276981353759766
0.7169274687767029 0.2755279541015625 0.4929662048816681
0.696229100227356 0.3001974821090698 0.427704393863678
0.6959440112113953 0.2789728343486786 0.49765774607658386
0.7464045882225037 0.28762897849082947 0.4373149275779724
0.781818151473999 0.2571955621242523 0.4931250810623169
0.7225527167320251 0.14842846989631653 0.5042874217033386
0.7257357835769653 0.17493084073066711 0.47719892859458923
0.7526063323020935 0.27281132340431213 0.5314661860466003
0.8100945353507996 0.17006847262382507 0.47733187675476074
0.860657811164856 0.22880659997463226 0.45074787735939026
0.8130224347114563 0.30892661213874817 0.351412832736969
0.8100945353507996 0.17006847262382507 0.47733187675476074
0.860657811164856 0.22880659997463226 0.45074787735939026
0.7430136203765869 0.14903190732002258 0.5562426447868347
0.8717873692512512 0.2312006950378418 0.49633821845054626
0.7301549911499023 0.2735927402973175 0.41855376958847046
0.7954723834991455 0.18043042719364166 0.5372597575187683
0.7917243242263794 0.264803409576416 0.5204471349716187
0.7077893018722534 0.3282572627067566 0.39772486686706543
0.8652259111404419 0.2883196175098419 0.5278707146644592
0.8628052473068237 0.2378862202167511 0.5114356875419617
0.7172538638114929 0.31496286392211914 0.5508318543434143
0.7561447024345398 0.2949863374233246 0.5171694159507751
0.8780245780944824 0.31970536708831787 0.4417628347873688
0.8111717700958252 0.24419227242469788 0.4663980007171631
0.8787408471107483 0.23450307548046112 0.4985741674900055
0.8206138014793396 0.30393803119659424 0.5212364196777344
0.746516764163971 0.30115875601768494 0.5379868149757385
0.7089213132858276 0.3065994083881378 0.4761826694011688
0.7005638480186462 0.1787872016429901 0.5189191102981567
0.7042657136917114 0.3404213488101959 0.5111660361289978
0.782809853553772 0.21801574528217316 0.5110582709312439
0.7879485487937927 0.27695831656455994 0.506734311580658
0.7604403495788574 0.19792398810386658 0.40854454040527344
0.7694177031517029 0.18542839586734772 0.5288349390029907
0.7563576102256775 0.2848777174949646 0.49019157886505127
0.7138218283653259 0.18787354230880737 0.4718486964702606
0.8844135999679565 0.30113840103149414 0.43264830112457275
0.823435366153717 0.1851193606853485 0.44041287899017334
0.8676502704620361 0.31098324060440063 0.4070509672164917
0.8612428307533264 0.2304234504699707 0.479036420583725
0.7538471221923828 0.17552834749221802 0.5647662281990051
0.7268585562705994 0.18593278527259827 0.42401760816574097
0.781818151473999 0.2571955621242523 0.4931250810623169
0.7225527167320251 0.14842846989631653 0.5042874217033386
0.7257357835769653 0.17493084073066711 0.47719892859458923
0.7526063323020935 0.27281132340431213 0.5314661860466003
0.8100945353507996 0.17006847262382507 0.47733187675476074
0.860657811164856 0.22880659997463226 0.45074787735939026
0.7430136203765869 0.14903190732002258 0.5562426447868347
0.8717873692512512 0.2312006950378418 0.49633821845054626
0.7301549911499023 0.2735927402973175 0.41855376958847046
0.7954723834991455 0.18043042719364166 0.5372597575187683
0.7917243242263794 0.264803409576416 0.5204471349716187
0.7077893018722534 0.3282572627067566 0.39772486686706543
0.8652259111404419 0.2883196175098419 0.5278707146644592
0.846214234828949 0.273460328578949 0.5198980569839478
0.7274896502494812 0.327488511800766 0.5253046154975891
0.8472897410392761 0.1699017882347107 0.377849817276001
0.7128050923347473 0.3115755319595337 0.3777402341365814
0.8814908862113953 0.31120362877845764 0.3540377914905548
0.8048222661018372 0.1503908634185791 0.5715314745903015
0.7440468072891235 0.13969382643699646 0.4166432023048401
0.7259402871131897 0.14659741520881653 0.42226582765579224
0.6924155354499817 0.248611718416214 0.5296475887298584
0.8187790513038635 0.2951951026916504 0.4162229001522064
0.7899991869926453 0.25126004219055176 0.38212183117866516
0.728317379951477 0.3308938443660736 0.4960371255874634
0.8000752329826355 0.2114364504814148 0.47365981340408325
0.8494769930839539 0.3076150715351105 0.5059396624565125
0.8822835683822632 0.1674305945634842 0.5649562478065491
0.8715059161186218 0.2304663211107254 0.5127395987510681
0.8283054232597351 0.2443983554840088 0.422793447971344
0.8361645340919495 0.2847594618797302 0.3741537630558014
0.8756027221679688 0.16606393456459045 0.5111419558525085
0.6879172325134277 0.18628700077533722 0.45068982243537903
0.8150913119316101 0.241728737950325 0.4626472592353821
0.7576167583465576 0.2678006887435913 0.5103607773780823
0.8830910921096802 0.28536665439605713 0.5571060180664062
0.7577950954437256 0.2132485806941986 0.5465827584266663
0.7339219450950623 0.1556018739938736 0.5485024452209473
0.7823682427406311 0.23761394619941711 0.5007227063179016
0.729594886302948 0.19627037644386292 0.41166090965270996
0.8669419884681702 0.3019610643386841 0.43739748001098633
0.7577430009841919 0.2630388140678406 0.48093339800834656
0.858827531337738 0.22411692142486572 0.4487136900424957
0.7587759494781494 0.20756162703037262 0.5261521935462952
0.7083798050880432 0.20760969817638397 0.5494881868362427
0.788056492805481 0.15782494843006134 0.47794413566589355
0.6986551880836487 0.26386746764183044 0.4423714876174927
0.7647091746330261 0.14884977042675018 0.3960130512714386
0.8370253443717957 0.1654161810874939 0.5561696290969849
0.8155717849731445 0.26855185627937317 0.5400533080101013
0.8605890274047852 0.15276548266410828 0.42531663179397583
0.6948500275611877 0.2576920688152313 0.5704686045646667
0.6782310009002686 0.16650640964508057 0.4424237608909607
0.8779846429824829 0.32745853066444397 0.45653313398361206
0.8313505053520203 0.12453176081180573 0.38858747482299805
0.7881613373756409 0.2731541693210602 0.5012826919555664
0.7740806341171265 0.17090463638305664 0.44797492027282715
0.6961795687675476 0.18512016534805298 0.41346752643585205
0.7257474064826965 0.17929059267044067 0.5539330244064331
0.7863556146621704 0.2253204584121704 0.4566940367221832
0.82074373960495 0.1585909128189087 0.5249617695808411
0.7900431156158447 0.30028748512268066 0.4594721496105194
0.8727153539657593 0.24362054467201233 0.3739625811576843
