ply
format ascii 1.0
element vertex 823
property float x
property float y
property float z
end_header
0.28033268451690674 0.2977141737937927 0.5990251302719116
0.35335636138916016 0.2679761052131653 0.6286092400550842
0.21236780285835266 0.1603088676929474 0.5758838057518005
0.3266046643257141 0.2586092948913574 0.5400384664535522
0.26601290702819824 0.19655516743659973 0.46762576699256897
0.2927844524383545 0.14035294950008392 0.49073198437690735
0.33721792697906494 0.23920276761054993 0.4417386054992676
0.2661551833152771 0.3195352554321289 0.5860759615898132
0.15670262277126312 0.2755786180496216 0.48385190963745117
0.27553555369377136 0.25178053975105286 0.4807867705821991
0.23720218241214752 0.13315829634666443 0.45144447684288025
0.21435005962848663 0.15125226974487305 0.4876621961593628
0.3028331398963928 0.17445731163024902 0.6232412457466125
0.19365844130516052 0.21129508316516876 0.5409438610076904
0.24813145399093628 0.15546764433383942 0.452445387840271
0.2950406074523926 0.3246878683567047 0.5988234877586365
0.16888359189033508 0.1612173169851303 0.5233254432678223
0.32431650161743164 0.3098989427089691 0.4546072781085968
0.3210146725177765 0.33789926767349243 0.6089785695075989
0.18500488996505737 0.1538834422826767 0.4846358895301819
0.1907326728105545 0.17994952201843262 0.622780442237854
0.27463647723197937 0.3273271918296814 0.5769829750061035
0.23204632103443146 0.2153862714767456 0.5374273657798767
0.24569633603096008 0.19155023992061615 0.5258428454399109
0.1925455927848816 0.18906007707118988 0.4612571597099304
0.34993669390678406 0.21662862598896027 0.5375306606292725
0.3526357114315033 0.23091299831867218 0.50958651304245
0.16441784799098969 0.2856779098510742 0.4856300950050354
0.2471495121717453 0.19486506283283234 0.5398032665252686
0.32730385661125183 0.1778591126203537 0.5003805756568909
0.17739622294902802 0.15546990931034088 0.5048545598983765
0.32575637102127075 0.22025232017040253 0.5727021098136902
0.33521443605422974 0.2332053929567337 0.5961377620697021
0.16729742288589478 0.20748671889305115 0.6043874621391296
0.1452520191669464 0.2977149784564972 0.4462115466594696
0.2349645346403122 0.18480566143989563 0.4937109649181366
0.22929294407367706 0.32471856474876404 0.5725051760673523
0.2004060447216034 0.22087441384792328 0.6135726571083069
0.16792435944080353 0.17949123680591583 0.5205069780349731
0.2442403882741928 0.2709408402442932 0.5662745833396912
0.16202467679977417 0.24510572850704193 0.44947749376296997
0.2329331338405609 0.30753135681152344 0.47343164682388306
0.35079294443130493 0.16043923795223236 0.5797091126441956
0.17143788933753967 0.16883814334869385 0.52256840467453
0.2119477540254593 0.27304232120513916 0.4996165633201599
0.2355121523141861 0.13653694093227386 0.5466378927230835
0.2082921415567398 0.27514392137527466 0.5268800258636475
0.33700892329216003 0.21045568585395813 0.43631216883659363
0.1875661015510559 0.24149708449840546 0.6002987623214722
0.2564501464366913 0.30287790298461914 0.5303135514259338
0.22162777185440063 0.19169078767299652 0.5293946862220764
0.3080920875072479 0.21832780539989471 0.6033737063407898
0.3594352900981903 0.19588613510131836 0.5357632637023926
0.36101722717285156 0.17195256054401398 0.5385723114013672
0.35417282581329346 0.24524416029453278 0.6201896667480469
0.29915788769721985 0.15208780765533447 0.4432050883769989
0.1975906789302826 0.12413332611322403 0.6376947164535522
0.3089047968387604 0.24541836977005005 0.5911810994148254
0.2947128713130951 0.25685155391693115 0.4850598871707916
0.20617781579494476 0.24488916993141174 0.4965759217739105
0.3616373538970947 0.1610543429851532 0.4306427240371704
0.16438616812229156 0.22222250699996948 0.4748998284339905
0.29414868354797363 0.31919050216674805 0.46267539262771606
0.25357505679130554 0.20794609189033508 0.6071434617042542
0.33736178278923035 0.21570831537246704 0.5343225598335266
0.20250092446804047 0.2512477934360504 0.5099470615386963
0.19952182471752167 0.17132049798965454 0.5165898203849792
0.2224164754152298 0.28268373012542725 0.5024486780166626
0.1536075621843338 0.2550594210624695 0.5427289605140686
0.21112166345119476 0.2635008990764618 0.5832422971725464
0.1974775493144989 0.14551053941249847 0.5732763409614563
0.28357040882110596 0.18090002238750458 0.5211668610572815
0.2963762581348419 0.1942255049943924 0.6182699203491211
0.15098556876182556 0.2625581622123718 0.48279738426208496
0.23674510419368744 0.2528698742389679 0.5945589542388916
0.20365136861801147 0.2972244620323181 0.5423153638839722
0.3155917525291443 0.2267323136329651 0.6080947518348694
0.16693460941314697 0.24322175979614258 0.5708787441253662
0.22239716351032257 0.16645017266273499 0.5479867458343506
0.3260556161403656 0.22575044631958008 0.5767102837562561
0.1596514731645584 0.1925966590642929 0.4372023940086365
0.34943926334381104 0.2036704421043396 0.5232979655265808
0.3154061734676361 0.25006476044654846 0.5336852073669434
0.18978813290596008 0.19929037988185883 0.5948184132575989
0.21587657928466797 0.20853030681610107 0.5222421288490295
0.3080112040042877 0.27431243658065796 0.527508556842804
0.3465895354747772 0.19767093658447266 0.5627924203872681
0.31010791659355164 0.2181987464427948 0.6237345337867737
0.19813193380832672 0.19526953995227814 0.5045885443687439
0.1858396828174591 0.20500797033309937 0.6016430854797363
0.27374717593193054 0.3217335343360901 0.552646815776825
0.16465750336647034 0.2692873179912567 0.5135228633880615
0.18651649355888367 0.31402742862701416 0.47199681401252747
0.28985917568206787 0.15362420678138733 0.4848982095718384
0.33691397309303284 0.22962608933448792 0.5384994745254517
0.17026874423027039 0.21110479533672333 0.5265101790428162
0.24576997756958008 0.17886221408843994 0.6137354969978333
0.3148307800292969 0.23820684850215912 0.4701003432273865
0.22332488000392914 0.2705155611038208 0.47290825843811035
0.1701425313949585 0.2261868566274643 0.5428953170776367
0.25483009219169617 0.3218457102775574 0.5173435211181641
0.2935689389705658 0.3196154832839966 0.621537983417511
0.256451278924942 0.15701799094676971 0.45698028802871704
0.17299164831638336 0.21623606979846954 0.6121289134025574
0.169413223862648 0.289277046918869 0.572767436504364
0.17819279432296753 0.28325480222702026 0.4905998408794403
0.3596571385860443 0.19478574395179749 0.4536992013454437
0.1812668889760971 0.2379705011844635 0.5765378475189209
0.1612144410610199 0.298629492521286 0.611210823059082
0.28619468212127686 0.138602152466774 0.5506811738014221
0.16170120239257812 0.2477571815252304 0.5546478629112244
0.3040192127227783 0.14470376074314117 0.6206181049346924
0.25331220030784607 0.3070271909236908 0.580060601234436
0.3557388186454773 0.20462769269943237 0.580810010433197
0.24511122703552246 0.1596643179655075 0.6130131483078003
0.21806056797504425 0.31889399886131287 0.5715546607971191
0.2792971134185791 0.1667066067457199 0.5765814185142517
0.2683751881122589 0.26262006163597107 0.6290122866630554
0.1797916740179062 0.272216796875 0.5751710534095764
0.3062770366668701 0.2464892715215683 0.5892967581748962
0.2854072153568268 0.3215639889240265 0.6091337203979492
0.32671013474464417 0.198698028922081 0.6283410787582397
0.28529834747314453 0.29100897908210754 0.46477076411247253
0.3364672064781189 0.25487974286079407 0.5648288130760193
0.32643094658851624 0.333675354719162 0.5640914440155029
0.2591448724269867 0.1972581446170807 0.48685792088508606
0.30853986740112305 0.2504771053791046 0.46561184525489807
0.1960207223892212 0.24330292642116547 0.6289708018302917
0.17887869477272034 0.202707901597023 0.6070502996444702
0.2546279728412628 0.2193766087293625 0.5214934945106506
0.26310691237449646 0.328281432390213 0.5944005846977234
0.14979469776153564 0.24726217985153198 0.4626956284046173
0.20543132722377777 0.14853443205356598 0.5098339915275574
0.2922053337097168 0.21477973461151123 0.4784330427646637
0.2851751148700714 0.3063511550426483 0.5174275636672974
0.29241064190864563 0.2580890953540802 0.5349577069282532
0.2464129775762558 0.20847871899604797 0.5668871998786926
0.3048039972782135 0.17196740210056305 0.5235823392868042
0.33700692653656006 0.2593810260295868 0.46485546231269836
0.20564334094524384 0.26387473940849304 0.5290165543556213
0.33386093378067017 0.28454622626304626 0.4824596047401428
0.3056832551956177 0.2468612939119339 0.5950455665588379
0.23608984053134918 0.15170519053936005 0.6231362819671631
0.19127020239830017 0.3094995319843292 0.5985444784164429
0.3649483919143677 0.1693960726261139 0.5047742128372192
0.29751649498939514 0.3363420367240906 0.6063689589500427
0.18701045215129852 0.16720494627952576 0.6150521636009216
0.3134784996509552 0.2784721851348877 0.5501670241355896
0.27057531476020813 0.22842831909656525 0.5568572878837585
0.27057531476020813 0.22842831909656525 0.5568572878837585
0.2027595341205597 0.13662488758563995 0.4531801640987396
0.31905579566955566 0.14755570888519287 0.6142140626907349
0.21831779181957245 0.29557880759239197 0.6025394797325134
0.20729777216911316 0.18135473132133484 0.614398181438446
0.19211114943027496 0.22395941615104675 0.5803592801094055
0.3345687985420227 0.21646402776241302 0.5480160117149353
0.29756197333335876 0.3326035737991333 0.5933279395103455
0.1876329779624939 0.16215750575065613 0.6326632499694824
0.2700763940811157 0.3301497995853424 0.6035335659980774
0.3304252624511719 0.3010844886302948 0.5515612959861755
0.17812342941761017 0.16264469921588898 0.6332569122314453
0.30305731296539307 0.23705990612506866 0.5070973634719849
0.2327200472354889 0.20160715281963348 0.45476284623146057
0.3165745735168457 0.16799476742744446 0.6044003963470459
0.30562838912010193 0.20955470204353333 0.5850405693054199
0.22977453470230103 0.24350754916667938 0.5005001425743103
0.23608984053134918 0.15170519053936005 0.6231362819671631
0.19127020239830017 0.3094995319843292 0.5985444784164429
0.3649483919143677 0.1693960726261139 0.5047742128372192
0.29751649498939514 0.3363420367240906 0.6063689589500427
0.18701045215129852 0.16720494627952576 0.6150521636009216
0.18701045215129852 0.16720494627952576 0.6150521636009216
0.3134784996509552 0.2784721851348877 0.5501670241355896
0.27057531476020813 0.22842831909656525 0.5568572878837585
0.2027595341205597 0.13662488758563995 0.4531801640987396
0.31905579566955566 0.14755570888519287 0.6142140626907349
0.19196252524852753 0.3047046959400177 0.592458188533783
0.16792435944080353 0.17949123680591583 0.5205069780349731
0.30609264969825745 0.23410357534885406 0.6010239720344543
0.29356274008750916 0.14942413568496704 0.6094046831130981
0.3505755066871643 0.1991182118654251 0.542271614074707
0.3040192127227783 0.14470376074314117 0.6206181049346924
0.25331220030784607 0.3070271909236908 0.580060601234436
0.16585925221443176 0.2575685977935791 0.5319715738296509
0.3109967112541199 0.3356209695339203 0.5487479567527771
0.2265058308839798 0.22832542657852173 0.45151492953300476
0.2332489788532257 0.23971548676490784 0.6310440897941589
0.2854072153568268 0.3215639889240265 0.6091337203979492
0.32671013474464417 0.198698028922081 0.6283410787582397
0.28529834747314453 0.29100897908210754 0.46477076411247253
0.23958665132522583 0.21879367530345917 0.4758237302303314
0.30041220784187317 0.2364087700843811 0.5382708311080933
0.25357505679130554 0.20794609189033508 0.6071434617042542
0.33736178278923035 0.21570831537246704 0.5343225598335266
0.20250092446804047 0.2512477934360504 0.5099470615386963
0.19952182471752167 0.17132049798965454 0.5165898203849792
0.2224164754152298 0.28268373012542725 0.5024486780166626
0.22977453470230103 0.24350754916667938 0.5005001425743103
0.3649483919143677 0.1693960726261139 0.5047742128372192
0.18701045215129852 0.16720494627952576 0.6150521636009216
0.18701045215129852 0.16720494627952576 0.6150521636009216
0.3134784996509552 0.2784721851348877 0.5501670241355896
0.27057531476020813 0.22842831909656525 0.5568572878837585
0.2027595341205597 0.13662488758563995 0.4531801640987396
0.31223833560943604 0.17045097053050995 0.6280003786087036
0.19196252524852753 0.3047046959400177 0.592458188533783
0.16792435944080353 0.17949123680591583 0.5205069780349731
0.2442403882741928 0.2709408402442932 0.5662745833396912
0.16202467679977417 0.24510572850704193 0.44947749376296997
0.2329331338405609 0.30753135681152344 0.47343164682388306
0.35079294443130493 0.16043923795223236 0.5797091126441956
0.3040192127227783 0.14470376074314117 0.6206181049346924
0.25331220030784607 0.3070271909236908 0.580060601234436
0.16585925221443176 0.2575685977935791 0.5319715738296509
0.3109967112541199 0.3356209695339203 0.5487479567527771
0.2265058308839798 0.22832542657852173 0.45151492953300476
0.1797916740179062 0.272216796875 0.5751710534095764
0.3062770366668701 0.2464892715215683 0.5892967581748962
0.2854072153568268 0.3215639889240265 0.6091337203979492
0.32671013474464417 0.198698028922081 0.6283410787582397
0.28529834747314453 0.29100897908210754 0.46477076411247253
0.3364672064781189 0.25487974286079407 0.5648288130760193
0.3177174925804138 0.33637741208076477 0.5733803510665894
0.22804100811481476 0.2567920386791229 0.5043498873710632
0.25357505679130554 0.20794609189033508 0.6071434617042542
0.33736178278923035 0.21570831537246704 0.5343225598335266
0.20250092446804047 0.2512477934360504 0.5099470615386963
0.19952182471752167 0.17132049798965454 0.5165898203849792
0.2224164754152298 0.28268373012542725 0.5024486780166626
0.30757150053977966 0.23086445033550262 0.5741909742355347
0.1479777693748474 0.30698108673095703 0.44440901279449463
0.30925583839416504 0.20262770354747772 0.5317874550819397
0.3397812843322754 0.18519894778728485 0.6087176203727722
0.23755940794944763 0.32611337304115295 0.5235363841056824
0.23662909865379333 0.20176151394844055 0.6231122612953186
0.21683862805366516 0.12831130623817444 0.4878048598766327
0.27497369050979614 0.19495487213134766 0.5917187929153442
0.34191256761550903 0.18241195380687714 0.6282952427864075
0.24081149697303772 0.17992793023586273 0.616288423538208
0.29435494542121887 0.24322129786014557 0.49079716205596924
0.3310087323188782 0.20757828652858734 0.47389736771583557
0.15669921040534973 0.2867140769958496 0.5501242876052856
0.18796244263648987 0.14505590498447418 0.5703102946281433
0.16206467151641846 0.3053407073020935 0.6260653138160706
0.31606021523475647 0.3004489541053772 0.5962093472480774
0.19571451842784882 0.3014694154262543 0.5493595600128174
0.30726221203804016 0.2931246757507324 0.533419668674469
0.2536355257034302 0.2466316819190979 0.5644577145576477
0.25420868396759033 0.15541930496692657 0.5926852822303772
0.16566228866577148 0.2947108745574951 0.5157318115234375
0.24309678375720978 0.13325265049934387 0.44628190994262695
0.2555250823497772 0.17887088656425476 0.5184586048126221
0.21545517444610596 0.25620022416114807 0.5137943029403687
0.2828289270401001 0.31270769238471985 0.5187768340110779
0.32311779260635376 0.2961586117744446 0.4355520009994507
0.2736859619617462 0.18494801223278046 0.4858655631542206
0.33101460337638855 0.2546235918998718 0.5951913595199585
0.316342830657959 0.2238273173570633 0.6114369034767151
0.3120972812175751 0.3181508183479309 0.5703431963920593
0.15749317407608032 0.23456688225269318 0.539010226726532
0.22821049392223358 0.19461144506931305 0.5986825823783875
0.2573585510253906 0.1944332718849182 0.6190759539604187
0.25559642910957336 0.15666678547859192 0.5732741951942444
0.34233638644218445 0.2642329931259155 0.4939762353897095
0.311943918466568 0.1572543978691101 0.508090615272522
0.2437928020954132 0.27659836411476135 0.5222395658493042
0.29879888892173767 0.2809997797012329 0.4349290132522583
0.15228933095932007 0.23302695155143738 0.507351815700531
0.325528085231781 0.2757762372493744 0.4848674535751343
0.19268780946731567 0.2158229649066925 0.62924724817276
0.27002230286598206 0.262005478143692 0.4888026714324951
0.2754930555820465 0.2893817126750946 0.49156251549720764
0.23698540031909943 0.13652850687503815 0.5784648060798645
0.20803937315940857 0.18025082349777222 0.4494113624095917
0.23788221180438995 0.3027229905128479 0.548801600933075
0.32306787371635437 0.3444834351539612 0.473739892244339
0.17212986946105957 0.30626222491264343 0.45930758118629456
0.23124560713768005 0.27488550543785095 0.47854286432266235
0.2235182821750641 0.13605406880378723 0.5618152618408203
0.24239704012870789 0.2596036195755005 0.5801183581352234
0.2766501307487488 0.16212449967861176 0.5325523018836975
0.261140376329422 0.20491093397140503 0.4573192000389099
0.15179266035556793 0.30826422572135925 0.49408459663391113
0.16032913327217102 0.2805700898170471 0.549653172492981
0.28768235445022583 0.15584474802017212 0.45160314440727234
0.21298520267009735 0.18741509318351746 0.5439856648445129
0.217360720038414 0.2651699483394623 0.5714409947395325
0.28717610239982605 0.1820944994688034 0.6051161289215088
0.3209531009197235 0.186163529753685 0.4948504865169525
0.244017094373703 0.2558706998825073 0.47137099504470825
0.2365332692861557 0.19725888967514038 0.5131432414054871
0.23507748544216156 0.16846691071987152 0.5953302979469299
0.1729942113161087 0.1404867321252823 0.4560859799385071
0.3289699852466583 0.29275771975517273 0.6127442121505737
0.24246880412101746 0.1752394735813141 0.5452131628990173
0.1817893087863922 0.2790932357311249 0.5830967426300049
0.1411929875612259 0.29836809635162354 0.5103778839111328
0.26500841975212097 0.14718298614025116 0.6069958209991455
0.13782203197479248 0.3028014898300171 0.4437456727027893
0.32669609785079956 0.3259018361568451 0.5394448041915894
0.18452654778957367 0.22809474170207977 0.5264689326286316
0.17617137730121613 0.1525018811225891 0.4667191803455353
0.2662065029144287 0.16020427644252777 0.45336514711380005
0.2004656344652176 0.21015621721744537 0.44802170991897583
0.3666689991950989 0.1579173505306244 0.48725637793540955
0.3567923605442047 0.24891521036624908 0.5753146409988403
0.299118310213089 0.3378964960575104 0.4790630042552948
0.30145594477653503 0.30060049891471863 0.5343783497810364
0.2808142900466919 0.22308361530303955 0.6254099011421204
0.28098025918006897 0.2187347412109375 0.48120641708374023
0.1764223724603653 0.1552145630121231 0.5039363503456116
0.2574043273925781 0.15067963302135468 0.47702622413635254
0.2558825612068176 0.25016841292381287 0.5722905397415161
0.23180614411830902 0.25271397829055786 0.4436473250389099
0.22506555914878845 0.2186122089624405 0.48328813910484314
0.2499198615550995 0.20531128346920013 0.5122679471969604
0.2775258421897888 0.19938571751117706 0.6058754920959473
0.17218028008937836 0.24353985488414764 0.5278686881065369
0.3268530070781708 0.15925031900405884 0.4564954936504364
0.35858485102653503 0.20194345712661743 0.4990442097187042
0.2476160228252411 0.20545542240142822 0.4708947539329529
0.32558971643447876 0.2742650508880615 0.4332250654697418
0.262006014585495 0.16518054902553558 0.6346519589424133
0.2583049237728119 0.28055527806282043 0.44412171840667725
0.2637755274772644 0.2314509004354477 0.4746175706386566
0.3266046643257141 0.2586092948913574 0.5400384664535522
0.29414868354797363 0.31919050216674805 0.46267539262771606
0.25357505679130554 0.20794609189033508 0.6071434617042542
0.33736178278923035 0.21570831537246704 0.5343225598335266
0.20250092446804047 0.2512477934360504 0.5099470615386963
0.19952182471752167 0.17132049798965454 0.5165898203849792
0.2224164754152298 0.28268373012542725 0.5024486780166626
0.1536075621843338 0.2550594210624695 0.5427289605140686
0.2780472934246063 0.1669343262910843 0.5716950297355652
0.3590945303440094 0.16883762180805206 0.511480450630188
0.2788757383823395 0.2911720275878906 0.5532869696617126
0.23654799163341522 0.292478084564209 0.46467480063438416
0.2961597740650177 0.33244675397872925 0.5313565135002136
0.24726848304271698 0.16845253109931946 0.5551290512084961
0.3079746663570404 0.14899444580078125 0.5821492075920105
0.2464611977338791 0.283830463886261 0.48080652952194214
0.16888359189033508 0.1612173169851303 0.5233254432678223
0.24870342016220093 0.28221505880355835 0.6021408438682556
0.19600126147270203 0.16451814770698547 0.4690818786621094
0.25577783584594727 0.24649305641651154 0.5368973016738892
0.2398020625114441 0.2395326942205429 0.613355278968811
0.3056429326534271 0.15465453267097473 0.4792468845844269
0.2892098128795624 0.2777521312236786 0.559992790222168
0.23295220732688904 0.19085693359375 0.4749903380870819
0.26555323600769043 0.1978496015071869 0.5383177399635315
0.3409574031829834 0.2372487485408783 0.4678921699523926
0.2636260986328125 0.26811641454696655 0.6031875014305115
0.24843333661556244 0.2843885123729706 0.6075634956359863
0.32857224345207214 0.25538724660873413 0.48652032017707825
0.20411895215511322 0.3216168284416199 0.6266425848007202
0.2064446359872818 0.26589372754096985 0.5079788565635681
0.27917608618736267 0.29156768321990967 0.44875794649124146
0.18857543170452118 0.2118455171585083 0.6126871705055237
0.2635520398616791 0.21937547624111176 0.5601163506507874
0.3289426863193512 0.3259032666683197 0.5613176822662354
0.27740222215652466 0.18012382090091705 0.46469923853874207
0.28692588210105896 0.26440319418907166 0.46754103899002075
0.30822622776031494 0.20451682806015015 0.48971396684646606
0.16657355427742004 0.25719043612480164 0.5554300546646118
0.21814383566379547 0.1295638382434845 0.5073358416557312
0.16215476393699646 0.275555282831192 0.4392574727535248
0.2961674630641937 0.2892768085002899 0.5976616144180298
0.19431748986244202 0.28544482588768005 0.6173067688941956
0.2325226366519928 0.16783714294433594 0.4553191065788269
0.19919349253177643 0.22106194496154785 0.6208826899528503
0.13749255239963531 0.3064216673374176 0.5466016530990601
0.17753230035305023 0.14183427393436432 0.5247840285301208
0.3431207537651062 0.2228366732597351 0.5777857303619385
0.2022612988948822 0.12907303869724274 0.5500019788742065
0.278591513633728 0.19209827482700348 0.43975114822387695
0.25543588399887085 0.14881709218025208 0.5603892207145691
0.22900618612766266 0.2484028935432434 0.48199787735939026
0.2022392600774765 0.23857718706130981 0.4413350820541382
0.1995834857225418 0.2889544367790222 0.5807335376739502
0.2552003264427185 0.1963876187801361 0.5356233716011047
0.21580345928668976 0.21984322369098663 0.5946258902549744
0.3357890844345093 0.15274690091609955 0.48080503940582275
0.27694305777549744 0.1463591307401657 0.6123313903808594
0.2632714807987213 0.13870392739772797 0.4387611746788025
0.3144069015979767 0.2787073254585266 0.5605930685997009
0.3278188109397888 0.3015097975730896 0.6240038871765137
0.1641007363796234 0.25565871596336365 0.5920103192329407
0.3190353512763977 0.3089643120765686 0.5345191359519958
0.2509750723838806 0.14236021041870117 0.5542240738868713
0.1975906789302826 0.12413332611322403 0.6376947164535522
0.2620502710342407 0.22879405319690704 0.6062138676643372
0.16123242676258087 0.2828301191329956 0.5723721981048584
0.31134799122810364 0.17046675086021423 0.4957004487514496
0.2814265787601471 0.335318386554718 0.4415598511695862
0.3510613739490509 0.26062339544296265 0.6201479434967041
0.266161173582077 0.30976468324661255 0.5841063261032104
0.3027598559856415 0.3035118579864502 0.4511512815952301
0.20706520974636078 0.12924879789352417 0.6097316145896912
0.32339704036712646 0.2154286801815033 0.61601322889328
0.22235263884067535 0.26665958762168884 0.4811525344848633
0.30670294165611267 0.321719765663147 0.5217122435569763
0.1629648655653 0.2324550747871399 0.6304154396057129
0.2470066100358963 0.26189494132995605 0.598038911819458
0.2259368747472763 0.19565480947494507 0.6278146505355835
0.28815263509750366 0.2333029806613922 0.487231582403183
0.2940233051776886 0.32209697365760803 0.43262967467308044
0.2612552046775818 0.15269824862480164 0.6355903148651123
0.23155657947063446 0.1553344875574112 0.5575910210609436
0.3031628429889679 0.3226333558559418 0.4428979456424713
0.26977109909057617 0.20691151916980743 0.4593326151371002
0.3525863587856293 0.249360129237175 0.5133525729179382
0.23378387093544006 0.26550573110580444 0.573696494102478
0.17559683322906494 0.21634787321090698 0.48795759677886963
0.18507038056850433 0.3030259907245636 0.5106067061424255
0.24843333661556244 0.2843885123729706 0.6075634956359863
0.32857224345207214 0.25538724660873413 0.48652032017707825
0.20411895215511322 0.3216168284416199 0.6266425848007202
0.2064446359872818 0.26589372754096985 0.5079788565635681
0.27917608618736267 0.29156768321990967 0.44875794649124146
0.22369170188903809 0.17093156278133392 0.5534611344337463
0.2128717452287674 0.2945877015590668 0.4513702094554901
0.1536075621843338 0.2550594210624695 0.5427289605140686
0.2878156006336212 0.2719258666038513 0.5133969187736511
0.1795533448457718 0.16658839583396912 0.5160545110702515
0.25630131363868713 0.28141090273857117 0.5998353362083435
0.2787216305732727 0.21814516186714172 0.5149266123771667
0.34673768281936646 0.18506446480751038 0.4593988358974457
0.33291855454444885 0.24934124946594238 0.45563778281211853
0.28476643562316895 0.2870391607284546 0.5353231430053711
0.3308619260787964 0.21626712381839752 0.5401778817176819
0.2620502710342407 0.22879405319690704 0.6062138676643372
0.23139874637126923 0.26111483573913574 0.6069394946098328
0.2235407829284668 0.18874607980251312 0.5740211606025696
0.313726544380188 0.17136025428771973 0.6069372296333313
0.14075066149234772 0.29917585849761963 0.48435911536216736
0.2569096088409424 0.28750938177108765 0.50028395652771
0.3424455523490906 0.165226012468338 0.5839788317680359
0.20543183386325836 0.22416377067565918 0.49953410029411316
0.22449079155921936 0.2713744640350342 0.45113757252693176
0.24477644264698029 0.25115057826042175 0.49707022309303284
0.3294928967952728 0.1776004284620285 0.6237483024597168
0.19625651836395264 0.1386743187904358 0.4920371174812317
0.2263198345899582 0.27126434445381165 0.4795556962490082
0.20031751692295074 0.2819567024707794 0.4836185872554779
0.31353092193603516 0.2803579270839691 0.5164178609848022
0.16779929399490356 0.2991887927055359 0.4663817286491394
0.23656846582889557 0.20282100141048431 0.5525926947593689
0.33816516399383545 0.17366008460521698 0.5661208629608154
0.333680123090744 0.2301953285932541 0.5374714732170105
0.2432991862297058 0.2812509834766388 0.5274271368980408
0.1748259961605072 0.2802320122718811 0.5200674533843994
0.2086433321237564 0.2552923262119293 0.43690699338912964
0.2802732288837433 0.17436477541923523 0.512013852596283
0.2780472934246063 0.1669343262910843 0.5716950297355652
0.25630131363868713 0.28141090273857117 0.5998353362083435
0.2787216305732727 0.21814516186714172 0.5149266123771667
0.34673768281936646 0.18506446480751038 0.4593988358974457
0.33291855454444885 0.24934124946594238 0.45563778281211853
0.3308619260787964 0.21626712381839752 0.5401778817176819
0.2620502710342407 0.22879405319690704 0.6062138676643372
0.16123242676258087 0.2828301191329956 0.5723721981048584
0.31134799122810364 0.17046675086021423 0.4957004487514496
0.2235407829284668 0.18874607980251312 0.5740211606025696
0.313726544380188 0.17136025428771973 0.6069372296333313
0.14075066149234772 0.29917585849761963 0.48435911536216736
0.2569096088409424 0.28750938177108765 0.50028395652771
0.3424455523490906 0.165226012468338 0.5839788317680359
0.3027598559856415 0.3035118579864502 0.4511512815952301
0.22449079155921936 0.2713744640350342 0.45113757252693176
0.24477644264698029 0.25115057826042175 0.49707022309303284
0.3294928967952728 0.1776004284620285 0.6237483024597168
0.23656846582889557 0.20282100141048431 0.5525926947593689
0.33816516399383545 0.17366008460521698 0.5661208629608154
0.333680123090744 0.2301953285932541 0.5374714732170105
0.2432991862297058 0.2812509834766388 0.5274271368980408
0.1748259961605072 0.2802320122718811 0.5200674533843994
0.21567951142787933 0.25726115703582764 0.5772402286529541
0.18151676654815674 0.23823711276054382 0.622592031955719
0.19630436599254608 0.17011092603206635 0.5274852514266968
0.24843333661556244 0.2843885123729706 0.6075634956359863
0.3225005865097046 0.19844697415828705 0.5446600317955017
0.2651912569999695 0.18157874047756195 0.5267664790153503
0.236650288105011 0.15511555969715118 0.6229361295700073
0.2925013303756714 0.20940309762954712 0.6284370422363281
0.3289426863193512 0.3259032666683197 0.5613176822662354
0.2736859619617462 0.18494801223278046 0.4858655631542206
0.30932068824768066 0.1472805291414261 0.6235412955284119
0.3138282895088196 0.32455864548683167 0.5271189212799072
0.2975708544254303 0.23160924017429352 0.5804444551467896
0.2518431842327118 0.22283835709095 0.5727089643478394
0.1596657633781433 0.23528437316417694 0.5197457671165466
0.2634310722351074 0.1366506963968277 0.44207462668418884
0.27073341608047485 0.25865867733955383 0.5408763289451599
0.1732587069272995 0.2670365571975708 0.4871523976325989
0.26519426703453064 0.24723073840141296 0.6075588464736938
0.2712337374687195 0.2842497229576111 0.5164605379104614
0.19649747014045715 0.2653021812438965 0.5601236820220947
0.3534340560436249 0.21224333345890045 0.621796727180481
0.32321372628211975 0.2583344280719757 0.4975344240665436
0.370112806558609 0.1894262135028839 0.5944855809211731
0.18737800419330597 0.21362446248531342 0.5217167735099792
0.22898901998996735 0.22854942083358765 0.5924292802810669
0.2431303709745407 0.27713412046432495 0.44298845529556274
0.2593347728252411 0.29357585310935974 0.4760805070400238
0.1839258223772049 0.174271821975708 0.5616247653961182
0.26206114888191223 0.18679791688919067 0.5556387901306152
0.20472049713134766 0.3195265829563141 0.5232642889022827
0.2594164311885834 0.18587851524353027 0.620467483997345
0.2399987131357193 0.2479431927204132 0.5669838190078735
0.26529061794281006 0.20649483799934387 0.48800861835479736
0.253689706325531 0.27874019742012024 0.4449555277824402
0.3315621614456177 0.29155611991882324 0.5044955611228943
0.26767104864120483 0.2521224319934845 0.43724533915519714
0.20595473051071167 0.19835764169692993 0.4965164363384247
0.3429507911205292 0.25329989194869995 0.5464309453964233
0.24370531737804413 0.27991175651550293 0.5557405352592468
0.17644011974334717 0.20532257854938507 0.5725608468055725
0.14979469776153564 0.24726217985153198 0.4626956284046173
0.3031628429889679 0.3226333558559418 0.4428979456424713
0.26977109909057617 0.20691151916980743 0.4593326151371002
0.3525863587856293 0.249360129237175 0.5133525729179382
0.23378387093544006 0.26550573110580444 0.573696494102478
0.17559683322906494 0.21634787321090698 0.48795759677886963
0.18507038056850433 0.3030259907245636 0.5106067061424255
0.24843333661556244 0.2843885123729706 0.6075634956359863
0.32857224345207214 0.25538724660873413 0.48652032017707825
0.31899338960647583 0.22390180826187134 0.5151836276054382
0.2645968198776245 0.16323858499526978 0.5206104516983032
0.2004128396511078 0.19879963994026184 0.6160633563995361
0.24052469432353973 0.2593418061733246 0.6127961277961731
0.15703566372394562 0.2041965126991272 0.4598928987979889
0.271665096282959 0.16571301221847534 0.43451330065727234
0.3151145577430725 0.1615055501461029 0.6023554801940918
0.3166758120059967 0.17618073523044586 0.5363848209381104
0.27192968130111694 0.33722153306007385 0.4444998502731323
0.21986468136310577 0.2640005052089691 0.5492560863494873
0.2103884518146515 0.14622336626052856 0.586267352104187
0.15003134310245514 0.26781028509140015 0.6284183859825134
0.2306825816631317 0.15607717633247375 0.4921422004699707
0.17053639888763428 0.1684224009513855 0.5616317987442017
0.16648754477500916 0.2748320698738098 0.46162742376327515
0.2645622193813324 0.1536843329668045 0.5650835037231445
0.33303049206733704 0.18169601261615753 0.5789036750793457
0.3040899336338043 0.30005979537963867 0.6041306853294373
0.31226152181625366 0.15385115146636963 0.5027884840965271
0.2605263292789459 0.22948430478572845 0.5607426166534424
0.22978654503822327 0.14336855709552765 0.6247044205665588
0.3568659722805023 0.17439520359039307 0.5618606209754944
0.16652944684028625 0.18823406100273132 0.47883859276771545
0.16174092888832092 0.24703586101531982 0.6173962354660034
0.23656846582889557 0.20282100141048431 0.5525926947593689
0.22728246450424194 0.16723555326461792 0.6024659872055054
0.25541722774505615 0.15537814795970917 0.5787360072135925
0.3167850971221924 0.30332040786743164 0.5247110724449158
0.2564311623573303 0.21289129555225372 0.44392797350883484
0.17747268080711365 0.24311082065105438 0.5405086874961853
0.2874150276184082 0.16078819334506989 0.5138305425643921
0.2635520398616791 0.21937547624111176 0.5601163506507874
0.3289426863193512 0.3259032666683197 0.5613176822662354
0.27740222215652466 0.18012382090091705 0.46469923853874207
0.28692588210105896 0.26440319418907166 0.46754103899002075
0.30822622776031494 0.20451682806015015 0.48971396684646606
0.16657355427742004 0.25719043612480164 0.5554300546646118
0.26646310091018677 0.26857054233551025 0.5544816851615906
0.31126201152801514 0.1577271819114685 0.5716655254364014
0.34112805128097534 0.21264027059078217 0.6097353100776672
0.2148900032043457 0.31374695897102356 0.4842977523803711
0.2861364185810089 0.3299534022808075 0.6214402318000793
0.33600616455078125 0.2716454565525055 0.5328711867332458
0.17116136848926544 0.31403306126594543 0.47453516721725464
0.2519604563713074 0.19252285361289978 0.48168838024139404
0.3113022446632385 0.26498231291770935 0.46864035725593567
0.21246708929538727 0.17704258859157562 0.5573968887329102
0.295547753572464 0.14496201276779175 0.43476638197898865
0.21489720046520233 0.30323976278305054 0.4778287708759308
0.21878908574581146 0.2466084510087967 0.44086262583732605
0.3455162048339844 0.25368162989616394 0.5385618209838867
0.3042747974395752 0.2565237581729889 0.5859653949737549
0.20077230036258698 0.3009595572948456 0.5962397456169128
0.3232627511024475 0.2598588168621063 0.606647789478302
0.20067757368087769 0.287864089012146 0.4475310742855072
0.2304554134607315 0.2586185932159424 0.4829048216342926
0.18151676654815674 0.23823711276054382 0.622592031955719
0.19630436599254608 0.17011092603206635 0.5274852514266968
0.23836827278137207 0.24791070818901062 0.5014497637748718
0.16196297109127045 0.18521714210510254 0.5109264850616455
0.18223154544830322 0.26925498247146606 0.5429370999336243
0.3693048059940338 0.18521471321582794 0.6003280282020569
0.19036521017551422 0.2763378620147705 0.48078668117523193
0.2084295004606247 0.15078739821910858 0.6004646420478821
0.23772980272769928 0.283700555562973 0.5488383173942566
0.17424586415290833 0.29173311591148376 0.4415085017681122
0.25531667470932007 0.2921704053878784 0.4498170018196106
0.20853061974048615 0.12375351786613464 0.503645658493042
0.3167297840118408 0.33386343717575073 0.5310051441192627
0.24500064551830292 0.19426046311855316 0.5245172381401062
0.31803399324417114 0.2746778726577759 0.6154714822769165
0.2695479094982147 0.144902765750885 0.5344979166984558
0.2250993847846985 0.16887076199054718 0.4513010084629059
0.255636602640152 0.2655201256275177 0.5932278633117676
0.2944734990596771 0.27268028259277344 0.5122156143188477
0.20558969676494598 0.20869125425815582 0.6216726899147034
0.34757673740386963 0.22576555609703064 0.5059253573417664
0.25416266918182373 0.23129907250404358 0.5653337240219116
0.2891651391983032 0.15773358941078186 0.5002754330635071
0.3004981577396393 0.235097274184227 0.4652661681175232
0.2617563307285309 0.2387029528617859 0.6060172915458679
0.27174848318099976 0.1759798675775528 0.5996490716934204
0.1678689569234848 0.27634474635124207 0.5127394199371338
0.16955888271331787 0.23032039403915405 0.5097547769546509
0.18132440745830536 0.14003632962703705 0.5354228615760803
0.1935964971780777 0.25768351554870605 0.5153918266296387
0.30619263648986816 0.24100364744663239 0.6282968521118164
0.23507748544216156 0.16846691071987152 0.5953302979469299
0.30717548727989197 0.22984960675239563 0.5410890579223633
0.30053550004959106 0.3262161612510681 0.49865058064460754
0.15471282601356506 0.27054348587989807 0.5878427028656006
0.30632880330085754 0.27285709977149963 0.4991514980792999
0.17989535629749298 0.18308763206005096 0.5636262893676758
0.28915396332740784 0.2656710147857666 0.49390023946762085
0.3321792483329773 0.3170340657234192 0.5978720784187317
0.18151146173477173 0.30355119705200195 0.5592647194862366
0.18867090344429016 0.15107788145542145 0.5159512162208557
0.20182769000530243 0.30628502368927 0.5172742009162903
0.2703520953655243 0.1369859278202057 0.6121839284896851
0.16005834937095642 0.3121325671672821 0.48399120569229126
0.34589463472366333 0.24921049177646637 0.5970858335494995
0.19290797412395477 0.2622765302658081 0.5470192432403564
0.3277685046195984 0.16835062205791473 0.5517758727073669
0.29587826132774353 0.1747068464756012 0.4353962540626526
0.3050909638404846 0.3053048551082611 0.5141068696975708
0.3248438239097595 0.30535271763801575 0.5868126153945923
0.15267884731292725 0.2831684947013855 0.5075975656509399
0.3340858519077301 0.2027614563703537 0.5077446103096008
0.2068975269794464 0.25222471356391907 0.5285934209823608
0.18520179390907288 0.12700971961021423 0.4530976116657257
0.2622760236263275 0.19353869557380676 0.4569513201713562
0.14435411989688873 0.2998138666152954 0.6200326085090637
0.2403171807527542 0.19287040829658508 0.6049290299415588
0.35870063304901123 0.1953936517238617 0.5001298785209656
0.2577779293060303 0.13454407453536987 0.538421094417572
0.2941288352012634 0.17788420617580414 0.5771970748901367
0.23491232097148895 0.2749634087085724 0.5847790241241455
0.3237130343914032 0.2613767683506012 0.49981826543807983
0.29216259717941284 0.1957179456949234 0.6018822193145752
0.29156383872032166 0.2572247385978699 0.6117616891860962
0.31218385696411133 0.31903761625289917 0.6219537854194641
0.24266986548900604 0.1316790133714676 0.4770240783691406
0.15796425938606262 0.2591749131679535 0.49322935938835144
0.2564765512943268 0.18773683905601501 0.5810768008232117
0.2504975497722626 0.18557898700237274 0.4416675865650177
0.1791142076253891 0.26486629247665405 0.5275735259056091
0.32870662212371826 0.32008346915245056 0.5784747004508972
0.2960399389266968 0.31085339188575745 0.5828631520271301
0.25728508830070496 0.3314357101917267 0.5447216629981995
0.21589280664920807 0.3125406503677368 0.5806061625480652
0.18896649777889252 0.19543464481830597 0.5853148102760315
0.21904166042804718 0.1298215091228485 0.5728355050086975
0.22994780540466309 0.24742472171783447 0.5176151990890503
0.20700272917747498 0.2444649189710617 0.4735179841518402
0.23094505071640015 0.28734076023101807 0.5978878736495972
0.23431989550590515 0.2993680238723755 0.48739081621170044
0.23426251113414764 0.13433729112148285 0.49074798822402954
0.24078667163848877 0.16682115197181702 0.43567854166030884
0.21065226197242737 0.21031507849693298 0.6369835734367371
0.19222378730773926 0.2110934555530548 0.45032230019569397
0.24629317224025726 0.2971344590187073 0.5759648084640503
0.18053196370601654 0.21676182746887207 0.44288545846939087
0.33999893069267273 0.17105600237846375 0.5569562911987305
0.34345975518226624 0.18872299790382385 0.5547695159912109
0.3025353252887726 0.27261221408843994 0.535146951675415
0.1892845183610916 0.17826750874519348 0.5381981134414673
0.19098617136478424 0.2644956111907959 0.6033533215522766
0.30747175216674805 0.17482422292232513 0.4702019691467285
0.31892138719558716 0.23174241185188293 0.5153191685676575
0.18529047071933746 0.21007214486598969 0.6371872425079346
0.27462777495384216 0.2944593131542206 0.49071139097213745
0.29156383872032166 0.2572247385978699 0.6117616891860962
0.21814383566379547 0.1295638382434845 0.5073358416557312
0.16215476393699646 0.275555282831192 0.4392574727535248
0.2961674630641937 0.2892768085002899 0.5976616144180298
0.19431748986244202 0.28544482588768005 0.6173067688941956
0.2325226366519928 0.16783714294433594 0.4553191065788269
0.19919349253177643 0.22106194496154785 0.6208826899528503
0.13749255239963531 0.3064216673374176 0.5466016530990601
0.17753230035305023 0.14183427393436432 0.5247840285301208
0.3431207537651062 0.2228366732597351 0.5777857303619385
0.2022612988948822 0.12907303869724274 0.5500019788742065
0.278591513633728 0.19209827482700348 0.43975114822387695
0.25543588399887085 0.14881709218025208 0.5603892207145691
0.22900618612766266 0.2484028935432434 0.48199787735939026
0.2022392600774765 0.23857718706130981 0.4413350820541382
0.1995834857225418 0.2889544367790222 0.5807335376739502
0.2552003264427185 0.1963876187801361 0.5356233716011047
0.21580345928668976 0.21984322369098663 0.5946258902549744
0.3357890844345093 0.15274690091609955 0.48080503940582275
0.27694305777549744 0.1463591307401657 0.6123313903808594
0.2632714807987213 0.13870392739772797 0.4387611746788025
0.16272896528244019 0.25797244906425476 0.47088006138801575
0.2826925814151764 0.295635849237442 0.48001107573509216
0.3378991186618805 0.30425509810447693 0.47558680176734924
0.22330866754055023 0.21027050912380219 0.5096228718757629
0.2584550380706787 0.32959407567977905 0.45917072892189026
0.22713467478752136 0.1667107343673706 0.4362226128578186
0.35694536566734314 0.18110336363315582 0.5033828020095825
0.24317866563796997 0.15961432456970215 0.45479875802993774
0.2692258656024933 0.22112241387367249 0.6139008402824402
0.3419747054576874 0.18750399351119995 0.5753006339073181
0.3351617753505707 0.16125446557998657 0.494896799325943
0.18507038056850433 0.3030259907245636 0.5106067061424255
0.2723507285118103 0.3095511198043823 0.5562983751296997
0.3419747054576874 0.18750399351119995 0.5753006339073181
0.3351617753505707 0.16125446557998657 0.494896799325943
0.18017829954624176 0.15979617834091187 0.5979547500610352
0.21853438019752502 0.3187241852283478 0.6342812180519104
0.3561176657676697 0.21182164549827576 0.49737104773521423
0.30074119567871094 0.2415868043899536 0.5506417155265808
0.14982333779335022 0.3071937561035156 0.5480088591575623
0.22570210695266724 0.13192351162433624 0.45643970370292664
0.20700900256633759 0.18225102126598358 0.5765606164932251
0.3103504180908203 0.17366954684257507 0.5393989682197571
0.29814451932907104 0.24987167119979858 0.5582579970359802
0.26567018032073975 0.22057725489139557 0.5962662696838379
0.3606185019016266 0.17215092480182648 0.4338861107826233
0.2670050859451294 0.2917630672454834 0.5681810975074768
0.3319459557533264 0.15311571955680847 0.5198118090629578
0.29696574807167053 0.158467099070549 0.47598493099212646
0.25074857473373413 0.19245225191116333 0.4358479678630829
0.29499930143356323 0.24846380949020386 0.5138389468193054
0.2195766717195511 0.1697039008140564 0.48933371901512146
0.15516462922096252 0.2885530889034271 0.4542824923992157
0.28548961877822876 0.17738939821720123 0.5709673166275024
0.23206327855587006 0.3176925778388977 0.4467489421367645
0.21594366431236267 0.28190094232559204 0.6073323488235474
0.29402273893356323 0.32089683413505554 0.5228424072265625
0.3386509418487549 0.19353744387626648 0.5497499108314514
0.3386509418487549 0.19353744387626648 0.5497499108314514
0.264724999666214 0.2557920813560486 0.47053492069244385
0.25613823533058167 0.21641896665096283 0.44514963030815125
0.25613823533058167 0.21641896665096283 0.44514963030815125
0.2653139531612396 0.21128204464912415 0.4533248245716095
0.16657355427742004 0.25719043612480164 0.5554300546646118
0.18017829954624176 0.15979617834091187 0.5979547500610352
0.3277314305305481 0.17806552350521088 0.5101523995399475
0.1987559199333191 0.28864046931266785 0.610505223274231
0.3561176657676697 0.21182164549827576 0.49737104773521423
0.30074119567871094 0.2415868043899536 0.5506417155265808
0.14982333779335022 0.3071937561035156 0.5480088591575623
0.22570210695266724 0.13192351162433624 0.45643970370292664
0.20700900256633759 0.18225102126598358 0.5765606164932251
0.22330674529075623 0.2413586527109146 0.514578640460968
0.21486826241016388 0.3141499161720276 0.5062909722328186
0.2793159782886505 0.2004370391368866 0.6200575232505798
0.29814451932907104 0.24987167119979858 0.5582579970359802
0.26567018032073975 0.22057725489139557 0.5962662696838379
0.3606185019016266 0.17215092480182648 0.4338861107826233
0.2670050859451294 0.2917630672454834 0.5681810975074768
0.29696574807167053 0.158467099070549 0.47598493099212646
0.25074857473373413 0.19245225191116333 0.4358479678630829
0.29499930143356323 0.24846380949020386 0.5138389468193054
0.2195766717195511 0.1697039008140564 0.48933371901512146
0.15516462922096252 0.2885530889034271 0.4542824923992157
0.28548961877822876 0.17738939821720123 0.5709673166275024
0.23206327855587006 0.3176925778388977 0.4467489421367645
0.28786447644233704 0.1645544320344925 0.4837940037250519
0.21594366431236267 0.28190094232559204 0.6073323488235474
0.29402273893356323 0.32089683413505554 0.5228424072265625
0.3386509418487549 0.19353744387626648 0.5497499108314514
0.264724999666214 0.2557920813560486 0.47053492069244385
0.25613823533058167 0.21641896665096283 0.44514963030815125
0.3043133616447449 0.31908151507377625 0.4698060154914856
0.2653139531612396 0.21128204464912415 0.4533248245716095
0.3175017535686493 0.34052929282188416 0.6091765761375427
0.16657355427742004 0.25719043612480164 0.5554300546646118
0.29228463768959045 0.1919829547405243 0.5710511803627014
0.30929648876190186 0.2728330194950104 0.5177405476570129
0.28207728266716003 0.3037010431289673 0.5799236297607422
0.3565593659877777 0.1729024350643158 0.5539721846580505
0.18439677357673645 0.18403923511505127 0.586357057094574
0.2585901618003845 0.16344496607780457 0.561661958694458
0.26055634021759033 0.17438194155693054 0.5903113484382629
0.23374587297439575 0.2759021520614624 0.46920305490493774
0.20167459547519684 0.190063014626503 0.5241840481758118
0.23966556787490845 0.2916198968887329 0.5745011568069458
0.24586984515190125 0.17230719327926636 0.5339882373809814
0.24366159737110138 0.21478745341300964 0.4509219527244568
0.19931288063526154 0.2524454593658447 0.44522011280059814
0.33169588446617126 0.22833581268787384 0.5651389956474304
0.2848832905292511 0.3259928822517395 0.5568321347236633
0.254050612449646 0.17959028482437134 0.6037771105766296
0.27643057703971863 0.18968091905117035 0.546805739402771
0.2690996527671814 0.17921432852745056 0.5418261885643005
0.1588611900806427 0.22100339829921722 0.5874785780906677
0.2368158996105194 0.22644343972206116 0.5025564432144165
0.2695120871067047 0.3081347346305847 0.4860842525959015
0.21282513439655304 0.3060835301876068 0.4799657464027405
0.33309248089790344 0.1922764778137207 0.5081676840782166
0.34585040807724 0.22147232294082642 0.4664633274078369
0.32032468914985657 0.28011783957481384 0.49924778938293457
0.2992815375328064 0.26522770524024963 0.5550689101219177
0.26772308349609375 0.20903968811035156 0.4504551291465759
0.3296623229980469 0.3379826545715332 0.46396440267562866
0.15761364996433258 0.24120570719242096 0.4796391427516937
0.2826925814151764 0.295635849237442 0.48001107573509216
0.3378991186618805 0.30425509810447693 0.47558680176734924
0.3166758120059967 0.17618073523044586 0.5363848209381104
0.20700900256633759 0.18225102126598358 0.5765606164932251
0.22330674529075623 0.2413586527109146 0.514578640460968
0.21486826241016388 0.3141499161720276 0.5062909722328186
0.2793159782886505 0.2004370391368866 0.6200575232505798
0.29814451932907104 0.24987167119979858 0.5582579970359802
0.26567018032073975 0.22057725489139557 0.5962662696838379
0.18248505890369415 0.11861695349216461 0.5450921654701233
0.19498787820339203 0.20755186676979065 0.5073131322860718
0.2894170880317688 0.2771720290184021 0.44488221406936646
0.23252412676811218 0.1419222354888916 0.4898434281349182
0.3379756808280945 0.1993119865655899 0.4898156225681305
0.257830947637558 0.22771583497524261 0.5512217283248901
0.221979558467865 0.2563188970088959 0.47318795323371887
0.34164154529571533 0.213112473487854 0.5271183252334595
0.31536203622817993 0.22422203421592712 0.4411722421646118
0.1949303299188614 0.28978028893470764 0.4668775796890259
0.29336419701576233 0.1606745421886444 0.5117692947387695
