ply
format ascii 1.0
element vertex 823
property float x
property float y
property float z
end_header
0.3351505696773529 0.2270178645849228 0.5475417375564575
0.2261369526386261 0.1994442641735077 0.5986084342002869
0.2732216715812683 0.28163886070251465 0.5296332240104675
0.20498265326023102 0.3162243068218231 0.5475545525550842
0.1726228892803192 0.17127077281475067 0.5237504839897156
0.18620313704013824 0.2417016327381134 0.6003596782684326
0.2428959459066391 0.23316675424575806 0.630488932132721
0.17688599228858948 0.16527245938777924 0.545845091342926
0.17756687104701996 0.22647961974143982 0.5350902080535889
0.16495969891548157 0.26566147804260254 0.46200621128082275
0.32652297616004944 0.21087272465229034 0.45730504393577576
0.15873956680297852 0.21534669399261475 0.5468271970748901
0.29168418049812317 0.34516751766204834 0.5480505228042603
0.17110241949558258 0.2549910545349121 0.6092081069946289
0.23707805573940277 0.24263960123062134 0.4865994453430176
0.2717793881893158 0.15533319115638733 0.4494520127773285
0.2526957392692566 0.15697500109672546 0.49611619114875793
0.16929756104946136 0.2515859305858612 0.47537708282470703
0.24095016717910767 0.17312106490135193 0.4459840655326843
0.14359699189662933 0.3022322654724121 0.5113565325737
0.2631983458995819 0.25418415665626526 0.631628692150116
0.2978014051914215 0.17098821699619293 0.6239610910415649
0.18950526416301727 0.1779630184173584 0.49330252408981323
0.24036231637001038 0.3291977047920227 0.5505109429359436
0.1591411679983139 0.26891037821769714 0.5271173715591431
0.3327637314796448 0.1715279072523117 0.5330999493598938
0.29223790764808655 0.33296480774879456 0.4886495769023895
0.17329014837741852 0.17281971871852875 0.5109817981719971
0.24832749366760254 0.3211221396923065 0.5148102045059204
0.34059926867485046 0.1606694757938385 0.6210302114486694
0.3144901692867279 0.14697667956352234 0.6107221245765686
0.2891351282596588 0.14289052784442902 0.43907323479652405
0.2516111433506012 0.2538420557975769 0.4570547044277191
0.21151137351989746 0.1249392032623291 0.45730018615722656
0.33368366956710815 0.22442315518856049 0.5457783937454224
0.23367100954055786 0.20551739633083344 0.6252133846282959
0.31427666544914246 0.1488359421491623 0.5872122645378113
0.1911679357290268 0.3177843689918518 0.5615481734275818
0.21885310113430023 0.22840362787246704 0.5574117302894592
0.30650967359542847 0.22591106593608856 0.49743524193763733
0.2759491205215454 0.28581956028938293 0.4399110674858093
0.1997545063495636 0.2608065903186798 0.4992327392101288
0.15590868890285492 0.20827479660511017 0.6343940496444702
0.18309973180294037 0.24090996384620667 0.4891778528690338
0.2683568596839905 0.30732855200767517 0.4562419652938843
0.21848398447036743 0.29471462965011597 0.510338544845581
0.18695767223834991 0.16590118408203125 0.4914335310459137
0.2922302484512329 0.27316346764564514 0.5142621994018555
0.25144022703170776 0.15633703768253326 0.4692697525024414
0.1530448943376541 0.2683565020561218 0.5407290458679199
0.19456523656845093 0.2894483208656311 0.5114870667457581
0.3607858717441559 0.17393362522125244 0.5638014078140259
0.3410348892211914 0.2431345134973526 0.4836726188659668
0.17438170313835144 0.27837979793548584 0.6186790466308594
0.16289953887462616 0.15633848309516907 0.5183172821998596
0.2677063047885895 0.29455775022506714 0.6050689220428467
0.2274099588394165 0.2706802189350128 0.5798916220664978
0.32204169034957886 0.2904309928417206 0.6319781541824341
0.28386253118515015 0.17392441630363464 0.46008172631263733
0.2571820020675659 0.18479514122009277 0.6122069358825684
0.1899297684431076 0.15037685632705688 0.47527387738227844
0.3306140899658203 0.29659056663513184 0.5441867113113403
0.20998898148536682 0.2815430760383606 0.559350848197937
0.17800655961036682 0.29097679257392883 0.5886326432228088
0.2408570498228073 0.27452200651168823 0.6005775928497314
0.27304646372795105 0.3053971230983734 0.5701040029525757
0.1593172401189804 0.3013395667076111 0.5136577486991882
0.29223790764808655 0.33296480774879456 0.4886495769023895
0.17329014837741852 0.17281971871852875 0.5109817981719971
0.24832749366760254 0.3211221396923065 0.5148102045059204
0.34059926867485046 0.1606694757938385 0.6210302114486694
0.3144901692867279 0.14697667956352234 0.6107221245765686
0.2891351282596588 0.14289052784442902 0.43907323479652405
0.2516111433506012 0.2538420557975769 0.4570547044277191
0.21151137351989746 0.1249392032623291 0.45730018615722656
0.3351505696773529 0.2270178645849228 0.5475417375564575
0.2261369526386261 0.1994442641735077 0.5986084342002869
0.2732216715812683 0.28163886070251465 0.5296332240104675
0.20498265326023102 0.3162243068218231 0.5475545525550842
0.1726228892803192 0.17127077281475067 0.5237504839897156
0.18620313704013824 0.2417016327381134 0.6003596782684326
0.2428959459066391 0.23316675424575806 0.630488932132721
0.3109128475189209 0.18151330947875977 0.6138109564781189
0.19334019720554352 0.14006969332695007 0.6366494297981262
0.2390916496515274 0.3015139698982239 0.5721543431282043
0.3559538424015045 0.19913703203201294 0.5554864406585693
0.19593405723571777 0.19546270370483398 0.5309367775917053
0.2754141390323639 0.3424123227596283 0.438671737909317
0.3383975028991699 0.24194657802581787 0.5996924042701721
0.2775641679763794 0.3321150243282318 0.445374459028244
0.17328135669231415 0.11736834794282913 0.599577009677887
0.30169105529785156 0.28741517663002014 0.48226839303970337
0.19300402700901031 0.31800034642219543 0.47372519969940186
0.14232277870178223 0.2865743935108185 0.5376625657081604
0.18036527931690216 0.2874751687049866 0.5967509746551514
0.31513071060180664 0.2346271276473999 0.5186501741409302
0.3109128475189209 0.18151330947875977 0.6138109564781189
0.13700495660305023 0.24722643196582794 0.503541111946106
0.15003691613674164 0.1932581067085266 0.4800051152706146
0.32304859161376953 0.19558881223201752 0.5840415358543396
0.20501790940761566 0.17423266172409058 0.6310399174690247
0.25405585765838623 0.13079382479190826 0.5557736158370972
0.30586498975753784 0.24313299357891083 0.505416750907898
0.23073092103004456 0.2869148552417755 0.49783551692962646
0.1518479287624359 0.24075132608413696 0.5819935202598572
0.21274670958518982 0.17618276178836823 0.5645043849945068
0.3125574290752411 0.2664204239845276 0.4379645586013794
0.2835098206996918 0.2822214961051941 0.5776556134223938
0.22467632591724396 0.31196871399879456 0.6075595617294312
0.2163510024547577 0.30175086855888367 0.5147498250007629
0.20205187797546387 0.15593792498111725 0.44398123025894165
0.31534501910209656 0.32958662509918213 0.5700703263282776
0.20812872052192688 0.1615726500749588 0.625985324382782
0.35283899307250977 0.23264530301094055 0.6185802817344666
0.29152968525886536 0.30151286721229553 0.4343125820159912
0.17856325209140778 0.13432539999485016 0.46926096081733704
0.3382214903831482 0.18193607032299042 0.43234196305274963
0.26102033257484436 0.1423494517803192 0.5838151574134827
0.33071258664131165 0.16769446432590485 0.5120185613632202
0.18143948912620544 0.2612256109714508 0.5664576888084412
0.29140427708625793 0.189827099442482 0.5990911722183228
0.17644265294075012 0.26784369349479675 0.6166930794715881
0.21151137351989746 0.1249392032623291 0.45730018615722656
0.3351505696773529 0.2270178645849228 0.5475417375564575
0.2261369526386261 0.1994442641735077 0.5986084342002869
0.2732216715812683 0.28163886070251465 0.5296332240104675
0.20498265326023102 0.3162243068218231 0.5475545525550842
0.1726228892803192 0.17127077281475067 0.5237504839897156
0.18620313704013824 0.2417016327381134 0.6003596782684326
0.2428959459066391 0.23316675424575806 0.630488932132721
0.17688599228858948 0.16527245938777924 0.545845091342926
0.17756687104701996 0.22647961974143982 0.5350902080535889
0.1943676620721817 0.2351989597082138 0.6368253827095032
0.14506883919239044 0.23806171119213104 0.563186764717102
0.3393559455871582 0.2590058445930481 0.5015236735343933
0.21386511623859406 0.24006904661655426 0.4766482710838318
0.2018275409936905 0.2383630871772766 0.45391032099723816
0.16680069267749786 0.2601761221885681 0.6000280380249023
0.31264129281044006 0.15395589172840118 0.4927138090133667
0.2716760039329529 0.17987807095050812 0.46319779753685
0.22397103905677795 0.25939232110977173 0.617387056350708
0.16986557841300964 0.2328404188156128 0.5214734673500061
0.15781880915164948 0.3032088577747345 0.5317111015319824
0.2199084609746933 0.23149050772190094 0.5231892466545105
0.15800830721855164 0.1802474707365036 0.6080833673477173
0.31104153394699097 0.20822778344154358 0.5717073678970337
0.28958094120025635 0.18162278831005096 0.5444040894508362
0.3182174265384674 0.24554674327373505 0.4673923850059509
0.17448778450489044 0.12436988949775696 0.5105909705162048
0.1872585117816925 0.19041800498962402 0.5829792618751526
0.1820172220468521 0.28975123167037964 0.5003995299339294
0.2887190878391266 0.3083723783493042 0.5907886028289795
0.21175536513328552 0.1986054629087448 0.562627375125885
0.3486337959766388 0.18173426389694214 0.6276708841323853
0.16495969891548157 0.26566147804260254 0.46200621128082275
0.32652297616004944 0.21087272465229034 0.45730504393577576
0.15873956680297852 0.21534669399261475 0.5468271970748901
0.29168418049812317 0.34516751766204834 0.5480505228042603
0.17110241949558258 0.2549910545349121 0.6092081069946289
0.23707805573940277 0.24263960123062134 0.4865994453430176
0.2717793881893158 0.15533319115638733 0.4494520127773285
0.2775611877441406 0.3038273751735687 0.46425679326057434
0.20164379477500916 0.2889043986797333 0.5823571681976318
0.35375669598579407 0.17796911299228668 0.5618687272071838
0.22343499958515167 0.2182314395904541 0.4405904710292816
0.2702007293701172 0.16165803372859955 0.5821743011474609
0.21175536513328552 0.1986054629087448 0.562627375125885
0.2532578706741333 0.17460599541664124 0.524684488773346
0.21879129111766815 0.2294861525297165 0.6257060170173645
0.33322760462760925 0.26835575699806213 0.5944923162460327
0.252399742603302 0.24114206433296204 0.5254530906677246
0.3117145895957947 0.2098044753074646 0.4890798032283783
0.30771714448928833 0.14691539108753204 0.44237732887268066
0.27329152822494507 0.2024940401315689 0.4415193498134613
0.2524974048137665 0.2741714119911194 0.4821168780326843
0.20979908108711243 0.23447352647781372 0.5919720530509949
0.16733774542808533 0.11890053004026413 0.4601486623287201
0.24137093126773834 0.3038780391216278 0.4619940221309662
0.21253660321235657 0.15126889944076538 0.4949069619178772
0.3161502480506897 0.34484556317329407 0.5824954509735107
0.20933283865451813 0.2941422164440155 0.4832659065723419
0.23256123065948486 0.3002043664455414 0.533523678779602
0.2868136465549469 0.3375352621078491 0.4987565577030182
0.2641775906085968 0.1663864403963089 0.47903937101364136
0.2758958637714386 0.3267148435115814 0.5895076990127563
0.20052459836006165 0.16839729249477386 0.637639582157135
0.3144901692867279 0.14697667956352234 0.6107221245765686
0.2891351282596588 0.14289052784442902 0.43907323479652405
0.21151137351989746 0.1249392032623291 0.45730018615722656
0.3351505696773529 0.2270178645849228 0.5475417375564575
0.275858998298645 0.24974027276039124 0.46122118830680847
0.3351505696773529 0.2270178645849228 0.5475417375564575
0.2261369526386261 0.1994442641735077 0.5986084342002869
0.2732216715812683 0.28163886070251465 0.5296332240104675
0.235007643699646 0.19734735786914825 0.55753493309021
0.3066170811653137 0.3273261487483978 0.6104820966720581
0.28070303797721863 0.22596976161003113 0.5777533054351807
0.15223053097724915 0.29485249519348145 0.619442880153656
0.33424112200737 0.1713520884513855 0.4324571490287781
0.15223053097724915 0.29485249519348145 0.619442880153656
0.33424112200737 0.1713520884513855 0.4324571490287781
0.31073346734046936 0.18660351634025574 0.5692840218544006
0.3302382826805115 0.19886882603168488 0.5070624351501465
0.18903915584087372 0.24303597211837769 0.627583920955658
0.2552191913127899 0.2613012194633484 0.5644667148590088
0.19542048871517181 0.19537769258022308 0.5940173864364624
0.3564659059047699 0.16830025613307953 0.5188959836959839
0.3302382826805115 0.19886882603168488 0.5070624351501465
0.18903915584087372 0.24303597211837769 0.627583920955658
0.2552191913127899 0.2613012194633484 0.5644667148590088
0.19542048871517181 0.19537769258022308 0.5940173864364624
0.2875180244445801 0.22913271188735962 0.6303120851516724
0.32220330834388733 0.2034555971622467 0.435385525226593
0.24969108402729034 0.15281929075717926 0.6351772546768188
0.2908518314361572 0.16967414319515228 0.45894473791122437
0.3374488055706024 0.18315932154655457 0.45921921730041504
0.2834014892578125 0.14604675769805908 0.5659748911857605
0.34059926867485046 0.1606694757938385 0.6210302114486694
0.18903915584087372 0.24303597211837769 0.627583920955658
0.2552191913127899 0.2613012194633484 0.5644667148590088
0.2597619891166687 0.16266214847564697 0.5601015090942383
0.3564659059047699 0.16830025613307953 0.5188959836959839
0.3302382826805115 0.19886882603168488 0.5070624351501465
0.18903915584087372 0.24303597211837769 0.627583920955658
0.2552191913127899 0.2613012194633484 0.5644667148590088
0.19542048871517181 0.19537769258022308 0.5940173864364624
0.32608550786972046 0.16457664966583252 0.5605337619781494
0.2822290062904358 0.3259395956993103 0.603871762752533
0.33209696412086487 0.20656774938106537 0.63050776720047
0.23610122501850128 0.13734589517116547 0.49317875504493713
0.24969108402729034 0.15281929075717926 0.6351772546768188
0.2908518314361572 0.16967414319515228 0.45894473791122437
0.3374488055706024 0.18315932154655457 0.45921921730041504
0.2834014892578125 0.14604675769805908 0.5659748911857605
0.25200480222702026 0.23203548789024353 0.6105963587760925
0.1565953642129898 0.3071565628051758 0.4462849795818329
0.31365907192230225 0.18686045706272125 0.5313162207603455
0.2148110568523407 0.21805094182491302 0.5634995698928833
0.208493173122406 0.2789106070995331 0.5265483260154724
0.29107001423835754 0.1725078672170639 0.46796178817749023
0.1427527815103531 0.2721879780292511 0.4975697100162506
0.1795646995306015 0.23799259960651398 0.6261898279190063
0.1589982509613037 0.19430430233478546 0.47054576873779297
0.16510507464408875 0.16662082076072693 0.6310633420944214
0.31926047801971436 0.311742901802063 0.5123728513717651
0.3433922827243805 0.2132868617773056 0.5788093209266663
0.15854105353355408 0.28322526812553406 0.44801658391952515
0.18327607214450836 0.1584773063659668 0.448396772146225
0.3214302062988281 0.21234194934368134 0.5293348431587219
0.239757239818573 0.17766687273979187 0.5089956521987915
0.2056955248117447 0.27060285210609436 0.4553166627883911
0.16526465117931366 0.28251051902770996 0.46451708674430847
0.14319460093975067 0.26941847801208496 0.546532392501831
0.20369820296764374 0.17044682800769806 0.5214844346046448
0.17716191709041595 0.1867678165435791 0.4965335428714752
0.21405884623527527 0.1387992799282074 0.6122122406959534
0.2191416323184967 0.2619985044002533 0.5454520583152771
0.3407617211341858 0.23366156220436096 0.4822181165218353
0.14950740337371826 0.26628577709198 0.5662248730659485
0.208493173122406 0.2789106070995331 0.5265483260154724
0.2867047190666199 0.1748344749212265 0.5269424319267273
0.1927778273820877 0.17809046804904938 0.6167407631874084
0.26310738921165466 0.20901066064834595 0.5399734377861023
0.2934802770614624 0.31486594676971436 0.5750573873519897
0.19064006209373474 0.14539606869220734 0.4531080722808838
0.13932691514492035 0.2522258758544922 0.48551592230796814
0.3367198407649994 0.20617946982383728 0.5782697200775146
0.3363495171070099 0.15567202866077423 0.5590124726295471
0.24690298736095428 0.13136820495128632 0.5148175358772278
0.18575982749462128 0.29661819338798523 0.6267014741897583
0.27775636315345764 0.1458754688501358 0.5186172127723694
0.23589226603507996 0.23436735570430756 0.5902243256568909
0.17287591099739075 0.15759117901325226 0.45810675621032715
0.20208507776260376 0.2527870833873749 0.6168749928474426
0.17359045147895813 0.25007012486457825 0.5204620361328125
0.2909691631793976 0.3085263967514038 0.5828248858451843
0.282015323638916 0.29460740089416504 0.5343573689460754
0.2674950957298279 0.23634064197540283 0.6015401482582092
0.2599618434906006 0.19665798544883728 0.522094190120697
0.18374240398406982 0.3076952397823334 0.49930739402770996
0.15833008289337158 0.2087593823671341 0.4756774306297302
0.1726228892803192 0.17127077281475067 0.5237504839897156
0.22906716167926788 0.14295713603496552 0.591566264629364
0.3187556266784668 0.16619394719600677 0.4480932950973511
0.3094352185726166 0.21778735518455505 0.6018093228340149
0.27930840849876404 0.15698781609535217 0.5752459168434143
0.1277570128440857 0.2926662564277649 0.44276997447013855
0.16632317006587982 0.25690925121307373 0.5650959014892578
0.2113478183746338 0.18438652157783508 0.5065866112709045
0.3227171003818512 0.25868067145347595 0.4397733509540558
0.2911544442176819 0.229689359664917 0.5226078033447266
0.3026127219200134 0.27661800384521484 0.6307129859924316
0.21451792120933533 0.2760348916053772 0.4490772783756256
0.14077335596084595 0.2370285540819168 0.4714398682117462
0.190782368183136 0.1358473300933838 0.46764272451400757
0.2539517879486084 0.14977633953094482 0.5322268605232239
0.27278703451156616 0.24128976464271545 0.6071684956550598
0.29727911949157715 0.2808464467525482 0.45917782187461853
0.230376735329628 0.2538605034351349 0.5353283286094666
0.1433437019586563 0.28222522139549255 0.5125870108604431
0.33993765711784363 0.15497080981731415 0.48515111207962036
0.33813807368278503 0.2289600819349289 0.5621840357780457
0.32426348328590393 0.3134077191352844 0.5157745480537415
0.14822137355804443 0.2539767920970917 0.4591630697250366
0.1819065362215042 0.24864737689495087 0.4667288362979889
0.31556665897369385 0.2490662783384323 0.4960271716117859
0.3058977723121643 0.25281041860580444 0.5709366202354431
0.144941508769989 0.25880587100982666 0.4564496576786041
0.241909459233284 0.28959086537361145 0.5381721258163452
0.17932380735874176 0.28292152285575867 0.5568090677261353
0.18410225212574005 0.2177847921848297 0.5311687588691711
0.36510536074638367 0.16745175421237946 0.5653954744338989
0.2479182332754135 0.3274444341659546 0.4939495325088501
0.2870987355709076 0.23380406200885773 0.49769172072410583
0.18903915584087372 0.24303597211837769 0.627583920955658
0.2552191913127899 0.2613012194633484 0.5644667148590088
0.19542048871517181 0.19537769258022308 0.5940173864364624
0.26540467143058777 0.24938368797302246 0.46529075503349304
0.22906716167926788 0.14295713603496552 0.591566264629364
0.3187556266784668 0.16619394719600677 0.4480932950973511
0.18942661583423615 0.22765466570854187 0.5513700246810913
0.15885266661643982 0.2556722164154053 0.4419730603694916
0.24573326110839844 0.135881707072258 0.5261343717575073
0.35453957319259644 0.18628236651420593 0.4698532223701477
0.24718855321407318 0.12972304224967957 0.5419483184814453
0.2359142154455185 0.3086399734020233 0.5113392472267151
0.2806633710861206 0.3186003565788269 0.536178708076477
0.19190531969070435 0.1553320735692978 0.5596879124641418
0.19631437957286835 0.21153146028518677 0.5489590764045715
0.16035078465938568 0.23088815808296204 0.5048322677612305
0.2497788965702057 0.2477862685918808 0.5592084527015686
0.25766298174858093 0.28113290667533875 0.6297463178634644
0.2417968213558197 0.15704050660133362 0.575836181640625
0.17706014215946198 0.21958182752132416 0.4655071198940277
0.32082635164260864 0.22739437222480774 0.47431308031082153
0.2152617871761322 0.28091004490852356 0.6341001987457275
0.17875392735004425 0.23065750300884247 0.492460697889328
0.2884593605995178 0.22446812689304352 0.448596715927124
0.3090033233165741 0.18131858110427856 0.4496821463108063
0.2564825713634491 0.31693336367607117 0.5440046787261963
0.21863171458244324 0.18008621037006378 0.6344969272613525
0.16093024611473083 0.16784512996673584 0.5177437663078308
0.18510271608829498 0.18054400384426117 0.4463212490081787
0.15159089863300323 0.2575160562992096 0.4815540015697479
0.34937724471092224 0.2032349705696106 0.4526064693927765
0.2199084609746933 0.23149050772190094 0.5231892466545105
0.2578735649585724 0.1522890031337738 0.5496392250061035
0.1859394609928131 0.18395815789699554 0.6231248378753662
0.34286046028137207 0.18030323088169098 0.5475940704345703
0.18731191754341125 0.3078613877296448 0.5712616443634033
0.237306147813797 0.17603109776973724 0.49713537096977234
0.34999316930770874 0.21983766555786133 0.6308690905570984
0.2991444766521454 0.14071057736873627 0.6320774555206299
0.1565953642129898 0.3071565628051758 0.4462849795818329
0.31365907192230225 0.18686045706272125 0.5313162207603455
0.2148110568523407 0.21805094182491302 0.5634995698928833
0.28338977694511414 0.297650009393692 0.443879097700119
0.3025546073913574 0.19685393571853638 0.5063409805297852
0.2247542291879654 0.2638571560382843 0.4711241126060486
0.1795646995306015 0.23799259960651398 0.6261898279190063
0.18322131037712097 0.1678515374660492 0.4403814375400543
0.1840774565935135 0.19200557470321655 0.4727250635623932
0.15694540739059448 0.26992982625961304 0.47454914450645447
0.23350024223327637 0.27749955654144287 0.5060111284255981
0.2627413868904114 0.1565675437450409 0.5456311702728271
0.30312830209732056 0.23482143878936768 0.5364370942115784
0.2859198749065399 0.15214785933494568 0.575843095779419
0.21690647304058075 0.23559550940990448 0.4583803117275238
0.22054457664489746 0.16995680332183838 0.5641988515853882
0.22546906769275665 0.16472984850406647 0.5974570512771606
0.2940102517604828 0.21474339067935944 0.615443229675293
0.28560489416122437 0.2990574538707733 0.5302534699440002
0.22401860356330872 0.2021416276693344 0.5216291546821594
0.32396379113197327 0.2730425298213959 0.5033058524131775
0.3105974793434143 0.17513413727283478 0.45422181487083435
0.14427722990512848 0.3035605847835541 0.476234495639801
0.285452663898468 0.3259352743625641 0.4786536991596222
0.19400981068611145 0.24960742890834808 0.5718501806259155
0.21002690494060516 0.2503749430179596 0.4399475157260895
0.24086213111877441 0.23492743074893951 0.46818792819976807
0.30105865001678467 0.14499060809612274 0.569331705570221
0.2387898564338684 0.32027900218963623 0.5555487871170044
0.35059353709220886 0.16614298522472382 0.45514774322509766
0.2208555042743683 0.2903216779232025 0.4505760073661804
0.17847442626953125 0.1451045572757721 0.5169005990028381
0.19866137206554413 0.13362015783786774 0.4791153371334076
0.2940526008605957 0.27537134289741516 0.4718465507030487
0.25979891419410706 0.29850584268569946 0.44361963868141174
0.1857798993587494 0.2496889978647232 0.5308433771133423
0.1965525895357132 0.2708096206188202 0.6254650354385376
0.2191302478313446 0.16837750375270844 0.4660382568836212
0.22070850431919098 0.28392288088798523 0.5164845585823059
0.23042404651641846 0.17161835730075836 0.5777365565299988
0.31920066475868225 0.31760117411613464 0.6223855018615723
0.30749863386154175 0.1500699371099472 0.503479540348053
0.20373311638832092 0.25854721665382385 0.5137467980384827
0.3575463593006134 0.18369148671627045 0.5323712229728699
0.3228147625923157 0.23286095261573792 0.5448936820030212
0.2938861548900604 0.2593229413032532 0.6098092794418335
0.2122715264558792 0.27740323543548584 0.6307905316352844
0.16515196859836578 0.2718218266963959 0.5814833641052246
0.23834706842899323 0.2915515601634979 0.5561967492103577
0.19765926897525787 0.1616380661725998 0.5532322525978088
0.1860889196395874 0.2850923240184784 0.6293508410453796
0.28070303797721863 0.22596976161003113 0.5777533054351807
0.15223053097724915 0.29485249519348145 0.619442880153656
0.18034137785434723 0.2527462840080261 0.4720058739185333
0.2409987598657608 0.14738918840885162 0.6166501641273499
0.1885724514722824 0.14332862198352814 0.6125880479812622
0.20870275795459747 0.24884933233261108 0.6055096387863159
0.3228681683540344 0.3088853657245636 0.4919847846031189
0.24703392386436462 0.16310058534145355 0.49777746200561523
0.2593865394592285 0.20664620399475098 0.5777973532676697
0.20218603312969208 0.283966988325119 0.6150203943252563
0.13590113818645477 0.2749715745449066 0.5229142904281616
0.24716800451278687 0.27060672640800476 0.4699839651584625
0.2155684232711792 0.13862039148807526 0.43770238757133484
0.20656530559062958 0.20307277143001556 0.5176087617874146
0.21546608209609985 0.20679442584514618 0.5048532485961914
0.27029019594192505 0.33332568407058716 0.53956139087677
0.3031950294971466 0.19815987348556519 0.627741277217865
0.27177026867866516 0.21075911819934845 0.608794629573822
0.17158348858356476 0.22409586608409882 0.45561912655830383
0.21002690494060516 0.2503749430179596 0.4399475157260895
0.24086213111877441 0.23492743074893951 0.46818792819976807
0.30105865001678467 0.14499060809612274 0.569331705570221
0.2387898564338684 0.32027900218963623 0.5555487871170044
0.35059353709220886 0.16614298522472382 0.45514774322509766
0.18216931819915771 0.2920975387096405 0.4652988314628601
0.17847442626953125 0.1451045572757721 0.5169005990028381
0.19866137206554413 0.13362015783786774 0.4791153371334076
0.2940526008605957 0.27537134289741516 0.4718465507030487
0.25979891419410706 0.29850584268569946 0.44361963868141174
0.1857798993587494 0.2496889978647232 0.5308433771133423
0.1965525895357132 0.2708096206188202 0.6254650354385376
0.2191302478313446 0.16837750375270844 0.4660382568836212
0.22070850431919098 0.28392288088798523 0.5164845585823059
0.23042404651641846 0.17161835730075836 0.5777365565299988
0.31920066475868225 0.31760117411613464 0.6223855018615723
0.30749863386154175 0.1500699371099472 0.503479540348053
0.20373311638832092 0.25854721665382385 0.5137467980384827
0.21879129111766815 0.2294861525297165 0.6257060170173645
0.16632317006587982 0.25690925121307373 0.5650959014892578
0.2113478183746338 0.18438652157783508 0.5065866112709045
0.193747878074646 0.17045742273330688 0.6322256326675415
0.31618785858154297 0.2603335678577423 0.4525400698184967
0.2921651005744934 0.2395288050174713 0.44659289717674255
0.30652424693107605 0.25110992789268494 0.612765908241272
0.25083833932876587 0.24529573321342468 0.5411364436149597
0.20989610254764557 0.13192197680473328 0.4977908432483673
0.2589508891105652 0.24115905165672302 0.6138215661048889
0.21395862102508545 0.16991522908210754 0.5656955242156982
0.28013867139816284 0.22100931406021118 0.5064106583595276
0.20130577683448792 0.15956450998783112 0.5132257342338562
0.19874724745750427 0.15292802453041077 0.589918851852417
0.23711831867694855 0.1484673172235489 0.6008278131484985
0.1667962670326233 0.2506754994392395 0.6261195540428162
0.3294674754142761 0.19823786616325378 0.5526175498962402
0.14348047971725464 0.26599788665771484 0.5574538111686707
0.19909434020519257 0.15804675221443176 0.5901978015899658
0.30290642380714417 0.15074604749679565 0.45450982451438904
0.23303964734077454 0.2837032079696655 0.4939296543598175
0.24536676704883575 0.28279122710227966 0.5774592161178589
0.18582123517990112 0.24654796719551086 0.6133962273597717
0.14309698343276978 0.29752227663993835 0.5363838076591492
0.3489953875541687 0.23511451482772827 0.5876204371452332
0.22054457664489746 0.16995680332183838 0.5641988515853882
0.22546906769275665 0.16472984850406647 0.5974570512771606
0.2940102517604828 0.21474339067935944 0.615443229675293
0.28560489416122437 0.2990574538707733 0.5302534699440002
0.22401860356330872 0.2021416276693344 0.5216291546821594
0.32396379113197327 0.2730425298213959 0.5033058524131775
0.3105974793434143 0.17513413727283478 0.45422181487083435
0.33322760462760925 0.26835575699806213 0.5944923162460327
0.18903915584087372 0.24303597211837769 0.627583920955658
0.2552191913127899 0.2613012194633484 0.5644667148590088
0.19542048871517181 0.19537769258022308 0.5940173864364624
0.26540467143058777 0.24938368797302246 0.46529075503349304
0.22906716167926788 0.14295713603496552 0.591566264629364
0.3187556266784668 0.16619394719600677 0.4480932950973511
0.15402749180793762 0.2187444418668747 0.5529400706291199
0.2693159580230713 0.20643411576747894 0.5717644095420837
0.29596787691116333 0.14390024542808533 0.4649360775947571
0.20026716589927673 0.18591704964637756 0.5620856881141663
0.30044040083885193 0.305968314409256 0.45528852939605713
0.22585809230804443 0.18488852679729462 0.47817036509513855
0.2968677580356598 0.21930985152721405 0.5139378309249878
0.25061121582984924 0.15247292816638947 0.5668671131134033
0.20366322994232178 0.2863975167274475 0.5502552390098572
0.2696312665939331 0.24461358785629272 0.4349759519100189
0.21864745020866394 0.19106508791446686 0.6219428181648254
0.24236008524894714 0.13873134553432465 0.5114018321037292
0.3106529712677002 0.24369698762893677 0.4771161675453186
0.21692895889282227 0.16390147805213928 0.5455495715141296
0.35172784328460693 0.18439410626888275 0.5658997297286987
0.2993452548980713 0.32383134961128235 0.5759559273719788
0.2417968213558197 0.15704050660133362 0.575836181640625
0.17706014215946198 0.21958182752132416 0.4655071198940277
0.32082635164260864 0.22739437222480774 0.47431308031082153
0.2152617871761322 0.28091004490852356 0.6341001987457275
0.17875392735004425 0.23065750300884247 0.492460697889328
0.2884593605995178 0.22446812689304352 0.448596715927124
0.3090033233165741 0.18131858110427856 0.4496821463108063
0.2564825713634491 0.31693336367607117 0.5440046787261963
0.21863171458244324 0.18008621037006378 0.6344969272613525
0.24018333852291107 0.2254744917154312 0.5740224123001099
0.1872577965259552 0.1680668592453003 0.5409978628158569
0.253905326128006 0.18000446259975433 0.4535854458808899
0.23931540548801422 0.1810809075832367 0.5470559000968933
0.17714950442314148 0.2625061869621277 0.537622332572937
0.2968527674674988 0.18975357711315155 0.5875925421714783
0.1881173700094223 0.11705555021762848 0.519365668296814
0.14754913747310638 0.2161487638950348 0.5161400437355042
0.3019641935825348 0.20415890216827393 0.5604518055915833
0.27628350257873535 0.14077556133270264 0.5679808855056763
0.13234955072402954 0.28575098514556885 0.452004611492157
0.20403112471103668 0.22544603049755096 0.4753660261631012
0.21705736219882965 0.21973294019699097 0.4719908535480499
0.2383759617805481 0.14163747429847717 0.5146321058273315
0.3070419132709503 0.33552882075309753 0.48099663853645325
0.3452087640762329 0.23615044355392456 0.5067000985145569
0.20176486670970917 0.18529102206230164 0.5151825547218323
0.1515527367591858 0.18539045751094818 0.4902072548866272
0.20170830190181732 0.14562492072582245 0.5626571774482727
0.172629714012146 0.23339685797691345 0.521234393119812
0.30408936738967896 0.18931372463703156 0.4375654458999634
0.3126455843448639 0.1454811692237854 0.5995854735374451
0.13944479823112488 0.303680956363678 0.5511084198951721
0.19600450992584229 0.19731728732585907 0.5370872020721436
0.2049964815378189 0.27774345874786377 0.4445745646953583
0.21617744863033295 0.303670197725296 0.48825955390930176
0.17705859243869781 0.2897781729698181 0.5932891368865967
0.2129736989736557 0.14235323667526245 0.45094946026802063
0.20197075605392456 0.1708986461162567 0.6262378096580505
0.3217133581638336 0.32082054018974304 0.4527861475944519
0.2859381437301636 0.3371562957763672 0.4685269296169281
0.1783212274312973 0.18171998858451843 0.6216564178466797
0.2983948886394501 0.14250002801418304 0.6331672668457031
0.30105865001678467 0.14499060809612274 0.569331705570221
0.2387898564338684 0.32027900218963623 0.5555487871170044
0.35059353709220886 0.16614298522472382 0.45514774322509766
0.2208555042743683 0.2903216779232025 0.4505760073661804
0.17847442626953125 0.1451045572757721 0.5169005990028381
0.19866137206554413 0.13362015783786774 0.4791153371334076
0.2940526008605957 0.27537134289741516 0.4718465507030487
0.25979891419410706 0.29850584268569946 0.44361963868141174
0.1857798993587494 0.2496889978647232 0.5308433771133423
0.1965525895357132 0.2708096206188202 0.6254650354385376
0.2191302478313446 0.16837750375270844 0.4660382568836212
0.2191302478313446 0.16837750375270844 0.4660382568836212
0.22070850431919098 0.28392288088798523 0.5164845585823059
0.23042404651641846 0.17161835730075836 0.5777365565299988
0.31920066475868225 0.31760117411613464 0.6223855018615723
0.30749863386154175 0.1500699371099472 0.503479540348053
0.20373311638832092 0.25854721665382385 0.5137467980384827
0.3575463593006134 0.18369148671627045 0.5323712229728699
0.3228147625923157 0.23286095261573792 0.5448936820030212
0.2938861548900604 0.2593229413032532 0.6098092794418335
0.15479058027267456 0.23109064996242523 0.6129099726676941
0.1970701664686203 0.25366753339767456 0.6157211065292358
0.2122715264558792 0.27740323543548584 0.6307905316352844
0.16515196859836578 0.2718218266963959 0.5814833641052246
0.23834706842899323 0.2915515601634979 0.5561967492103577
0.19765926897525787 0.1616380661725998 0.5532322525978088
0.1860889196395874 0.2850923240184784 0.6293508410453796
0.28070303797721863 0.22596976161003113 0.5777533054351807
0.15223053097724915 0.29485249519348145 0.619442880153656
0.33424112200737 0.1713520884513855 0.4324571490287781
0.31073346734046936 0.18660351634025574 0.5692840218544006
0.25952503085136414 0.16403520107269287 0.5074169635772705
0.28070303797721863 0.22596976161003113 0.5777533054351807
0.15223053097724915 0.29485249519348145 0.619442880153656
0.33424112200737 0.1713520884513855 0.4324571490287781
0.31073346734046936 0.18660351634025574 0.5692840218544006
0.3302382826805115 0.19886882603168488 0.5070624351501465
0.18903915584087372 0.24303597211837769 0.627583920955658
0.2552191913127899 0.2613012194633484 0.5644667148590088
0.19542048871517181 0.19537769258022308 0.5940173864364624
0.26540467143058777 0.24938368797302246 0.46529075503349304
0.22906716167926788 0.14295713603496552 0.591566264629364
0.3187556266784668 0.16619394719600677 0.4480932950973511
0.3094352185726166 0.21778735518455505 0.6018093228340149
0.27930840849876404 0.15698781609535217 0.5752459168434143
0.1277570128440857 0.2926662564277649 0.44276997447013855
0.16632317006587982 0.25690925121307373 0.5650959014892578
0.2113478183746338 0.18438652157783508 0.5065866112709045
0.3227171003818512 0.25868067145347595 0.4397733509540558
0.2911544442176819 0.229689359664917 0.5226078033447266
0.3026127219200134 0.27661800384521484 0.6307129859924316
0.21451792120933533 0.2760348916053772 0.4490772783756256
0.14077335596084595 0.2370285540819168 0.4714398682117462
0.20745831727981567 0.19269141554832458 0.5190342664718628
0.32689782977104187 0.18076671659946442 0.4518192410469055
0.18605835735797882 0.18593113124370575 0.44809600710868835
0.15240833163261414 0.27938589453697205 0.5377944707870483
0.2797471880912781 0.15423186123371124 0.5622481107711792
0.19327907264232635 0.1831909567117691 0.4528767466545105
0.19181254506111145 0.2523336112499237 0.5112919807434082
0.22712627053260803 0.24797816574573517 0.5665795803070068
0.2932931184768677 0.26791682839393616 0.4542168080806732
0.17977118492126465 0.23669223487377167 0.5373414754867554
0.31073346734046936 0.18660351634025574 0.5692840218544006
0.2552191913127899 0.2613012194633484 0.5644667148590088
0.19542048871517181 0.19537769258022308 0.5940173864364624
0.26540467143058777 0.24938368797302246 0.46529075503349304
0.22906716167926788 0.14295713603496552 0.591566264629364
0.3187556266784668 0.16619394719600677 0.4480932950973511
0.3094352185726166 0.21778735518455505 0.6018093228340149
0.20648477971553802 0.25701242685317993 0.5117394328117371
0.3036171495914459 0.16922804713249207 0.4722456932067871
0.3057258725166321 0.3341527283191681 0.5695869326591492
0.3374488055706024 0.18315932154655457 0.45921921730041504
0.2834014892578125 0.14604675769805908 0.5659748911857605
0.29909181594848633 0.31853628158569336 0.536926805973053
0.27689626812934875 0.17368096113204956 0.6070986390113831
0.2877783477306366 0.3308362662792206 0.5476278066635132
0.27404043078422546 0.2729608118534088 0.5147203207015991
0.33159297704696655 0.1815635710954666 0.4528026580810547
0.294107586145401 0.15490961074829102 0.5184671878814697
0.18552200496196747 0.1474066823720932 0.5622450113296509
0.19139842689037323 0.2579059600830078 0.44550517201423645
0.19282536208629608 0.27916470170021057 0.5452085733413696
0.18411092460155487 0.2130897045135498 0.5602165460586548
0.27539852261543274 0.29570573568344116 0.49238792061805725
0.2249411940574646 0.20427320897579193 0.5805710554122925
0.252972811460495 0.29189687967300415 0.5417376160621643
0.29176971316337585 0.1898573338985443 0.4737168550491333
0.22381451725959778 0.1481054723262787 0.6276750564575195
0.2174665480852127 0.17330215871334076 0.4844950735569
0.3433350622653961 0.17917367815971375 0.47614237666130066
0.25099503993988037 0.3023937940597534 0.5674343109130859
0.2798600196838379 0.31527289748191833 0.5888855457305908
0.31586503982543945 0.2168532758951187 0.43559637665748596
0.3302382826805115 0.19886882603168488 0.5070624351501465
0.18903915584087372 0.24303597211837769 0.627583920955658
0.2552191913127899 0.2613012194633484 0.5644667148590088
0.19542048871517181 0.19537769258022308 0.5940173864364624
0.26540467143058777 0.24938368797302246 0.46529075503349304
0.22906716167926788 0.14295713603496552 0.591566264629364
0.1872577965259552 0.1680668592453003 0.5409978628158569
0.3191582262516022 0.31348738074302673 0.432384192943573
0.22939208149909973 0.18683606386184692 0.5524898767471313
0.3265964686870575 0.22688032686710358 0.5283947587013245
0.20450064539909363 0.1750875562429428 0.5746044516563416
0.22297631204128265 0.15808714926242828 0.5941818356513977
0.16808274388313293 0.24937309324741364 0.5403345823287964
0.32318124175071716 0.19014783203601837 0.6320275664329529
0.22225119173526764 0.25337734818458557 0.5066104531288147
0.20804907381534576 0.21131619811058044 0.471967875957489
0.2642797529697418 0.25724342465400696 0.5391778349876404
0.2415963113307953 0.1972363442182541 0.44064801931381226
0.3422251045703888 0.21827921271324158 0.48912301659584045
0.19678768515586853 0.13170452415943146 0.44367843866348267
0.20352670550346375 0.2032168060541153 0.5222101807594299
0.28993740677833557 0.2862907648086548 0.5109841823577881
0.28137487173080444 0.3293158710002899 0.5109482407569885
0.25906407833099365 0.25515881180763245 0.5261558294296265
0.2773914039134979 0.269354909658432 0.5478516817092896
0.3079797625541687 0.24107785522937775 0.4907478094100952
0.30770421028137207 0.1693861484527588 0.6136626601219177
0.25170135498046875 0.15403616428375244 0.5516096949577332
0.2129736989736557 0.14235323667526245 0.45094946026802063
0.2947733700275421 0.28974276781082153 0.6074531078338623
0.28990495204925537 0.32503679394721985 0.4807761013507843
0.1669238656759262 0.1661066859960556 0.5700230002403259
0.25200480222702026 0.23203548789024353 0.6105963587760925
0.2247542291879654 0.2638571560382843 0.4711241126060486
0.1795646995306015 0.23799259960651398 0.6261898279190063
0.18322131037712097 0.1678515374660492 0.4403814375400543
0.1840774565935135 0.19200557470321655 0.4727250635623932
0.15694540739059448 0.26992982625961304 0.47454914450645447
0.23350024223327637 0.27749955654144287 0.5060111284255981
0.2627413868904114 0.1565675437450409 0.5456311702728271
0.30312830209732056 0.23482143878936768 0.5364370942115784
0.15854105353355408 0.28322526812553406 0.44801658391952515
0.27102115750312805 0.28029119968414307 0.5391596555709839
0.1898222714662552 0.2867012917995453 0.6158889532089233
0.20136049389839172 0.1680876612663269 0.4814380705356598
0.28939399123191833 0.17361712455749512 0.47807785868644714
0.3067604601383209 0.33878570795059204 0.4856985807418823
0.2127130627632141 0.23442351818084717 0.5339148640632629
0.2567737400531769 0.25463196635246277 0.5934487581253052
0.2129736989736557 0.14235323667526245 0.45094946026802063
0.20197075605392456 0.1708986461162567 0.6262378096580505
0.3217133581638336 0.32082054018974304 0.4527861475944519
0.18100063502788544 0.1524214893579483 0.4433586001396179
0.1973983347415924 0.13597100973129272 0.6152089834213257
0.24994751811027527 0.29175877571105957 0.5050176978111267
0.28382182121276855 0.1953502595424652 0.632146418094635
0.20315085351467133 0.20658749341964722 0.5506041646003723
0.26045021414756775 0.15916186571121216 0.5201593637466431
0.20331701636314392 0.25344616174697876 0.4416705071926117
0.3207937180995941 0.20838601887226105 0.47413069009780884
0.3195205330848694 0.31503698229789734 0.5005344152450562
0.20477263629436493 0.2456320822238922 0.44848769903182983
0.25527095794677734 0.16451308131217957 0.5087881684303284
0.30859148502349854 0.2578490674495697 0.5641890168190002
0.1990891695022583 0.13830013573169708 0.44448554515838623
0.27512046694755554 0.28534555435180664 0.49696940183639526
0.22350172698497772 0.2263220250606537 0.4904731512069702
0.28696680068969727 0.29821038246154785 0.4775349497795105
0.26089927554130554 0.27390047907829285 0.4671683609485626
0.28637972474098206 0.2634615898132324 0.47192296385765076
0.16960516571998596 0.13793979585170746 0.47728824615478516
0.2632065713405609 0.15207096934318542 0.5150651335716248
0.19407369196414948 0.13458670675754547 0.5180652737617493
0.3480110168457031 0.15580330789089203 0.5462113618850708
0.22474420070648193 0.19029951095581055 0.5683929324150085
0.20246638357639313 0.13422761857509613 0.46142762899398804
0.1734749972820282 0.25166717171669006 0.5843386054039001
0.2042006403207779 0.3143143355846405 0.4625508189201355
0.2854034900665283 0.32438093423843384 0.5860679149627686
0.21750879287719727 0.24510499835014343 0.5273273587226868
0.3505624532699585 0.20858211815357208 0.46880924701690674
0.2536159157752991 0.1599411517381668 0.5004256367683411
0.30859148502349854 0.2578490674495697 0.5641890168190002
0.2090102732181549 0.303146630525589 0.6040056347846985
0.22775840759277344 0.13648658990859985 0.47844836115837097
0.26639679074287415 0.2556498944759369 0.5168623924255371
0.2268330603837967 0.2711976170539856 0.5736719965934753
0.23948653042316437 0.22822032868862152 0.5168769955635071
0.2596348524093628 0.3114623725414276 0.4800344705581665
0.2853879928588867 0.16552643477916718 0.46771469712257385
0.23150497674942017 0.13323061168193817 0.591151773929596
0.15206953883171082 0.21873259544372559 0.6340582966804504
0.2306116372346878 0.2067476511001587 0.5749264359474182
0.17681299149990082 0.30635079741477966 0.587450385093689
0.1587112993001938 0.22406268119812012 0.6200015544891357
0.28608939051628113 0.20546004176139832 0.5258240699768066
0.19467373192310333 0.23309306800365448 0.5143349766731262
0.27083924412727356 0.27224287390708923 0.49128949642181396
0.3078136742115021 0.3481005132198334 0.6307056546211243
0.14427722990512848 0.3035605847835541 0.476234495639801
0.285452663898468 0.3259352743625641 0.4786536991596222
0.3089522421360016 0.33314040303230286 0.4775790870189667
0.259112149477005 0.2418496012687683 0.5585958361625671
0.16006112098693848 0.25587305426597595 0.49311456084251404
0.14537572860717773 0.26877179741859436 0.46293142437934875
0.2751080393791199 0.1944463551044464 0.6279059052467346
0.19274134933948517 0.2940201759338379 0.47589465975761414
0.3157683312892914 0.15879817306995392 0.6226627230644226
0.2269224375486374 0.17592640221118927 0.4728878438472748
0.22475433349609375 0.13437773287296295 0.6011618971824646
0.2969905734062195 0.33169788122177124 0.5125572681427002
0.17018473148345947 0.12954553961753845 0.48731017112731934
0.2282288819551468 0.20412693917751312 0.5583974123001099
0.22128428518772125 0.24538294970989227 0.5422290563583374
0.3315834403038025 0.26477089524269104 0.4700968861579895
0.1680452972650528 0.2747405171394348 0.4722641110420227
0.19012542068958282 0.30346620082855225 0.5635976791381836
0.27627062797546387 0.279030978679657 0.4921036958694458
0.282199501991272 0.25976333022117615 0.5272563099861145
0.2211095690727234 0.21387626230716705 0.4442876875400543
0.19523076713085175 0.16218847036361694 0.5465367436408997
0.24519461393356323 0.21972094476222992 0.6070414185523987
0.2623536288738251 0.2270437479019165 0.5519960522651672
0.1606927067041397 0.1656172275543213 0.5827783346176147
0.13722139596939087 0.2568398118019104 0.477900892496109
0.22996589541435242 0.23108822107315063 0.625834047794342
0.17186065018177032 0.188849076628685 0.5123269557952881
0.14968010783195496 0.2671530842781067 0.5798860788345337
0.285452663898468 0.3259352743625641 0.4786536991596222
0.20806154608726501 0.19269151985645294 0.550163745880127
0.19791632890701294 0.16433994472026825 0.48602762818336487
0.27923208475112915 0.28111183643341064 0.47984418272972107
0.23924389481544495 0.13048934936523438 0.5120934247970581
0.2602078318595886 0.17525838315486908 0.5498794317245483
0.31276875734329224 0.25044897198677063 0.6030669808387756
0.23634645342826843 0.30288007855415344 0.5970408320426941
0.2533785104751587 0.23853231966495514 0.5086137652397156
0.1994187831878662 0.24690183997154236 0.4547886550426483
0.2821597754955292 0.3277612030506134 0.6142717599868774
0.35128888487815857 0.21331538259983063 0.5180994272232056
0.28236475586891174 0.15786482393741608 0.4616197645664215
0.18285755813121796 0.12826384603977203 0.456866979598999
0.30349472165107727 0.27678149938583374 0.5093739032745361
0.31678611040115356 0.29060596227645874 0.5514430403709412
0.21576106548309326 0.30649206042289734 0.47599512338638306
0.3349485993385315 0.17496880888938904 0.4638224244117737
0.22775840759277344 0.13648658990859985 0.47844836115837097
0.14968010783195496 0.2671530842781067 0.5798860788345337
0.23948653042316437 0.22822032868862152 0.5168769955635071
0.2596348524093628 0.3114623725414276 0.4800344705581665
0.2853879928588867 0.16552643477916718 0.46771469712257385
0.23150497674942017 0.13323061168193817 0.591151773929596
0.2443273812532425 0.17373988032341003 0.5881904363632202
0.2136356234550476 0.26625582575798035 0.4427787661552429
0.2768890857696533 0.1940043568611145 0.576002299785614
0.29163694381713867 0.15314343571662903 0.5576643943786621
0.16432325541973114 0.22594544291496277 0.5529371500015259
0.3106028735637665 0.33691975474357605 0.4408411979675293
0.2834697365760803 0.2551712691783905 0.440689355134964
0.20572993159294128 0.1514149159193039 0.45783936977386475
0.32812827825546265 0.16886937618255615 0.5899953246116638
0.22475433349609375 0.13437773287296295 0.6011618971824646
0.2969905734062195 0.33169788122177124 0.5125572681427002
0.17018473148345947 0.12954553961753845 0.48731017112731934
0.2282288819551468 0.20412693917751312 0.5583974123001099
0.22128428518772125 0.24538294970989227 0.5422290563583374
0.3315834403038025 0.26477089524269104 0.4700968861579895
0.1680452972650528 0.2747405171394348 0.4722641110420227
0.19012542068958282 0.30346620082855225 0.5635976791381836
0.27627062797546387 0.279030978679657 0.4921036958694458
0.301685631275177 0.30802735686302185 0.45974230766296387
0.3552969992160797 0.1877490133047104 0.5525420308113098
0.25193291902542114 0.20132872462272644 0.5391947627067566
0.3512864112854004 0.1827854961156845 0.6044691205024719
0.18061020970344543 0.18412649631500244 0.5367096066474915
0.2256721705198288 0.1952212154865265 0.5441057682037354
0.149713933467865 0.2135479897260666 0.5375500917434692
0.30502933263778687 0.24710272252559662 0.4724511504173279
0.17110717296600342 0.23077933490276337 0.6201160550117493
0.2845767140388489 0.22012010216712952 0.45272743701934814
0.22562599182128906 0.249502032995224 0.47744446992874146
0.24691955745220184 0.1424122005701065 0.5544754862785339
0.3091570734977722 0.3020373582839966 0.4983348846435547
0.24695470929145813 0.27518871426582336 0.48537665605545044
0.24205946922302246 0.3028765320777893 0.5367725491523743
0.1559668928384781 0.2955530881881714 0.5389026999473572
0.2867446839809418 0.270919531583786 0.5362235903739929
0.15108662843704224 0.20517663657665253 0.5366685390472412
0.3044869303703308 0.16808158159255981 0.4397883713245392
0.3140452802181244 0.19306689500808716 0.6029736399650574
