ply
format ascii 1.0
element vertex 823
property float x
property float y
property float z
end_header
0.22732937335968018 0.16580118238925934 0.5468950271606445
0.15861615538597107 0.2649025022983551 0.5867831707000732
0.12055495381355286 0.28542017936706543 0.5133307576179504
0.2517617344856262 0.13656872510910034 0.6073768734931946
0.1184547170996666 0.2904227077960968 0.4451996982097626
0.2990390658378601 0.3248441517353058 0.5439451336860657
0.16536925733089447 0.21617573499679565 0.5298301577568054
0.16058626770973206 0.14243200421333313 0.46945735812187195
0.25109726190567017 0.1548396348953247 0.454293817281723
0.18171720206737518 0.20049059391021729 0.45178472995758057
0.3525756597518921 0.15982432663440704 0.4859779179096222
0.3351971507072449 0.24641579389572144 0.5781655311584473
0.2700817286968231 0.33622679114341736 0.4827244281768799
0.2762136459350586 0.29758402705192566 0.5383340120315552
0.2622844874858856 0.21302823722362518 0.6274137496948242
0.2620253562927246 0.2140904664993286 0.4838712513446808
0.16156162321567535 0.14413191378116608 0.5066311955451965
0.2431684136390686 0.1441839039325714 0.47769486904144287
0.23499609529972076 0.2414727509021759 0.5755776166915894
0.2105414718389511 0.24492798745632172 0.4472862780094147
0.20632988214492798 0.21010974049568176 0.4866902232170105
0.23240070044994354 0.19770337641239166 0.5148675441741943
0.26065877079963684 0.18972685933113098 0.6072642803192139
0.15190809965133667 0.23092474043369293 0.5311875343322754
0.31231510639190674 0.15884514153003693 0.45574477314949036
0.34053727984428406 0.20244185626506805 0.5001012086868286
0.22961494326591492 0.19859027862548828 0.47382310032844543
0.3019334375858307 0.2746169865131378 0.4363626539707184
0.2482893466949463 0.1536577194929123 0.6354420185089111
0.23475849628448486 0.27524563670158386 0.44758546352386475
0.24396924674510956 0.22584441304206848 0.47781825065612793
0.3045263886451721 0.25626182556152344 0.543160080909729
0.2668301463127136 0.31735333800315857 0.46592840552330017
0.2361811250448227 0.1970604807138443 0.60920250415802
0.3183390200138092 0.2133277803659439 0.535912811756134
0.18157407641410828 0.24105194211006165 0.513455331325531
0.18424730002880096 0.16084739565849304 0.5191735029220581
0.19908680021762848 0.27394571900367737 0.5061125159263611
0.1327986866235733 0.2408459484577179 0.5458157658576965
0.26344478130340576 0.15804344415664673 0.5721454620361328
0.3439497649669647 0.16889116168022156 0.5108276009559631
0.2545529007911682 0.2854098081588745 0.5573256611824036
0.21222388744354248 0.2851967215538025 0.468199223279953
0.26810434460639954 0.3291289806365967 0.5359506011009216
0.23261573910713196 0.15875974297523499 0.556458592414856
0.2946399450302124 0.1415536105632782 0.5812641978263855
0.22282442450523376 0.2773321270942688 0.4843670725822449
0.15403182804584503 0.14886632561683655 0.5260882377624512
0.22508370876312256 0.2718885540962219 0.6061995029449463
0.18016694486141205 0.15513622760772705 0.47178828716278076
0.23520821332931519 0.23913203179836273 0.5401803255081177
0.21988727152347565 0.2278810739517212 0.6163069009780884
0.29181522130966187 0.15136602520942688 0.47864407300949097
0.2659510672092438 0.272392213344574 0.5637479424476624
0.21597053110599518 0.18308597803115845 0.47774502635002136
0.24866239726543427 0.1901506930589676 0.5402565598487854
0.32007893919944763 0.237674281001091 0.47049441933631897
0.24123705923557281 0.258785218000412 0.6068136096000671
0.22461725771427155 0.2738026976585388 0.6116721630096436
0.3065325617790222 0.2549397051334381 0.48952433466911316
0.17709144949913025 0.3071173429489136 0.6317728161811829
0.18443800508975983 0.25602269172668457 0.5115295052528381
0.25450602173805237 0.28825896978378296 0.4520726799964905
0.17074622213840485 0.19738613069057465 0.6153103709220886
0.24508264660835266 0.21097350120544434 0.562599778175354
0.30122190713882446 0.32401350140571594 0.5662978887557983
0.26121723651885986 0.17515519261360168 0.46614834666252136
0.2645453214645386 0.2613676190376282 0.47081661224365234
0.29025739431381226 0.20145422220230103 0.49138355255126953
0.14536741375923157 0.24323172867298126 0.5586199164390564
0.2048216462135315 0.12224516272544861 0.5081127882003784
0.14061926305294037 0.2633052468299866 0.4417347013950348
0.2718813419342041 0.2828356623649597 0.6017987728118896
0.17022843658924103 0.27077069878578186 0.6213259696960449
0.21660640835762024 0.16047360002994537 0.457355260848999
0.18064987659454346 0.20686718821525574 0.6235882043838501
0.11708217859268188 0.29200315475463867 0.5500831604003906
0.163451686501503 0.1309315711259842 0.526864767074585
0.3236055076122284 0.21887703239917755 0.5794661045074463
0.1890634298324585 0.12021835148334503 0.5512786507606506
0.2609972059726715 0.18791048228740692 0.4417695701122284
0.24192041158676147 0.13933928310871124 0.5609275698661804
0.20817342400550842 0.24043790996074677 0.48555585741996765
0.1818629503250122 0.22855807840824127 0.44509533047676086
0.1755303293466568 0.27601900696754456 0.5847986936569214
0.23845145106315613 0.18820570409297943 0.5377269387245178
0.19742076098918915 0.20734669268131256 0.5973788499832153
0.3222540020942688 0.1520870476961136 0.4794212281703949
0.26400500535964966 0.13609425723552704 0.6122156381607056
0.2490464150905609 0.1338680386543274 0.43896374106407166
0.2908470630645752 0.275186151266098 0.5643082857131958
0.30227574706077576 0.2962636351585388 0.6284903287887573
0.14274705946445465 0.23990510404109955 0.5950912833213806
0.2929418683052063 0.30741769075393677 0.5385569334030151
0.2377418726682663 0.1331469714641571 0.5546811819076538
0.18446291983127594 0.11563932150602341 0.6408869624137878
0.24299973249435425 0.2185189425945282 0.6087406277656555
0.13833867013454437 0.2678646147251129 0.5758677124977112
0.2963128387928009 0.16702085733413696 0.49569910764694214
0.2523297667503357 0.33218255639076233 0.4449620544910431
0.3288241922855377 0.25581368803977966 0.6232985258102417
0.24013905227184296 0.30166587233543396 0.5888192057609558
0.2768300175666809 0.3024270534515381 0.45427727699279785
0.1936391294002533 0.11960577964782715 0.6119215488433838
0.304927259683609 0.20822389423847198 0.6172730326652527
0.20019923150539398 0.25825658440589905 0.48471421003341675
0.27956098318099976 0.3197185695171356 0.5258203744888306
0.14334143698215485 0.2153168022632599 0.633109986782074
0.22512051463127136 0.2516227662563324 0.6015793085098267
0.20966048538684845 0.1831212341785431 0.6299563050270081
0.26813337206840515 0.22940130531787872 0.49010881781578064
0.2662183344364166 0.3201998472213745 0.4358251094818115
0.24823586642742157 0.14125728607177734 0.6362215876579285
0.21758513152599335 0.14502401649951935 0.5589451193809509
0.27533313632011414 0.32160115242004395 0.44603657722473145
0.2514663636684418 0.20170390605926514 0.46198585629463196
0.33091598749160767 0.24932989478111267 0.516186535358429
0.21163800358772278 0.2553806006908417 0.577386736869812
0.15687724947929382 0.20480765402317047 0.4917079508304596
0.16094230115413666 0.29175615310668945 0.5142321586608887
0.22461725771427155 0.2738026976585388 0.6116721630096436
0.3065325617790222 0.2549397051334381 0.48952433466911316
0.17709144949913025 0.3071173429489136 0.6317728161811829
0.18443800508975983 0.25602269172668457 0.5115295052528381
0.25450602173805237 0.28825896978378296 0.4520726799964905
0.20882338285446167 0.16033686697483063 0.5553651452064514
0.18881483376026154 0.285331666469574 0.45466333627700806
0.1327986866235733 0.2408459484577179 0.5458157658576965
0.2649976313114166 0.2681868374347687 0.5168468356132507
0.1643877774477005 0.1550423949956894 0.5188727974891663
0.2327740490436554 0.2717444896697998 0.6038544774055481
0.26009732484817505 0.21249140799045563 0.5174024105072021
0.32996633648872375 0.1861942559480667 0.4597040116786957
0.3111570179462433 0.24960488080978394 0.4585360586643219
0.26077359914779663 0.28247717022895813 0.539146363735199
0.311861127614975 0.21318185329437256 0.5417981743812561
0.24299973249435425 0.2185189425945282 0.6087406277656555
0.20952197909355164 0.2494344562292099 0.6104785203933716
0.20749519765377045 0.17752954363822937 0.5762386918067932
0.2988797724246979 0.16331689059734344 0.606568455696106
0.12045497447252274 0.28685492277145386 0.48683443665504456
0.23298215866088867 0.2816134989261627 0.5039361715316772
0.3277716338634491 0.16027097404003143 0.5830528140068054
0.18642869591712952 0.21414312720298767 0.5030331611633301
0.20197910070419312 0.2630848288536072 0.45466217398643494
0.22377577424049377 0.2441859096288681 0.5005397796630859
0.31427881121635437 0.16997452080249786 0.6233342885971069
0.18203051388263702 0.12991979718208313 0.4937467575073242
0.203805074095726 0.2631470263004303 0.4831138253211975
0.17727793753147125 0.27191030979156494 0.487020879983902
0.2897847294807434 0.278680682182312 0.5198543071746826
0.14503291249275208 0.2876662015914917 0.46897685527801514
0.21942618489265442 0.19307973980903625 0.5550632476806641
0.3227643668651581 0.16927525401115417 0.5656699538230896
0.31359872221946716 0.22768767178058624 0.5396437048912048
0.2199796438217163 0.2735357880592346 0.5312350392341614
0.15225403010845184 0.2680969834327698 0.52342689037323
0.18729755282402039 0.2456410825252533 0.4405241310596466
0.2650039494037628 0.1680966168642044 0.5129253268241882
0.26344478130340576 0.15804344415664673 0.5721454620361328
0.2327740490436554 0.2717444896697998 0.6038544774055481
0.26009732484817505 0.21249140799045563 0.5174024105072021
0.32996633648872375 0.1861942559480667 0.4597040116786957
0.3111570179462433 0.24960488080978394 0.4585360586643219
0.311861127614975 0.21318185329437256 0.5417981743812561
0.24299973249435425 0.2185189425945282 0.6087406277656555
0.13833867013454437 0.2678646147251129 0.5758677124977112
0.2963128387928009 0.16702085733413696 0.49569910764694214
0.20749519765377045 0.17752954363822937 0.5762386918067932
0.2988797724246979 0.16331689059734344 0.606568455696106
0.12045497447252274 0.28685492277145386 0.48683443665504456
0.23298215866088867 0.2816134989261627 0.5039361715316772
0.3277716338634491 0.16027097404003143 0.5830528140068054
0.2768300175666809 0.3024270534515381 0.45427727699279785
0.20197910070419312 0.2630848288536072 0.45466217398643494
0.22377577424049377 0.2441859096288681 0.5005397796630859
0.31427881121635437 0.16997452080249786 0.6233342885971069
0.21942618489265442 0.19307973980903625 0.5550632476806641
0.3227643668651581 0.16927525401115417 0.5656699538230896
0.31359872221946716 0.22768767178058624 0.5396437048912048
0.2199796438217163 0.2735357880592346 0.5312350392341614
0.15225403010845184 0.2680969834327698 0.52342689037323
0.19417913258075714 0.24570336937904358 0.5807530879974365
0.16140548884868622 0.22264458239078522 0.6255042552947998
0.18120184540748596 0.15912199020385742 0.5299991369247437
0.22461725771427155 0.2738026976585388 0.6116721630096436
0.30508726835250854 0.19420139491558075 0.5455738306045532
0.24948549270629883 0.1740317940711975 0.5282485485076904
0.22302798926830292 0.14329910278320312 0.6244519352912903
0.2750503420829773 0.19971123337745667 0.6297778487205505
0.30122190713882446 0.32401350140571594 0.5662978887557983
0.25742077827453613 0.1792190670967102 0.48747894167900085
0.2966310679912567 0.13828954100608826 0.6223969459533691
0.28639960289001465 0.3229682445526123 0.5313516855239868
0.27784186601638794 0.2248702049255371 0.5828163027763367
0.2331961840391159 0.21323531866073608 0.5753608345985413
0.13997340202331543 0.2221762090921402 0.5230940580368042
0.24942032992839813 0.13181062042713165 0.44217362999916077
0.24912959337234497 0.25246113538742065 0.5442909598350525
0.15151642262935638 0.25548335909843445 0.4903258681297302
0.24458621442317963 0.2375209927558899 0.6105754375457764
0.24753187596797943 0.2791672945022583 0.5201573371887207
0.17445939779281616 0.2531161904335022 0.56368088722229
0.3350512683391571 0.206619992852211 0.6226634383201599
0.30104053020477295 0.25735101103782654 0.5005971789360046
0.3533044457435608 0.18611355125904083 0.5943866968154907
0.16925148665905 0.20209234952926636 0.5250523090362549
0.20991584658622742 0.2168840765953064 0.595293402671814
0.22000744938850403 0.2704010307788849 0.4465109705924988
0.23474659025669098 0.28829225897789 0.4795936048030853
0.1687505543231964 0.16140584647655487 0.5640496611595154
0.2460455298423767 0.17803867161273956 0.5571845769882202
0.17868557572364807 0.30896010994911194 0.5275952219963074
0.2438443899154663 0.1748160719871521 0.6217976808547974
0.21933181583881378 0.23837938904762268 0.5703238844871521
0.24742037057876587 0.20044337213039398 0.490545392036438
0.23033520579338074 0.2729980945587158 0.44844210147857666
0.30669426918029785 0.2917190492153168 0.507880687713623
0.24618004262447357 0.24732820689678192 0.4407104253768921
0.18866443634033203 0.18869633972644806 0.4997518062591553
0.3211100101470947 0.25142842531204224 0.5494130253791809
0.22043269872665405 0.27123215794563293 0.5596511363983154
0.1591644436120987 0.19143667817115784 0.5753114819526672
0.1294623166322708 0.2344728261232376 0.4659480154514313
0.27533313632011414 0.32160115242004395 0.44603657722473145
0.2514663636684418 0.20170390605926514 0.46198585629463196
0.33091598749160767 0.24932989478111267 0.516186535358429
0.21163800358772278 0.2553806006908417 0.577386736869812
0.15687724947929382 0.20480765402317047 0.4917079508304596
0.16094230115413666 0.29175615310668945 0.5142321586608887
0.22461725771427155 0.2738026976585388 0.6116721630096436
0.3065325617790222 0.2549397051334381 0.48952433466911316
0.2994539737701416 0.22123408317565918 0.5173015594482422
0.25015828013420105 0.15567617118358612 0.5214612483978271
0.18368473649024963 0.18526898324489594 0.6185166835784912
0.2188502997159958 0.2480173110961914 0.6162437796592712
0.1386495977640152 0.1921054720878601 0.4640734791755676
0.25582778453826904 0.16121533513069153 0.4355974495410919
0.3009548485279083 0.15370549261569977 0.601628303527832
0.30112773180007935 0.17157012224197388 0.5364396572113037
0.2426903396844864 0.33313658833503723 0.4480363428592682
0.1979377418756485 0.2538587749004364 0.5528957843780518
0.1965504288673401 0.13470493257045746 0.5880433320999146
0.12797726690769196 0.2498159408569336 0.6316142082214355
0.21618254482746124 0.14792005717754364 0.493654727935791
0.15564514696598053 0.1547911912202835 0.5640525221824646
0.14467746019363403 0.26299917697906494 0.4643830358982086
0.2508157193660736 0.14435550570487976 0.5655110478401184
0.31707003712654114 0.1763070970773697 0.5787748694419861
0.27881574630737305 0.29409393668174744 0.6085719466209412
0.2986558973789215 0.15021196007728577 0.5018967986106873
0.24130070209503174 0.2210644781589508 0.5635329484939575
0.21649503707885742 0.13192589581012726 0.6264681220054626
0.3412843644618988 0.17168927192687988 0.5613303184509277
0.1493765413761139 0.17671418190002441 0.4826681315898895
0.14094632863998413 0.23014403879642487 0.6203097701072693
0.21942618489265442 0.19307973980903625 0.5550632476806641
0.21279405057430267 0.1552584022283554 0.6042193174362183
0.2415349930524826 0.14514707028865814 0.5795114636421204
0.291170209646225 0.30193179845809937 0.5285022258758545
0.2375342845916748 0.20693126320838928 0.44707533717155457
0.1572437733411789 0.2303733080625534 0.5437798500061035
0.2731259763240814 0.15481796860694885 0.5139868259429932
0.24508264660835266 0.21097350120544434 0.562599778175354
0.30122190713882446 0.32401350140571594 0.5662978887557983
0.26121723651885986 0.17515519261360168 0.46614834666252136
0.2645453214645386 0.2613676190376282 0.47081661224365234
0.29025739431381226 0.20145422220230103 0.49138355255126953
0.14536741375923157 0.24323172867298126 0.5586199164390564
0.24407172203063965 0.2616307735443115 0.5581163167953491
0.29718154668807983 0.15099382400512695 0.5710168480873108
0.32268306612968445 0.20681700110435486 0.6107617020606995
0.18919497728347778 0.30461829900741577 0.4880450963973999
0.25810542702674866 0.32191169261932373 0.6267470121383667
0.3127909004688263 0.2705213725566864 0.5362586379051208
0.1474330872297287 0.3028008043766022 0.47740793228149414
0.23502536118030548 0.18570315837860107 0.48407942056655884
0.288629412651062 0.26388704776763916 0.471784383058548
0.1971886157989502 0.16582757234573364 0.5596029162406921
0.2815658748149872 0.14263750612735748 0.43428412079811096
0.19005566835403442 0.29416006803512573 0.4813898205757141
0.19793842732906342 0.2377922236919403 0.4445578157901764
0.3236318528652191 0.2523024380207062 0.541534960269928
0.28262490034103394 0.25063079595565796 0.5891290307044983
0.17564710974693298 0.2874443233013153 0.600662350654602
0.3012480139732361 0.25418952107429504 0.6098024845123291
0.1774197518825531 0.27770811319351196 0.45066577196121216
0.20887397229671478 0.2508145272731781 0.48647066950798035
0.16140548884868622 0.22264458239078522 0.6255042552947998
0.18120184540748596 0.15912199020385742 0.5299991369247437
0.21764715015888214 0.2403603196144104 0.5049159526824951
0.1455915868282318 0.1727171391248703 0.5144039392471313
0.16010244190692902 0.25676941871643066 0.5464082956314087
0.3528905510902405 0.1815534085035324 0.6000049114227295
0.1678597778081894 0.2657199800014496 0.4840645492076874
0.19446374475955963 0.13875651359558105 0.6024491190910339
0.2141769379377365 0.2748149037361145 0.5527924299240112
0.15176056325435638 0.2801659107208252 0.44398945569992065
0.2307901829481125 0.28663066029548645 0.45326685905456543
0.19530224800109863 0.11714525520801544 0.504449725151062
0.2884354293346405 0.33235597610473633 0.535525918006897
0.22836706042289734 0.18593181669712067 0.5268210768699646
0.29487892985343933 0.26856547594070435 0.619070291519165
0.25621870160102844 0.13713699579238892 0.5345126390457153
0.20894701778888702 0.16121205687522888 0.45353373885154724
0.233455091714859 0.2560710310935974 0.5968419313430786
0.27152979373931885 0.26952144503593445 0.5156305432319641
0.18812339007854462 0.19510731101036072 0.6241965293884277
0.32762736082077026 0.2253900170326233 0.5079941749572754
0.23483464121818542 0.22231367230415344 0.5682130455970764
0.27510419487953186 0.15236613154411316 0.5002508759498596
0.2800418734550476 0.23260699212551117 0.4681330621242523
0.24188147485256195 0.22863659262657166 0.6088269948959351
0.2566731572151184 0.16589635610580444 0.6004677414894104
0.1457027643918991 0.264068067073822 0.5159525871276855
0.1501118391752243 0.2180081456899643 0.5132489204406738
0.1674400269985199 0.12919765710830688 0.537328839302063
0.17223580181598663 0.24679698050022125 0.5188717246055603
0.2860117554664612 0.23265324532985687 0.6306978464126587
0.22049099206924438 0.1569187492132187 0.5969184041023254
0.2874109745025635 0.22550950944423676 0.5434345006942749
0.2728232443332672 0.32432639598846436 0.5024594068527222
0.13257996737957 0.25436675548553467 0.5910219550132751
0.283195436000824 0.27100545167922974 0.5024389028549194
0.16416603326797485 0.16990958154201508 0.5662066340446472
0.26675844192504883 0.26242899894714355 0.49720945954322815
0.3052125871181488 0.31369924545288086 0.6029274463653564
0.15694694221019745 0.29040253162384033 0.5634088516235352
0.17428803443908691 0.14050351083278656 0.5181795358657837
0.17694306373596191 0.29575204849243164 0.5212340354919434
0.257815957069397 0.12699803709983826 0.612188994884491
0.1369481086730957 0.3005503714084625 0.486849308013916
0.32448017597198486 0.24505740404129028 0.5998561382293701
0.17118123173713684 0.25034794211387634 0.5505130290985107
0.3127938210964203 0.16385748982429504 0.5512772798538208
0.2795126140117645 0.172101229429245 0.4362436830997467
0.2793687880039215 0.30337223410606384 0.5178226232528687
0.2989605665206909 0.30184635519981384 0.5914480686187744
0.1308613121509552 0.27042147517204285 0.5105777978897095
0.31615328788757324 0.20103392004966736 0.5089128613471985
0.1859322041273117 0.24182842671871185 0.5320834517478943
0.17043477296829224 0.12005209922790527 0.4545029103755951
0.24489174783229828 0.18785177171230316 0.4593126177787781
0.12145427614450455 0.2821533679962158 0.6239607334136963
0.22407323122024536 0.18145751953125 0.6068578958511353
0.34124690294265747 0.1958368569612503 0.5008776187896729
0.24499782919883728 0.1266952008008957 0.5383699536323547
0.27867287397384644 0.16986484825611115 0.5776066780090332
0.21192945539951324 0.2644033133983612 0.5886769890785217
0.30130890011787415 0.26044782996177673 0.5029246807098389
0.2754742503166199 0.186919167637825 0.6028729677200317
0.270035982131958 0.24921034276485443 0.6149081587791443
0.28512096405029297 0.31313076615333557 0.6269522309303284
0.2291133850812912 0.1254054456949234 0.4772862195968628
0.13682669401168823 0.2467702031135559 0.49635225534439087
0.24043454229831696 0.17776459455490112 0.5826528668403625
0.23331153392791748 0.17945261299610138 0.44404715299606323
0.1573677957057953 0.2527274787425995 0.5309650301933289
0.30150821805000305 0.3174212872982025 0.5834903717041016
0.26985886693000793 0.3053528964519501 0.5875478982925415
0.22937293350696564 0.3240623474121094 0.5496676564216614
0.1898493617773056 0.30065688490867615 0.5853607654571533
0.17240463197231293 0.1820249706506729 0.5878750681877136
0.20586787164211273 0.12062891572713852 0.5741006731987
0.20932917296886444 0.2388879805803299 0.5210697054862976
0.18639816343784332 0.2349519282579422 0.47714388370513916
0.20684607326984406 0.2758944034576416 0.6021003723144531
0.2095155566930771 0.2917269766330719 0.4910944402217865
0.22066840529441833 0.12730669975280762 0.4912929832935333
0.22455991804599762 0.16031906008720398 0.4375196397304535
0.1931597888469696 0.19664455950260162 0.6394583582878113
0.17341923713684082 0.20087745785713196 0.4541705548763275
0.221463143825531 0.28778526186943054 0.5803413987159729
0.16132573783397675 0.20563863217830658 0.44686561822891235
0.32477983832359314 0.16727420687675476 0.5564196705818176
0.3267527222633362 0.18540403246879578 0.5550242066383362
0.27957838773727417 0.26925790309906006 0.5386335253715515
0.17374740540981293 0.16653603315353394 0.5408766865730286
0.16870152950286865 0.25019222497940063 0.6068536043167114
0.2918477952480316 0.1719849705696106 0.47063902020454407
0.2988141179084778 0.22924384474754333 0.5177096128463745
0.1676282435655594 0.19495685398578644 0.6397554874420166
0.24994078278541565 0.29036423563957214 0.49424535036087036
0.270035982131958 0.24921034276485443 0.6149081587791443
0.2048216462135315 0.12224516272544861 0.5081127882003784
0.14061926305294037 0.2633052468299866 0.4417347013950348
0.2718813419342041 0.2828356623649597 0.6017987728118896
0.17022843658924103 0.27077069878578186 0.6213259696960449
0.21660640835762024 0.16047360002994537 0.457355260848999
0.18064987659454346 0.20686718821525574 0.6235882043838501
0.11708217859268188 0.29200315475463867 0.5500831604003906
0.163451686501503 0.1309315711259842 0.526864767074585
0.3236055076122284 0.21887703239917755 0.5794661045074463
0.1890634298324585 0.12021835148334503 0.5512786507606506
0.2609972059726715 0.18791048228740692 0.4417695701122284
0.24192041158676147 0.13933928310871124 0.5609275698661804
0.20817342400550842 0.24043790996074677 0.48555585741996765
0.1818629503250122 0.22855807840824127 0.44509533047676086
0.1755303293466568 0.27601900696754456 0.5847986936569214
0.23845145106315613 0.18820570409297943 0.5377269387245178
0.19742076098918915 0.20734669268131256 0.5973788499832153
0.3222540020942688 0.1520870476961136 0.4794212281703949
0.26400500535964966 0.13609425723552704 0.6122156381607056
0.2490464150905609 0.1338680386543274 0.43896374106407166
0.14157734811306 0.24590735137462616 0.47400107979774475
0.25777819752693176 0.29247960448265076 0.48340344429016113
0.31175437569618225 0.3057163655757904 0.47870370745658875
0.20541146397590637 0.2011823058128357 0.5127248764038086
0.23022246360778809 0.32426154613494873 0.46281418204307556
0.21076147258281708 0.15949349105358124 0.43832165002822876
0.3407737612724304 0.18127432465553284 0.503402590751648
0.2278226613998413 0.15288564562797546 0.45628029108047485
0.25081008672714233 0.210859015583992 0.6160745024681091
0.3254687488079071 0.18300434947013855 0.5753697156906128
0.3208259642124176 0.1599539816379547 0.49396419525146484
0.16094230115413666 0.29175615310668945 0.5142321586608887
0.24641211330890656 0.3031557500362396 0.5607762336730957
0.3254687488079071 0.18300434947013855 0.5753697156906128
0.3208259642124176 0.1599539816379547 0.49396419525146484
0.16564467549324036 0.1462019830942154 0.6002270579338074
0.1915990114212036 0.3049527108669281 0.6393882036209106
0.33721259236335754 0.21224886178970337 0.4988757371902466
0.28021374344825745 0.23672062158584595 0.5534132719039917
0.12685148417949677 0.2931547164916992 0.5517163276672363
0.21132540702819824 0.12560489773750305 0.45716387033462524
0.1914089173078537 0.17013879120349884 0.5788525938987732
0.2950283885002136 0.1684260070323944 0.5394598841667175
0.2770301103591919 0.24470971524715424 0.5612828731536865
0.2471819370985031 0.2108055204153061 0.5985673069953918
0.34445083141326904 0.1758933812379837 0.43329331278800964
0.24264217913150787 0.2844005525112152 0.5723493695259094
0.3183872699737549 0.15047799050807953 0.5185215473175049
0.28272610902786255 0.15455499291419983 0.4758417308330536
0.23301537334918976 0.18637895584106445 0.4384922981262207
0.27396196126937866 0.2447807788848877 0.51688551902771
0.20417232811450958 0.1609511375427246 0.49161410331726074
0.13343873620033264 0.2763936519622803 0.456484317779541
0.270093709230423 0.16909632086753845 0.5715886950492859
0.20547844469547272 0.30994781851768494 0.45021289587020874
0.19221070408821106 0.2690635621547699 0.611375093460083
0.26702865958213806 0.31774595379829407 0.5270377993583679
0.32155048847198486 0.19015862047672272 0.5502830743789673
0.32155048847198486 0.19015862047672272 0.5502830743789673
0.24315950274467468 0.2507457733154297 0.4739340543746948
0.23703700304031372 0.21041026711463928 0.44837459921836853
0.23703700304031372 0.21041026711463928 0.44837459921836853
0.24662531912326813 0.20585837960243225 0.4562234580516815
0.14536741375923157 0.24323172867298126 0.5586199164390564
0.16564467549324036 0.1462019830942154 0.6002270579338074
0.31201446056365967 0.17546184360980988 0.5101934671401978
0.17446008324623108 0.27448543906211853 0.6146304607391357
0.33721259236335754 0.21224886178970337 0.4988757371902466
0.28021374344825745 0.23672062158584595 0.5534132719039917
0.12685148417949677 0.2931547164916992 0.5517163276672363
0.21132540702819824 0.12560489773750305 0.45716387033462524
0.1914089173078537 0.17013879120349884 0.5788525938987732
0.20315620303153992 0.2323509156703949 0.5180104970932007
0.18912777304649353 0.30470260977745056 0.5103548169136047
0.2625475823879242 0.19035744667053223 0.6213729977607727
0.2770301103591919 0.24470971524715424 0.5612828731536865
0.2471819370985031 0.2108055204153061 0.5985673069953918
0.34445083141326904 0.1758933812379837 0.43329331278800964
0.24264217913150787 0.2844005525112152 0.5723493695259094
0.28272610902786255 0.15455499291419983 0.4758417308330536
0.23301537334918976 0.18637895584106445 0.4384922981262207
0.27396196126937866 0.2447807788848877 0.51688551902771
0.20417232811450958 0.1609511375427246 0.49161410331726074
0.13343873620033264 0.2763936519622803 0.456484317779541
0.270093709230423 0.16909632086753845 0.5715886950492859
0.20547844469547272 0.30994781851768494 0.45021289587020874
0.2731824517250061 0.15965893864631653 0.48417261242866516
0.19221070408821106 0.2690635621547699 0.611375093460083
0.26702865958213806 0.31774595379829407 0.5270377993583679
0.32155048847198486 0.19015862047672272 0.5502830743789673
0.24315950274467468 0.2507457733154297 0.4739340543746948
0.23703700304031372 0.21041026711463928 0.44837459921836853
0.27702248096466064 0.31813642382621765 0.4730377495288849
0.24662531912326813 0.20585837960243225 0.4562234580516815
0.2884506285190582 0.33569085597991943 0.6148805618286133
0.14536741375923157 0.24323172867298126 0.5586199164390564
0.2757309675216675 0.1843813806772232 0.5720575451850891
0.28620749711990356 0.2706402540206909 0.5211071372032166
0.2565958797931671 0.29711735248565674 0.584418773651123
0.34108349680900574 0.1705903559923172 0.5534242987632751
0.1686142235994339 0.1704096645116806 0.58879554271698
0.2442583292722702 0.1539669632911682 0.5625454187393188
0.24553069472312927 0.1640700399875641 0.5914067625999451
0.2108106166124344 0.26839959621429443 0.47274458408355713
0.18526983261108398 0.17950975894927979 0.5270766615867615
0.21532733738422394 0.28181910514831543 0.5787439942359924
0.23091408610343933 0.16340237855911255 0.5355615019798279
0.22477540373802185 0.20786118507385254 0.4542534351348877
0.17816004157066345 0.24225953221321106 0.44881242513656616
0.31179818511009216 0.22436659038066864 0.5671665072441101
0.2573763430118561 0.3205898106098175 0.5616887807846069
0.23875240981578827 0.16868339478969574 0.6051341891288757
0.26011237502098083 0.18211019039154053 0.5482041239738464
0.2535998225212097 0.1712464541196823 0.5430587530136108
0.14032460749149323 0.20513436198234558 0.5901574492454529
0.21772047877311707 0.21840828657150269 0.5058192014694214
0.24359014630317688 0.3036721646785736 0.48969316482543945
0.18780766427516937 0.29684802889823914 0.48355531692504883
0.31611600518226624 0.19030919671058655 0.5088558793067932
0.3260214328765869 0.2222611904144287 0.4685150980949402
0.2964605391025543 0.27946117520332336 0.5025398135185242
0.27696114778518677 0.2606299817562103 0.5584850311279297
0.24913518130779266 0.20383454859256744 0.4532619118690491
0.30032438039779663 0.3393401801586151 0.4671666920185089
0.13734370470046997 0.22875180840492249 0.4831019639968872
0.25777819752693176 0.29247960448265076 0.48340344429016113
0.31175437569618225 0.3057163655757904 0.47870370745658875
0.30112773180007935 0.17157012224197388 0.5364396572113037
0.1914089173078537 0.17013879120349884 0.5788525938987732
0.20315620303153992 0.2323509156703949 0.5180104970932007
0.18912777304649353 0.30470260977745056 0.5103548169136047
0.2625475823879242 0.19035744667053223 0.6213729977607727
0.2770301103591919 0.24470971524715424 0.5612828731536865
0.2471819370985031 0.2108055204153061 0.5985673069953918
0.1694265902042389 0.1114983931183815 0.5463783740997314
0.1771717369556427 0.19690829515457153 0.5107015371322632
0.26589643955230713 0.27465277910232544 0.4481588304042816
0.2185778170824051 0.134323388338089 0.49075284600257874
0.3202681243419647 0.19851911067962646 0.4908779263496399
0.23875167965888977 0.21947601437568665 0.5540383458137512
0.20055443048477173 0.2479221075773239 0.47677817940711975
0.32278281450271606 0.21131214499473572 0.5286166667938232
0.29516535997390747 0.22332023084163666 0.44367715716362
0.1715916097164154 0.27940064668655396 0.4700469374656677
0.2791104316711426 0.1551910638809204 0.5117499232292175
0.30779924988746643 0.16710317134857178 0.4373764991760254
0.20151659846305847 0.2700951099395752 0.44537463784217834
0.3278443217277527 0.2513987123966217 0.6020863056182861
0.28309282660484314 0.2858593761920929 0.5530982613563538
0.259334921836853 0.1958158314228058 0.5381348729133606
0.20101191103458405 0.3048168420791626 0.615301787853241
0.18044869601726532 0.155980184674263 0.4737219214439392
0.21593742072582245 0.322496622800827 0.48140162229537964
0.3385397493839264 0.20946542918682098 0.4832700788974762
0.25499463081359863 0.2783282995223999 0.563238263130188
0.17328563332557678 0.19910816848278046 0.4611523449420929
0.3340122401714325 0.1994837522506714 0.5824722647666931
0.3220062255859375 0.2752339839935303 0.5660523772239685
0.32313498854637146 0.1596958041191101 0.6062307357788086
0.221463143825531 0.28778526186943054 0.5803413987159729
0.2611263692378998 0.12724915146827698 0.6145039200782776
0.18081709742546082 0.2155197262763977 0.5069252848625183
0.24965278804302216 0.18212929368019104 0.5489073991775513
0.3179226219654083 0.22848521173000336 0.5126459002494812
0.23282469809055328 0.2488727569580078 0.5653442740440369
0.1398760825395584 0.23391517996788025 0.5282553434371948
0.1488686352968216 0.18212977051734924 0.48163577914237976
0.15676891803741455 0.2149597853422165 0.635598361492157
0.15597496926784515 0.272916704416275 0.4861542582511902
0.206220343708992 0.24429453909397125 0.5772547125816345
0.2678849399089813 0.1299058198928833 0.6008927226066589
0.2341589629650116 0.3210498094558716 0.5088903307914734
0.17335136234760284 0.1800215095281601 0.4678335189819336
0.15598513185977936 0.2082158625125885 0.6300572156906128
0.2967695891857147 0.29369857907295227 0.5772727727890015
0.17340625822544098 0.15136326849460602 0.5206882357597351
0.21164049208164215 0.2783196270465851 0.5909765958786011
0.22385644912719727 0.24225205183029175 0.5300264954566956
0.18456877768039703 0.1417466104030609 0.4952409565448761
0.2797926664352417 0.17091655731201172 0.5183619856834412
0.251014769077301 0.18182992935180664 0.627288818359375
0.18542659282684326 0.20687933266162872 0.5492933392524719
0.17112493515014648 0.25799283385276794 0.5568044185638428
0.2545894980430603 0.2923000752925873 0.5394068360328674
0.1472390592098236 0.2899794280529022 0.6027399897575378
0.21146082878112793 0.18769758939743042 0.45837491750717163
0.3275113105773926 0.16079480946063995 0.5456551313400269
0.1784534603357315 0.22430595755577087 0.477817565202713
0.2111985683441162 0.16754332184791565 0.5744141936302185
0.23894035816192627 0.22941868007183075 0.5830860137939453
0.1694265902042389 0.1114983931183815 0.5463783740997314
0.14274705946445465 0.23990510404109955 0.5950912833213806
0.29793936014175415 0.17681287229061127 0.6146894097328186
0.3089645504951477 0.18166212737560272 0.61485356092453
0.165493905544281 0.2108449935913086 0.4879990816116333
0.16024573147296906 0.27945923805236816 0.6365464925765991
0.26418283581733704 0.188990980386734 0.5465133190155029
0.30042967200279236 0.3006484806537628 0.5340514183044434
0.3187241852283478 0.25115737318992615 0.48981404304504395
0.24433790147304535 0.3060573637485504 0.5686132311820984
0.281566858291626 0.18364910781383514 0.45216935873031616
0.2972027659416199 0.24970108270645142 0.4396246373653412
0.3269447982311249 0.1557977795600891 0.6065528392791748
0.25202232599258423 0.2148100584745407 0.4900934100151062
0.16531305015087128 0.1976834088563919 0.5345011949539185
0.18178336322307587 0.19359861314296722 0.4809051752090454
0.1503744125366211 0.20399419963359833 0.4640284478664398
0.25787854194641113 0.1430935263633728 0.4731563627719879
0.1663653552532196 0.24083910882472992 0.5344448089599609
0.32183265686035156 0.2545846402645111 0.4818935692310333
0.3302192687988281 0.19439758360385895 0.49053603410720825
0.20446883141994476 0.13703849911689758 0.4395197331905365
0.29623571038246155 0.31156131625175476 0.5925504565238953
0.2194637954235077 0.23889049887657166 0.48024997115135193
0.26997554302215576 0.2560026943683624 0.570429801940918
0.24638862907886505 0.2503717243671417 0.5210022926330566
0.23459966480731964 0.18202991783618927 0.6331976056098938
0.24791927635669708 0.3245050311088562 0.5914198160171509
0.19187131524085999 0.22983165085315704 0.5492128729820251
0.2313842922449112 0.1491311639547348 0.5477200746536255
0.2675279378890991 0.13261160254478455 0.564175546169281
0.25731760263442993 0.24860741198062897 0.4472160339355469
0.13362723588943481 0.2775226831436157 0.48764368891716003
0.24499782919883728 0.1266952008008957 0.5383699536323547
0.2814384698867798 0.19124260544776917 0.4445050060749054
0.217624232172966 0.2885811924934387 0.6194767355918884
0.32371285557746887 0.24958468973636627 0.49800223112106323
0.23023691773414612 0.2631721794605255 0.5520249009132385
0.21435542404651642 0.22702275216579437 0.4811117947101593
0.32233136892318726 0.20513884723186493 0.5786335468292236
0.25676652789115906 0.14149993658065796 0.5585207939147949
0.23998215794563293 0.22576196491718292 0.505340039730072
0.3061634302139282 0.1857566386461258 0.43827423453330994
0.30345821380615234 0.20074613392353058 0.6239305138587952
0.20283086597919464 0.19303470849990845 0.509609580039978
0.18920676410198212 0.2706466317176819 0.5601952075958252
0.16298909485340118 0.21945711970329285 0.6015663743019104
0.17319761216640472 0.2786365747451782 0.5589315295219421
0.2694987654685974 0.26260602474212646 0.573809027671814
0.23009668290615082 0.1597156822681427 0.5621288418769836
0.20403805375099182 0.17753760516643524 0.539901077747345
0.20616501569747925 0.19732879102230072 0.5477461218833923
0.23310254514217377 0.3037545084953308 0.5373885035514832
0.13717074692249298 0.29209962487220764 0.5483623743057251
0.2724977731704712 0.23461900651454926 0.5391919016838074
0.15983259677886963 0.16244521737098694 0.6028664708137512
0.2522367238998413 0.20073020458221436 0.6108516454696655
0.12780852615833282 0.27227330207824707 0.4681350588798523
0.3221100866794586 0.1927226483821869 0.5138437151908875
0.2962513267993927 0.23720091581344604 0.5072409510612488
0.22183658182621002 0.1816190928220749 0.5366990566253662
0.1757834255695343 0.20488540828227997 0.5139645338058472
0.29863986372947693 0.3316629230976105 0.44087347388267517
0.20774251222610474 0.19318348169326782 0.46447107195854187
0.2797832190990448 0.16886092722415924 0.5271352529525757
0.18866443634033203 0.18869633972644806 0.4997518062591553
0.3416219651699066 0.22283710539340973 0.5984470844268799
0.3248269557952881 0.1989019811153412 0.6252562403678894
0.2323761284351349 0.22737477719783783 0.6287729740142822
0.2302827090024948 0.17061664164066315 0.5870137214660645
0.2422187328338623 0.2626638114452362 0.5163810849189758
0.18270638585090637 0.14009295403957367 0.5999385714530945
0.24513362348079681 0.13148891925811768 0.4617669880390167
0.23616191744804382 0.247212216258049 0.46507713198661804
0.24327696859836578 0.28731316328048706 0.5169242024421692
0.2922854423522949 0.3437844216823578 0.5638879537582397
0.3183906078338623 0.2659400701522827 0.4526921808719635
0.20809757709503174 0.3188180923461914 0.4573223292827606
0.1453094780445099 0.22695070505142212 0.5918926000595093
0.17359709739685059 0.22458133101463318 0.5438884496688843
0.2309603989124298 0.3081088662147522 0.5311138033866882
0.2067713737487793 0.31850770115852356 0.5382869839668274
0.22041822969913483 0.13809461891651154 0.46675264835357666
0.24256643652915955 0.2899887263774872 0.6368597149848938
0.23259064555168152 0.3142225742340088 0.53901207447052
0.25568887591362 0.22472123801708221 0.6306692361831665
0.15945225954055786 0.15266188979148865 0.5441675186157227
0.2644578218460083 0.1411939114332199 0.629952073097229
0.27977490425109863 0.25511613488197327 0.560749888420105
0.2027839869260788 0.16004504263401031 0.5745521187782288
0.1455286592245102 0.17638792097568512 0.47081735730171204
0.24328647553920746 0.12752673029899597 0.5989561676979065
0.299513578414917 0.19520407915115356 0.4860890805721283
0.17617006599903107 0.29067832231521606 0.6023465394973755
0.17290420830249786 0.19021306931972504 0.4610191285610199
0.27995678782463074 0.2926396131515503 0.4954799711704254
0.2631528079509735 0.21602270007133484 0.4664129316806793
0.21192945539951324 0.2644033133983612 0.5886769890785217
0.3275113105773926 0.16079480946063995 0.5456551313400269
0.1784534603357315 0.22430595755577087 0.477817565202713
0.2111985683441162 0.16754332184791565 0.5744141936302185
0.1694265902042389 0.1114983931183815 0.5463783740997314
0.1771717369556427 0.19690829515457153 0.5107015371322632
0.26589643955230713 0.27465277910232544 0.4481588304042816
0.2185778170824051 0.134323388338089 0.49075284600257874
0.3202681243419647 0.19851911067962646 0.4908779263496399
0.23875167965888977 0.21947601437568665 0.5540383458137512
0.20055443048477173 0.2479221075773239 0.47677817940711975
0.23875167965888977 0.21947601437568665 0.5540383458137512
0.20055443048477173 0.2479221075773239 0.47677817940711975
0.32278281450271606 0.21131214499473572 0.5286166667938232
0.29516535997390747 0.22332023084163666 0.44367715716362
0.1715916097164154 0.27940064668655396 0.4700469374656677
0.2791104316711426 0.1551910638809204 0.5117499232292175
0.30779924988746643 0.16710317134857178 0.4373764991760254
0.20151659846305847 0.2700951099395752 0.44537463784217834
0.3278443217277527 0.2513987123966217 0.6020863056182861
0.28309282660484314 0.2858593761920929 0.5530982613563538
0.259334921836853 0.1958158314228058 0.5381348729133606
0.20101191103458405 0.3048168420791626 0.615301787853241
0.20599903166294098 0.181697815656662 0.629250705242157
0.2737133800983429 0.16417597234249115 0.461648166179657
0.31496113538742065 0.17479199171066284 0.5850294232368469
0.29865214228630066 0.1560288518667221 0.5446685552597046
0.24093148112297058 0.25250881910324097 0.5622904300689697
0.2943626344203949 0.14084015786647797 0.59466153383255
0.19119136035442352 0.2661892771720886 0.5716668963432312
0.15004736185073853 0.2412763088941574 0.5177764296531677
0.2893637716770172 0.15121352672576904 0.46788766980171204
0.3035236597061157 0.22694772481918335 0.5335316061973572
0.17319761216640472 0.2786365747451782 0.5589315295219421
0.2694987654685974 0.26260602474212646 0.573809027671814
0.23433682322502136 0.18761847913265228 0.5781578421592712
0.22797848284244537 0.21707552671432495 0.556405246257782
0.23310254514217377 0.3037545084953308 0.5373885035514832
0.13717074692249298 0.29209962487220764 0.5483623743057251
0.2724977731704712 0.23461900651454926 0.5391919016838074
0.28660261631011963 0.3179693818092346 0.440706342458725
0.3093997538089752 0.16212289035320282 0.5525823831558228
0.2217162847518921 0.12587466835975647 0.5155752897262573
0.18514467775821686 0.3032195568084717 0.5529704689979553
0.3221100866794586 0.1927226483821869 0.5138437151908875
0.1912255436182022 0.29636943340301514 0.548069953918457
0.2962513267993927 0.23720091581344604 0.5072409510612488
0.22183658182621002 0.1816190928220749 0.5366990566253662
0.29863986372947693 0.3316629230976105 0.44087347388267517
0.32554006576538086 0.14485591650009155 0.6230221390724182
0.20774251222610474 0.19318348169326782 0.46447107195854187
0.2797832190990448 0.16886092722415924 0.5271352529525757
0.2585970461368561 0.24214935302734375 0.5395888090133667
0.17101499438285828 0.12124563753604889 0.6008421778678894
0.287307471036911 0.1917341947555542 0.4938472509384155
0.1986238807439804 0.16994258761405945 0.4486837387084961
0.2057589292526245 0.11904677748680115 0.5608388185501099
0.21978840231895447 0.2656072676181793 0.598322331905365
0.28921449184417725 0.15511326491832733 0.4431851804256439
0.22934654355049133 0.1868864744901657 0.46600475907325745
0.2951590120792389 0.30418840050697327 0.460676908493042
0.19647543132305145 0.13974328339099884 0.627252459526062
0.1699778288602829 0.20933854579925537 0.6252537965774536
0.32487431168556213 0.2517120838165283 0.48283305764198303
0.20040307939052582 0.12300969660282135 0.5677134394645691
0.2302827090024948 0.17061664164066315 0.5870137214660645
0.2422187328338623 0.2626638114452362 0.5163810849189758
0.18270638585090637 0.14009295403957367 0.5999385714530945
0.2158031016588211 0.29247593879699707 0.464875727891922
0.20505884289741516 0.23518159985542297 0.5863509178161621
0.23616191744804382 0.247212216258049 0.46507713198661804
0.21211741864681244 0.1497918963432312 0.5935916304588318
0.1868630051612854 0.18111124634742737 0.5150682330131531
0.18644526600837708 0.17674265801906586 0.6019852757453918
0.23126442730426788 0.12518763542175293 0.5998578071594238
0.16052575409412384 0.2800578474998474 0.6311477422714233
0.3045773208141327 0.32049983739852905 0.46865516901016235
0.20879465341567993 0.1711762696504593 0.45773202180862427
0.2045338898897171 0.20409220457077026 0.5555959343910217
0.18059475719928741 0.18461273610591888 0.5158383250236511
0.22467252612113953 0.30771416425704956 0.5624365210533142
0.3144291043281555 0.16605912148952484 0.5837832689285278
0.26032620668411255 0.257313072681427 0.5905389785766602
0.2025178223848343 0.1595275104045868 0.5749539136886597
0.23987643420696259 0.24289849400520325 0.6009968519210815
0.16042853891849518 0.29446253180503845 0.6037450432777405
0.15661537647247314 0.2744060754776001 0.5270729064941406
0.2818553149700165 0.1702861487865448 0.6283047795295715
0.1541120707988739 0.20955346524715424 0.4619859755039215
0.1895849108695984 0.23634591698646545 0.481660932302475
0.2750941812992096 0.33810919523239136 0.5527499318122864
0.2975313365459442 0.1477932631969452 0.48903971910476685
0.137699693441391 0.26237794756889343 0.51996910572052
0.23625947535037994 0.22505728900432587 0.4856792986392975
0.1888040006160736 0.2068282961845398 0.5381211638450623
0.18458154797554016 0.25602975487709045 0.5364066362380981
0.23022246360778809 0.32426154613494873 0.46281418204307556
0.16576224565505981 0.13326695561408997 0.49724429845809937
0.235878124833107 0.13601988554000854 0.47469067573547363
0.1781432032585144 0.1257719099521637 0.4867993891239166
0.20026946067810059 0.16632254421710968 0.5470139980316162
0.12603816390037537 0.26309868693351746 0.5401369333267212
0.31628650426864624 0.21404893696308136 0.4908754825592041
0.29974672198295593 0.17213428020477295 0.44827914237976074
0.1795077621936798 0.2543410062789917 0.5847850441932678
0.3416219651699066 0.22283710539340973 0.5984470844268799
0.3248269557952881 0.1989019811153412 0.6252562403678894
0.2323761284351349 0.22737477719783783 0.6287729740142822
0.2302827090024948 0.17061664164066315 0.5870137214660645
0.2422187328338623 0.2626638114452362 0.5163810849189758
0.18270638585090637 0.14009295403957367 0.5999385714530945
0.2158031016588211 0.29247593879699707 0.464875727891922
0.14972105622291565 0.2839820981025696 0.6035880446434021
0.21767498552799225 0.19091714918613434 0.4645831882953644
0.2577591836452484 0.16380637884140015 0.49188917875289917
0.3032661974430084 0.2003576159477234 0.6097211837768555
0.2430250495672226 0.1572565883398056 0.6084958910942078
0.2635209262371063 0.14298810064792633 0.5656890869140625
0.31011417508125305 0.20181730389595032 0.5714966058731079
0.19993187487125397 0.27275198698043823 0.5953177809715271
0.21954642236232758 0.24610832333564758 0.608814001083374
0.2007642239332199 0.31666824221611023 0.5652144551277161
0.2063726931810379 0.24849185347557068 0.4940813481807709
0.2750994861125946 0.32966065406799316 0.4592304527759552
0.1895471215248108 0.26896747946739197 0.5136284232139587
0.28168144822120667 0.17673105001449585 0.4870506823062897
0.3442472815513611 0.1996091902256012 0.5072659850120544
0.2053978592157364 0.14911608397960663 0.5183376669883728
0.16564467549324036 0.1462019830942154 0.6002270579338074
0.2430250495672226 0.1572565883398056 0.6084958910942078
0.2635209262371063 0.14298810064792633 0.5656890869140625
0.31011417508125305 0.20181730389595032 0.5714966058731079
0.19993187487125397 0.27275198698043823 0.5953177809715271
0.21954642236232758 0.24610832333564758 0.608814001083374
0.2007642239332199 0.31666824221611023 0.5652144551277161
0.2063726931810379 0.24849185347557068 0.4940813481807709
0.2750994861125946 0.32966065406799316 0.4592304527759552
0.1895471215248108 0.26896747946739197 0.5136284232139587
0.28168144822120667 0.17673105001449585 0.4870506823062897
0.33551621437072754 0.19883869588375092 0.5160017609596252
0.17678415775299072 0.1381787359714508 0.48726263642311096
0.27277326583862305 0.18160568177700043 0.4990016222000122
0.2851564586162567 0.3202860951423645 0.4679711163043976
0.2622922360897064 0.2577027976512909 0.6296575665473938
0.28491368889808655 0.21067196130752563 0.612272322177887
0.1591278612613678 0.14582082629203796 0.5424413681030273
0.1784287542104721 0.12787340581417084 0.44107913970947266
0.20206257700920105 0.1569996327161789 0.5464788675308228
0.20349234342575073 0.14680834114551544 0.5103832483291626
0.2516095042228699 0.2920543849468231 0.49965789914131165
0.3168991208076477 0.16157028079032898 0.47407662868499756
0.29961714148521423 0.2339056432247162 0.44179898500442505
