ply
format ascii 1.0
element vertex 830
property float x
property float y
property float z
end_header
0.8499624133110046 0.1648586541414261 0.49341967701911926
0.7147607803344727 0.2908145487308502 0.47081202268600464
0.8299340009689331 0.14112518727779388 0.4077894985675812
0.7132636904716492 0.2566988170146942 0.4987643361091614
0.8262726068496704 0.3009112775325775 0.43173539638519287
0.8495418429374695 0.3161863088607788 0.49412041902542114
0.8093329071998596 0.24742314219474792 0.42882126569747925
0.6982399225234985 0.36557403206825256 0.5189887881278992
0.6824392676353455 0.3513723313808441 0.5181547999382019
0.6746497750282288 0.3015266954898834 0.407526433467865
0.692851185798645 0.33143216371536255 0.41519421339035034
0.7008854746818542 0.3146025836467743 0.5053024291992188
0.6955077648162842 0.2854386568069458 0.4965662658214569
0.839263916015625 0.2494938224554062 0.39183735847473145
0.6736307740211487 0.24697557091712952 0.4759940207004547
0.8155465722084045 0.15504050254821777 0.46650198101997375
0.7555769085884094 0.22434119880199432 0.5052046179771423
0.8371515274047852 0.17255906760692596 0.5093380808830261
0.7088699340820312 0.2585268020629883 0.4517423212528229
0.7647494077682495 0.1686905473470688 0.3827853798866272
0.8422684073448181 0.20165909826755524 0.49516427516937256
0.6810110807418823 0.3347395658493042 0.43611130118370056
0.7671940922737122 0.20822985470294952 0.5555470585823059
0.8310152888298035 0.31214332580566406 0.3594188392162323
0.8290813565254211 0.2615126967430115 0.4757399260997772
0.8517420291900635 0.3740399479866028 0.5317174196243286
0.7199562788009644 0.3224450647830963 0.3433845341205597
0.8156460523605347 0.2911219000816345 0.42248213291168213
0.7277652025222778 0.37124142050743103 0.4821081757545471
0.8402300477027893 0.14696604013442993 0.40865883231163025
0.8273348212242126 0.20396187901496887 0.40690866112709045
0.7536702156066895 0.28472718596458435 0.5176444053649902
0.8474224805831909 0.28338757157325745 0.48794159293174744
0.7355756163597107 0.24253518879413605 0.5106456875801086
0.6905048489570618 0.31905198097229004 0.4698644280433655
0.8543632626533508 0.22895470261573792 0.5159796476364136
0.8456897139549255 0.2872459888458252 0.5135800838470459
0.6986863613128662 0.28783082962036133 0.4552413523197174
0.8157694339752197 0.2369278222322464 0.4630475342273712
0.8583584427833557 0.32248085737228394 0.5435295104980469
0.7335019707679749 0.36882874369621277 0.4893060028553009
0.7918805480003357 0.3016190826892853 0.49600687623023987
0.6758343577384949 0.1987561583518982 0.5669257640838623
0.7626266479492188 0.34428492188453674 0.49447378516197205
0.7956721186637878 0.20035257935523987 0.4023534655570984
0.69512540102005 0.30100706219673157 0.5152704119682312
0.7142786383628845 0.24156680703163147 0.5352649688720703
0.7409230470657349 0.3498930037021637 0.4519904851913452
0.8395138382911682 0.1647479087114334 0.4108410179615021
0.7148144245147705 0.1701781302690506 0.41268104314804077
0.7850305438041687 0.24592144787311554 0.4737895131111145
0.7371509075164795 0.29391714930534363 0.5512911677360535
0.699385941028595 0.23826268315315247 0.5633425712585449
0.8438675999641418 0.2626563608646393 0.44329002499580383
0.7507220506668091 0.29822874069213867 0.41359594464302063
0.7006816267967224 0.32447078824043274 0.34497883915901184
0.6802958846092224 0.21860823035240173 0.39030081033706665
0.730726420879364 0.314197301864624 0.3990332782268524
0.7017478942871094 0.2724292278289795 0.4852824807167053
0.8523193597793579 0.3287712633609772 0.3483923077583313
0.6701713800430298 0.20963582396507263 0.5045392513275146
0.7349791526794434 0.2898285984992981 0.5218077301979065
0.7466157674789429 0.26746925711631775 0.3603132367134094
0.7989715933799744 0.27957883477211 0.4655635356903076
0.6938486695289612 0.20848140120506287 0.5300251245498657
0.7717354893684387 0.33063071966171265 0.378184050321579
0.8283863663673401 0.36224278807640076 0.4981922507286072
0.7027730345726013 0.2341294288635254 0.5207920670509338
0.8387258052825928 0.36055630445480347 0.5213539600372314
0.7596699595451355 0.3525799512863159 0.518482506275177
0.6655979752540588 0.222961887717247 0.4935344159603119
0.8587967753410339 0.26672568917274475 0.4858555793762207
0.6725255846977234 0.3573733866214752 0.5052021741867065
0.7641822099685669 0.2817213237285614 0.39289623498916626
0.7755730152130127 0.30824989080429077 0.4789939224720001
0.7048529386520386 0.25762924551963806 0.48862192034721375
0.7003485560417175 0.35619786381721497 0.47629714012145996
0.7208724021911621 0.21450214087963104 0.48986661434173584
0.7879170179367065 0.32135459780693054 0.5030810832977295
0.6906163096427917 0.38667938113212585 0.5040202140808105
0.751052975654602 0.21071113646030426 0.5270571112632751
0.8053555488586426 0.28815728425979614 0.49699845910072327
0.8309154510498047 0.20337185263633728 0.575322151184082
0.7139648199081421 0.22736075520515442 0.5516814589500427
0.7270123958587646 0.1988733410835266 0.5449265241622925
0.8260194659233093 0.2867856025695801 0.41304799914360046
0.8631062507629395 0.2764534652233124 0.4510739743709564
0.6666995882987976 0.2076321840286255 0.525418221950531
0.7804542183876038 0.24794191122055054 0.48661723732948303
0.7141239643096924 0.3367767930030823 0.4030618369579315
0.7351252436637878 0.2499106377363205 0.512611448764801
0.8591326475143433 0.3346080183982849 0.4969821572303772
0.7673550248146057 0.3170640170574188 0.44753050804138184
0.8335890173912048 0.2946193218231201 0.38343721628189087
0.8486035466194153 0.28652384877204895 0.4153274595737457
0.7764952778816223 0.19841477274894714 0.4414790868759155
0.850398600101471 0.3040482997894287 0.46839839220046997
0.6991193294525146 0.3657708168029785 0.4683644473552704
0.8587967753410339 0.26672568917274475 0.4858555793762207
0.6725255846977234 0.3573733866214752 0.5052021741867065
0.7641822099685669 0.2817213237285614 0.39289623498916626
0.7755730152130127 0.30824989080429077 0.4789939224720001
0.7048529386520386 0.25762924551963806 0.48862192034721375
0.7003485560417175 0.35619786381721497 0.47629714012145996
0.7208724021911621 0.21450214087963104 0.48986661434173584
0.826677680015564 0.3370648920536041 0.46623870730400085
0.751052975654602 0.21071113646030426 0.5270571112632751
0.8053555488586426 0.28815728425979614 0.49699845910072327
0.8309154510498047 0.20337185263633728 0.575322151184082
0.7139648199081421 0.22736075520515442 0.5516814589500427
0.8248635530471802 0.30460578203201294 0.5299057960510254
0.8233795166015625 0.25942057371139526 0.45514094829559326
0.7930233478546143 0.28857672214508057 0.46466264128685
0.7603257298469543 0.19500012695789337 0.46703845262527466
0.7869918942451477 0.23889999091625214 0.4996633529663086
0.7141239643096924 0.3367767930030823 0.4030618369579315
0.7351252436637878 0.2499106377363205 0.512611448764801
0.8591326475143433 0.3346080183982849 0.4969821572303772
0.7673550248146057 0.3170640170574188 0.44753050804138184
0.8335890173912048 0.2946193218231201 0.38343721628189087
0.8486035466194153 0.28652384877204895 0.4153274595737457
0.8467670679092407 0.19204740226268768 0.41099345684051514
0.710364043712616 0.31885644793510437 0.45672428607940674
0.8564615845680237 0.28430670499801636 0.4049893617630005
0.7779169082641602 0.19639402627944946 0.44338324666023254
0.8355594873428345 0.2489299774169922 0.5152144432067871
0.6835216879844666 0.2482287883758545 0.48231005668640137
0.8642323017120361 0.2815844714641571 0.46746110916137695
0.6669432520866394 0.2679122984409332 0.52599036693573
0.8482988476753235 0.1504845768213272 0.4442881941795349
0.6657629609107971 0.2974734604358673 0.5481813549995422
0.8551194667816162 0.27442896366119385 0.49492812156677246
0.8006839752197266 0.30517303943634033 0.49930405616760254
0.8433527946472168 0.2512575089931488 0.3674567639827728
0.7074548602104187 0.27317631244659424 0.4644702076911926
0.794550359249115 0.22381645441055298 0.4272085130214691
0.6788171529769897 0.28544360399246216 0.5148312449455261
0.6851282119750977 0.19392035901546478 0.5524443984031677
0.7667301893234253 0.21292077004909515 0.532585859298706
0.8616929054260254 0.31888845562934875 0.5023196935653687
0.7480005621910095 0.2610701322555542 0.37436506152153015
0.7978048324584961 0.29172906279563904 0.5044203996658325
0.7638698220252991 0.18181197345256805 0.4170035719871521
0.7177804112434387 0.2868475914001465 0.40665802359580994
0.6811355352401733 0.3693256378173828 0.42641696333885193
0.8383398056030273 0.26034781336784363 0.40593287348747253
0.7469995617866516 0.1871129423379898 0.46787068247795105
0.7753315567970276 0.3614880442619324 0.5015724897384644
0.7333683371543884 0.2818918824195862 0.42785513401031494
0.7475289702415466 0.27060040831565857 0.4778244197368622
0.79001384973526 0.2691079080104828 0.5614452958106995
0.7281526327133179 0.23836258053779602 0.4836540222167969
0.8596016764640808 0.2636278569698334 0.47439002990722656
0.7947640419006348 0.33093926310539246 0.466734379529953
0.836590588092804 0.25072726607322693 0.42700156569480896
0.7269874215126038 0.2343742549419403 0.3853559195995331
0.8324452042579651 0.26712408661842346 0.4536806046962738
0.7506969571113586 0.34146538376808167 0.5250236392021179
0.7677640914916992 0.33402594923973083 0.35110968351364136
0.7193200588226318 0.21789389848709106 0.48416152596473694
0.7263052463531494 0.3499453067779541 0.38942041993141174
0.7955210208892822 0.21511882543563843 0.45157942175865173
0.7934340834617615 0.16977626085281372 0.5140798687934875
0.8420388698577881 0.3218021094799042 0.4262585937976837
0.8499624133110046 0.1648586541414261 0.49341967701911926
0.7147607803344727 0.2908145487308502 0.47081202268600464
0.7554329037666321 0.26343321800231934 0.3671655058860779
0.8384526968002319 0.21360860764980316 0.5163356065750122
0.8209978342056274 0.23648536205291748 0.4616321921348572
0.7879028916358948 0.3179798126220703 0.47395792603492737
0.7749909162521362 0.1674008071422577 0.4794594645500183
0.8358380794525146 0.32462650537490845 0.4591197371482849
0.7237042188644409 0.21931634843349457 0.54740309715271
0.77986079454422 0.27793997526168823 0.36824753880500793
0.6806855797767639 0.314542680978775 0.35960203409194946
0.7855932712554932 0.24570898711681366 0.5387669801712036
0.8516045212745667 0.3418821096420288 0.5195021033287048
0.6994770169258118 0.21544525027275085 0.5067690014839172
0.7680338621139526 0.24556106328964233 0.47882723808288574
0.8165931105613708 0.1693716198205948 0.4478483498096466
0.7754924893379211 0.2812274992465973 0.5208429098129272
0.6868986487388611 0.16308516263961792 0.4347998797893524
0.6767901182174683 0.2492937445640564 0.46168065071105957
0.8482988476753235 0.1504845768213272 0.4442881941795349
0.6694888472557068 0.2639042139053345 0.43922606110572815
0.7244015336036682 0.2416023164987564 0.4494553208351135
0.7490471005439758 0.3230654001235962 0.47669124603271484
0.786637544631958 0.16637377440929413 0.4883086681365967
0.8580607175827026 0.28129690885543823 0.45591068267822266
0.8216322660446167 0.17273478209972382 0.544529139995575
0.7291393280029297 0.3189966678619385 0.42820173501968384
0.8348194360733032 0.19644282758235931 0.49400627613067627
0.7684323787689209 0.3676786422729492 0.48082631826400757
0.7600377202033997 0.31079626083374023 0.40308552980422974
0.8110376596450806 0.3338122069835663 0.5033603310585022
0.8551194667816162 0.27442896366119385 0.49492812156677246
0.8006839752197266 0.30517303943634033 0.49930405616760254
0.8433527946472168 0.2512575089931488 0.3674567639827728
0.7074548602104187 0.27317631244659424 0.4644702076911926
0.794550359249115 0.22381645441055298 0.4272085130214691
0.6788171529769897 0.28544360399246216 0.5148312449455261
0.6851282119750977 0.19392035901546478 0.5524443984031677
0.6819626688957214 0.20994049310684204 0.561592698097229
0.815255343914032 0.29097968339920044 0.5493184924125671
0.7167980670928955 0.3630906045436859 0.4663793742656708
0.8516396284103394 0.1953328400850296 0.4641459286212921
0.7827724814414978 0.18937109410762787 0.5325164198875427
0.77342289686203 0.31709879636764526 0.41316789388656616
0.7729751467704773 0.21742133796215057 0.42187899351119995
0.7906612753868103 0.20428919792175293 0.47195643186569214
0.8293046355247498 0.23080894351005554 0.40397918224334717
0.7778597474098206 0.17551289498806 0.4055822789669037
0.7810900211334229 0.18993012607097626 0.5721391439437866
0.6804143190383911 0.2824288606643677 0.4768209159374237
0.786071240901947 0.2792709171772003 0.4270850718021393
0.6696877479553223 0.16457204520702362 0.40679696202278137
0.8116983771324158 0.2631799876689911 0.48901093006134033
0.7682151198387146 0.2147594690322876 0.5211082100868225
0.696311354637146 0.23389948904514313 0.45926058292388916
0.8109486103057861 0.3345218896865845 0.3566569983959198
0.7051645517349243 0.2077166736125946 0.5223846435546875
0.6676950454711914 0.2552338242530823 0.3896927237510681
0.674034833908081 0.2567008435726166 0.5227026343345642
0.6898727416992188 0.30454644560813904 0.3445545434951782
0.7033823728561401 0.3346542418003082 0.34940555691719055
0.8275609612464905 0.17034783959388733 0.40382832288742065
0.7548149228096008 0.30296099185943604 0.4488736093044281
0.6792409420013428 0.3236447274684906 0.40943366289138794
0.7687845230102539 0.2511535882949829 0.43822768330574036
0.8551194667816162 0.27442896366119385 0.49492812156677246
0.8006839752197266 0.30517303943634033 0.49930405616760254
0.8433527946472168 0.2512575089931488 0.3674567639827728
0.7074548602104187 0.27317631244659424 0.4644702076911926
0.794550359249115 0.22381645441055298 0.4272085130214691
0.6788171529769897 0.28544360399246216 0.5148312449455261
0.674145519733429 0.3186381459236145 0.42483967542648315
0.777265191078186 0.22768867015838623 0.39302346110343933
0.7784890532493591 0.3645256757736206 0.4717286229133606
0.8298290371894836 0.3495519161224365 0.5072222352027893
0.7034538984298706 0.3588561415672302 0.520002543926239
0.7496925592422485 0.32585108280181885 0.49302440881729126
0.6563856601715088 0.2116212546825409 0.5567649602890015
0.8322369456291199 0.3190097212791443 0.36646345257759094
0.7257224321365356 0.21110759675502777 0.4560904800891876
0.7026046514511108 0.3013601303100586 0.3702961206436157
0.7913166284561157 0.1876717358827591 0.5334873199462891
0.6573396921157837 0.21376001834869385 0.5661326050758362
0.8063693642616272 0.2778342068195343 0.5330193042755127
0.7528208494186401 0.18473902344703674 0.550113320350647
0.6916481852531433 0.3547665476799011 0.39430373907089233
0.6794045567512512 0.2368268370628357 0.49460428953170776
0.7842923402786255 0.2660749554634094 0.3910953998565674
0.6807154417037964 0.23368355631828308 0.3744218349456787
0.7175549864768982 0.3034833073616028 0.4985080361366272
0.6837988495826721 0.25611111521720886 0.42679518461227417
0.8011789917945862 0.2775315046310425 0.3924828767776489
0.806695818901062 0.29249370098114014 0.5365397930145264
0.7190205454826355 0.1748066544532776 0.5072497725486755
0.751052975654602 0.21071113646030426 0.5270571112632751
0.7764952778816223 0.19841477274894714 0.4414790868759155
0.7899786829948425 0.3381773829460144 0.5260603427886963
0.7325586080551147 0.21448694169521332 0.37258589267730713
0.8544067144393921 0.29904797673225403 0.42543280124664307
0.8461270332336426 0.29140183329582214 0.5334517955780029
0.6835216879844666 0.2482287883758545 0.48231005668640137
0.763435423374176 0.24048766493797302 0.397832453250885
0.7989616990089417 0.32201308012008667 0.4478437602519989
0.8372297883033752 0.2302134931087494 0.4065421521663666
0.7445710301399231 0.2674417197704315 0.5297640562057495
0.7728875875473022 0.3362296521663666 0.3740346431732178
0.7599191069602966 0.2602624297142029 0.412526935338974
0.74480140209198 0.27222198247909546 0.3694382607936859
0.7486348748207092 0.2368476539850235 0.5559667944908142
0.6816855072975159 0.24635018408298492 0.5047500729560852
0.7027082443237305 0.2559269964694977 0.4064125716686249
0.8401522636413574 0.274526983499527 0.4179936945438385
0.6696320176124573 0.2559641897678375 0.38357481360435486
0.8169187903404236 0.17251595854759216 0.5426040887832642
0.8234206438064575 0.1839541792869568 0.40154269337654114
0.7816402316093445 0.3111993372440338 0.4300077259540558
0.7003868222236633 0.24522292613983154 0.49237170815467834
0.7286475896835327 0.3272577226161957 0.4763067662715912
0.7334062457084656 0.36386141180992126 0.46656984090805054
0.7706261277198792 0.1991433948278427 0.5382108688354492
0.6891141533851624 0.3377554714679718 0.3683208227157593
0.7190214991569519 0.17463405430316925 0.43818944692611694
0.8171290159225464 0.2935088872909546 0.4202645421028137
0.8036924600601196 0.33680424094200134 0.4219447374343872
0.7905892133712769 0.32318612933158875 0.4114099144935608
0.7690369486808777 0.26929226517677307 0.4915587306022644
0.8523193597793579 0.3287712633609772 0.3483923077583313
0.8317885994911194 0.2630879878997803 0.43262457847595215
0.7435859441757202 0.23930542171001434 0.42447584867477417
0.8271584510803223 0.34509509801864624 0.40353089570999146
0.69753497838974 0.3220169246196747 0.529464066028595
0.7237001061439514 0.22786128520965576 0.4035989046096802
0.6888463497161865 0.24448466300964355 0.47263193130493164
0.7939873933792114 0.2614520788192749 0.5143236517906189
0.6657736301422119 0.18381817638874054 0.42855751514434814
0.6683010458946228 0.22030489146709442 0.3964049220085144
0.7856218814849854 0.2221824675798416 0.5199351906776428
0.7867438197135925 0.3058483600616455 0.4609045386314392
0.7615180015563965 0.19211602210998535 0.437899649143219
0.7618470191955566 0.2756549119949341 0.4042617082595825
0.838512659072876 0.34855595231056213 0.5292040705680847
0.8556816577911377 0.33350059390068054 0.42814722657203674
0.8234206438064575 0.1839541792869568 0.40154269337654114
0.7816402316093445 0.3111993372440338 0.4300077259540558
0.7003868222236633 0.24522292613983154 0.49237170815467834
0.7286475896835327 0.3272577226161957 0.4763067662715912
0.7706261277198792 0.1991433948278427 0.5382108688354492
0.6891141533851624 0.3377554714679718 0.3683208227157593
0.7190214991569519 0.17463405430316925 0.43818944692611694
0.8171290159225464 0.2935088872909546 0.4202645421028137
0.8036924600601196 0.33680424094200134 0.4219447374343872
0.8103731274604797 0.2635192275047302 0.43465808033943176
0.8340805768966675 0.25875750184059143 0.5080099105834961
0.7147586941719055 0.23686861991882324 0.4539480209350586
0.7671762108802795 0.17155171930789948 0.5059070587158203
0.807224690914154 0.30326327681541443 0.42925170063972473
0.7802280187606812 0.2964839041233063 0.4414668083190918
0.8410961031913757 0.31791576743125916 0.5070566534996033
0.8683742880821228 0.30389299988746643 0.39298704266548157
0.7838971018791199 0.25263547897338867 0.36635786294937134
0.7514679431915283 0.3293757438659668 0.37784895300865173
0.7860081791877747 0.2277861088514328 0.4355125427246094
0.712297797203064 0.26560378074645996 0.42040979862213135
0.6670708060264587 0.17864198982715607 0.4192177951335907
0.6762740015983582 0.28489863872528076 0.36343759298324585
0.8434250354766846 0.24668867886066437 0.5693750381469727
0.7148204445838928 0.26453498005867004 0.5217365026473999
0.8155249357223511 0.369005411863327 0.5239199995994568
0.7321099638938904 0.28361594676971436 0.35404786467552185
0.7604645490646362 0.25607916712760925 0.5555450916290283
0.7573462724685669 0.32801535725593567 0.4147266745567322
0.8165570497512817 0.3154963254928589 0.45126715302467346
0.73839271068573 0.21248751878738403 0.4785848557949066
0.8443858623504639 0.32139530777931213 0.37357473373413086
0.8621500730514526 0.3484839200973511 0.4563465118408203
0.6979950666427612 0.3698461055755615 0.5267359018325806
0.7782104015350342 0.3080884516239166 0.5359335541725159
0.7026640772819519 0.37194687128067017 0.4748772382736206
0.7327404022216797 0.30982962250709534 0.5148387551307678
0.719450056552887 0.2914586365222931 0.4313051104545593
0.8170027136802673 0.23031844198703766 0.5416514873504639
0.7999616861343384 0.2813650071620941 0.5007378458976746
0.7198939919471741 0.2750902771949768 0.5485329627990723
0.7350654006004333 0.2864959239959717 0.5404654741287231
0.68887859582901 0.29951098561286926 0.5300219058990479
0.6769368648529053 0.2196464240550995 0.4832382798194885
0.7784890532493591 0.3645256757736206 0.4717286229133606
0.8298290371894836 0.3495519161224365 0.5072222352027893
0.7034538984298706 0.3588561415672302 0.520002543926239
0.7496925592422485 0.32585108280181885 0.49302440881729126
0.6851282119750977 0.19392035901546478 0.5524443984031677
0.8276643753051758 0.2415606677532196 0.40292081236839294
0.8184114098548889 0.21483638882637024 0.5648239254951477
0.8164172172546387 0.2964235842227936 0.42044681310653687
0.6706892848014832 0.17673610150814056 0.4897056519985199
0.7370247840881348 0.3023369312286377 0.4434944689273834
0.8081209063529968 0.22548457980155945 0.49183836579322815
0.7706519365310669 0.20486028492450714 0.5666235089302063
0.8515434265136719 0.35007885098457336 0.4362345039844513
0.8102172017097473 0.2661786377429962 0.518118679523468
0.825336217880249 0.17696961760520935 0.39771538972854614
0.7698860168457031 0.30414682626724243 0.4758993983268738
0.7245877981185913 0.17378894984722137 0.40282362699508667
0.8110398054122925 0.26735562086105347 0.501074492931366
0.7320546507835388 0.16925300657749176 0.4860619604587555
0.6682012677192688 0.17419129610061646 0.4150465428829193
0.778306245803833 0.22593185305595398 0.4477479159832001
0.7384805083274841 0.208004891872406 0.4932257831096649
0.8465443849563599 0.24100418388843536 0.5080859661102295
0.844983696937561 0.2087624967098236 0.45986172556877136
0.6835261583328247 0.3129710853099823 0.387527197599411
0.6933183073997498 0.2343745231628418 0.5467521548271179
0.7065426707267761 0.2895018458366394 0.42179691791534424
0.753015398979187 0.2066253274679184 0.4251938760280609
0.6958795785903931 0.3645423948764801 0.483246386051178
0.8355545401573181 0.24691815674304962 0.514252781867981
0.8636763095855713 0.34548401832580566 0.4455159902572632
0.7134152054786682 0.2994531989097595 0.43356549739837646
0.7359342575073242 0.27265578508377075 0.38276609778404236
0.8268469572067261 0.21715067327022552 0.4540742337703705
0.6729720234870911 0.2871779501438141 0.5334486961364746
0.8139692544937134 0.20804378390312195 0.5079851150512695
0.6851282119750977 0.19392035901546478 0.5524443984031677
0.8289656043052673 0.26916149258613586 0.5391951203346252
0.7016838192939758 0.21593013405799866 0.5112260580062866
0.7325676083564758 0.17893736064434052 0.45552510023117065
0.6764036417007446 0.3689430058002472 0.426211416721344
0.8539971709251404 0.29679346084594727 0.38486889004707336
0.7954385280609131 0.2520834803581238 0.4702836275100708
0.8297064900398254 0.2060588002204895 0.5637197494506836
0.8530350923538208 0.20376555621623993 0.48850172758102417
0.7165579199790955 0.20121605694293976 0.5411879420280457
0.8565294742584229 0.3336375653743744 0.5408945083618164
0.758099377155304 0.2530839145183563 0.5014762282371521
0.7739380598068237 0.2488097846508026 0.44263648986816406
0.6900954246520996 0.35459741950035095 0.5011820197105408
0.6676937341690063 0.22502143681049347 0.465323805809021
0.8179044723510742 0.23251891136169434 0.37741902470588684
0.8628210425376892 0.2801659405231476 0.40320107340812683
0.6675612330436707 0.22895149886608124 0.502339243888855
0.8077787756919861 0.231080561876297 0.5158218741416931
0.7628530263900757 0.29525643587112427 0.4757915735244751
0.7284218072891235 0.36551132798194885 0.4969249367713928
0.6995608806610107 0.25154486298561096 0.4282264709472656
0.6716375946998596 0.2704407572746277 0.4540846049785614
0.7091268301010132 0.2250957489013672 0.40459758043289185
0.714988648891449 0.20325273275375366 0.3747192919254303
0.7203851342201233 0.217497780919075 0.4924629032611847
0.7551553845405579 0.18888916075229645 0.44155868887901306
0.6806415915489197 0.2776620090007782 0.3773858845233917
0.7600913047790527 0.23885060846805573 0.5072889924049377
0.7557724118232727 0.22067032754421234 0.4586164057254791
0.7870109677314758 0.16439160704612732 0.45149877667427063
0.7299556732177734 0.3333170413970947 0.3670242726802826
0.6995421648025513 0.2782307267189026 0.47197189927101135
0.7557724118232727 0.22067032754421234 0.4586164057254791
0.7870109677314758 0.16439160704612732 0.45149877667427063
0.7299556732177734 0.3333170413970947 0.3670242726802826
0.8232804536819458 0.2904742360115051 0.512200653553009
0.6764833331108093 0.1811758577823639 0.4594791829586029
0.7649540305137634 0.31931301951408386 0.4307008385658264
0.7904323935508728 0.20537687838077545 0.5695885419845581
0.7779715657234192 0.17453646659851074 0.5191043615341187
0.7266508340835571 0.19391557574272156 0.5473122000694275
0.7915128469467163 0.17701470851898193 0.5064126253128052
0.7472654581069946 0.28123804926872253 0.39678314328193665
0.7675613760948181 0.36237290501594543 0.47703826427459717
0.8547231554985046 0.1824573427438736 0.45483076572418213
0.7291900515556335 0.35162246227264404 0.509641706943512
0.8190685510635376 0.19077752530574799 0.4513566195964813
0.7641655206680298 0.1702217012643814 0.47229766845703125
0.6974219679832458 0.24413807690143585 0.414017915725708
0.7924895286560059 0.18627364933490753 0.41773393750190735
0.7507578730583191 0.1809602677822113 0.41247788071632385
0.8354781866073608 0.3150894045829773 0.36753225326538086
0.7520633339881897 0.35530832409858704 0.5246749520301819
0.7040377855300903 0.2213863879442215 0.5220332145690918
0.7849392890930176 0.28326380252838135 0.36572393774986267
0.7523752450942993 0.214438796043396 0.46617433428764343
0.7279106378555298 0.34343254566192627 0.3926609754562378
0.8538485765457153 0.27878057956695557 0.5104657411575317
0.6679137349128723 0.24136503040790558 0.44278448820114136
0.7151763439178467 0.25724688172340393 0.40172117948532104
0.7549936771392822 0.2634257674217224 0.4970594346523285
0.7914515137672424 0.36941224336624146 0.5003325939178467
0.7021040916442871 0.20994769036769867 0.564124345779419
0.7779169082641602 0.19639402627944946 0.44338324666023254
0.7955456972122192 0.3308943212032318 0.41950634121894836
0.7419439554214478 0.22705115377902985 0.5023090243339539
0.7673473954200745 0.2671779990196228 0.5366499423980713
0.775763213634491 0.24988527595996857 0.4672114849090576
0.6692193746566772 0.2771620750427246 0.4969803988933563
0.7067213654518127 0.3293409049510956 0.3944120705127716
0.6748399138450623 0.1907529979944229 0.4670318067073822
0.6943831443786621 0.30515000224113464 0.5378682017326355
0.7514133453369141 0.3186556100845337 0.513171911239624
0.8070218563079834 0.32451072335243225 0.4732140898704529
0.8417288064956665 0.3428717851638794 0.44002285599708557
0.7380081415176392 0.17414456605911255 0.4251764416694641
0.8571693301200867 0.3010214865207672 0.48321136832237244
0.7869348526000977 0.31778329610824585 0.4013120234012604
0.7395753264427185 0.23323199152946472 0.41670650243759155
0.7278270125389099 0.2997399568557739 0.5181922912597656
0.8570647239685059 0.2774081230163574 0.4787138104438782
0.858375072479248 0.21614138782024384 0.39999714493751526
0.7801423072814941 0.17062519490718842 0.5056902766227722
0.7246478796005249 0.22192372381687164 0.5671518445014954
0.8075259923934937 0.26552096009254456 0.5169276595115662
0.7720407843589783 0.2364380955696106 0.554862916469574
0.6643006801605225 0.2506771683692932 0.43273279070854187
0.7910345792770386 0.30003058910369873 0.43536046147346497
0.7941939234733582 0.31613001227378845 0.3767167925834656
0.7400333881378174 0.25590699911117554 0.419931024312973
0.719020426273346 0.20429660379886627 0.46918031573295593
0.7402856945991516 0.19475004076957703 0.4258594214916229
0.683229386806488 0.23243926465511322 0.5508954524993896
0.8474031090736389 0.23068499565124512 0.486501544713974
0.7232181429862976 0.305294007062912 0.5444024801254272
0.7281526327133179 0.23836258053779602 0.4836540222167969
0.7923064231872559 0.31641486287117004 0.5086045861244202
0.7785499691963196 0.29070937633514404 0.38031005859375
0.8620119690895081 0.34586089849472046 0.5372900366783142
0.7419666051864624 0.2537790536880493 0.43839365243911743
0.7615300416946411 0.20527811348438263 0.5264895558357239
0.6968710422515869 0.24425233900547028 0.4275551736354828
0.7449000477790833 0.20391182601451874 0.42109712958335876
0.8066139817237854 0.34490564465522766 0.5407692790031433
0.7162930369377136 0.25794482231140137 0.5254969596862793
0.8275654911994934 0.19988000392913818 0.42722389101982117
0.8276643753051758 0.2415606677532196 0.40292081236839294
0.8184114098548889 0.21483638882637024 0.5648239254951477
0.8164172172546387 0.2964235842227936 0.42044681310653687
0.6706892848014832 0.17673610150814056 0.4897056519985199
0.7370247840881348 0.3023369312286377 0.4434944689273834
0.7666486501693726 0.34587299823760986 0.37340572476387024
0.7167454361915588 0.2952724099159241 0.39957955479621887
0.7268256545066833 0.22871772944927216 0.41688278317451477
0.7504618763923645 0.3146182894706726 0.4395115077495575
0.746781051158905 0.2283989042043686 0.5025847554206848
0.8373224139213562 0.18022917211055756 0.5835230350494385
0.7698860168457031 0.30414682626724243 0.4758993983268738
0.7245877981185913 0.17378894984722137 0.40282362699508667
0.8110398054122925 0.26735562086105347 0.501074492931366
0.7320546507835388 0.16925300657749176 0.4860619604587555
0.6682012677192688 0.17419129610061646 0.4150465428829193
0.778306245803833 0.22593185305595398 0.4477479159832001
0.7384805083274841 0.208004891872406 0.4932257831096649
0.8465443849563599 0.24100418388843536 0.5080859661102295
0.6966701149940491 0.1835286021232605 0.3839288353919983
0.8140894770622253 0.2944449186325073 0.37308892607688904
0.8234206438064575 0.1839541792869568 0.40154269337654114
0.6800039410591125 0.2841479182243347 0.372147798538208
0.6993219256401062 0.2532714009284973 0.38659557700157166
0.6764833331108093 0.1811758577823639 0.4594791829586029
0.7649540305137634 0.31931301951408386 0.4307008385658264
0.7904323935508728 0.20537687838077545 0.5695885419845581
0.7266508340835571 0.19391557574272156 0.5473122000694275
0.7915128469467163 0.17701470851898193 0.5064126253128052
0.7459583282470703 0.34358128905296326 0.4322800040245056
0.7472654581069946 0.28123804926872253 0.39678314328193665
0.7675613760948181 0.36237290501594543 0.47703826427459717
0.8547231554985046 0.1824573427438736 0.45483076572418213
0.7291900515556335 0.35162246227264404 0.509641706943512
0.8190685510635376 0.19077752530574799 0.4513566195964813
0.7641655206680298 0.1702217012643814 0.47229766845703125
0.7924895286560059 0.18627364933490753 0.41773393750190735
0.7507578730583191 0.1809602677822113 0.41247788071632385
0.6846196055412292 0.19657649099826813 0.47402438521385193
0.8354781866073608 0.3150894045829773 0.36753225326538086
0.7520633339881897 0.35530832409858704 0.5246749520301819
0.7040377855300903 0.2213863879442215 0.5220332145690918
0.7849392890930176 0.28326380252838135 0.36572393774986267
0.7279106378555298 0.34343254566192627 0.3926609754562378
0.8538485765457153 0.27878057956695557 0.5104657411575317
0.6679137349128723 0.24136503040790558 0.44278448820114136
0.7151763439178467 0.25724688172340393 0.40172117948532104
0.7151763439178467 0.25724688172340393 0.40172117948532104
0.7549936771392822 0.2634257674217224 0.4970594346523285
0.7914515137672424 0.36941224336624146 0.5003325939178467
0.7445038557052612 0.21144911646842957 0.5674040913581848
0.7021040916442871 0.20994769036769867 0.564124345779419
0.7920573949813843 0.21385133266448975 0.4914303421974182
0.7844220995903015 0.22384044528007507 0.41455259919166565
0.8501908779144287 0.15554766356945038 0.4807626008987427
0.8320104479789734 0.2165861278772354 0.4451744854450226
0.8364167213439941 0.2193615585565567 0.3859735429286957
0.7517104744911194 0.3168315291404724 0.4742560088634491
0.690281867980957 0.29177847504615784 0.5379146337509155
0.7995433211326599 0.16235597431659698 0.46501782536506653
0.7565190196037292 0.1946481168270111 0.38019001483917236
0.6831212639808655 0.32190191745758057 0.4617873728275299
0.8504511713981628 0.24018624424934387 0.5452905893325806
0.7315647006034851 0.30679240822792053 0.40004342794418335
0.7882505059242249 0.2230103760957718 0.5409080386161804
0.7661851644515991 0.33339518308639526 0.37727001309394836
0.7619497776031494 0.20580096542835236 0.44409534335136414
0.8501684069633484 0.28819939494132996 0.42646923661231995
0.7804751992225647 0.2032865434885025 0.49134036898612976
0.7188512086868286 0.3058953583240509 0.36810997128486633
0.8369587063789368 0.2850196957588196 0.3907228410243988
0.7556208968162537 0.27371087670326233 0.3806738257408142
0.7842345237731934 0.19523465633392334 0.5725565552711487
0.6799874901771545 0.35613566637039185 0.3682698905467987
0.6907854676246643 0.34710240364074707 0.3493964970111847
0.7404729723930359 0.26164546608924866 0.4576757848262787
0.7236613035202026 0.22905249893665314 0.43080973625183105
0.6955661177635193 0.2815806269645691 0.3526264727115631
0.761242687702179 0.19554661214351654 0.48845967650413513
0.6906420588493347 0.30308112502098083 0.3600551187992096
0.8204126358032227 0.22443106770515442 0.5524137616157532
0.8101447224617004 0.3341157138347626 0.3938567638397217
0.84319669008255 0.15960408747196198 0.4655059278011322
0.7832353711128235 0.16228142380714417 0.41101568937301636
0.8118086457252502 0.14972004294395447 0.403167188167572
0.8234206438064575 0.1839541792869568 0.40154269337654114
0.8474031090736389 0.23068499565124512 0.486501544713974
0.7232181429862976 0.305294007062912 0.5444024801254272
0.7148489952087402 0.35826730728149414 0.47078242897987366
0.8487336039543152 0.17653679847717285 0.48838821053504944
0.7237564921379089 0.23785702884197235 0.48364242911338806
0.6689954400062561 0.20366376638412476 0.4379381239414215
0.6856444478034973 0.3792452812194824 0.5105350613594055
0.7578174471855164 0.3182859420776367 0.3484646677970886
0.7517887949943542 0.2926639914512634 0.5140036940574646
0.7863213419914246 0.32833367586135864 0.4112476706504822
0.6736833453178406 0.26983824372291565 0.46305960416793823
0.6906251311302185 0.16901929676532745 0.3963482677936554
0.6825070977210999 0.35258015990257263 0.43184924125671387
0.7997950911521912 0.2707406282424927 0.5268455743789673
0.8338632583618164 0.26659342646598816 0.4402613341808319
0.7755774855613708 0.23589925467967987 0.509984016418457
0.7492067813873291 0.25444719195365906 0.5337820649147034
0.6963703632354736 0.353001207113266 0.3634917736053467
0.8039494752883911 0.33300480246543884 0.3819958567619324
0.8607417941093445 0.26312384009361267 0.4608791768550873
0.8175608515739441 0.2167893797159195 0.5107946991920471
0.7627869844436646 0.35226744413375854 0.4923699200153351
0.6790475845336914 0.3268313705921173 0.3879499137401581
0.7297766208648682 0.19327157735824585 0.4067956209182739
0.7847755551338196 0.31830960512161255 0.5483429431915283
0.6989340782165527 0.21491976082324982 0.554227888584137
0.7784191966056824 0.27791914343833923 0.4650028645992279
0.7519475221633911 0.2734510004520416 0.35731035470962524
0.8256089687347412 0.247889444231987 0.5457857251167297
0.7540705800056458 0.25571954250335693 0.5592932105064392
0.8192967176437378 0.22200995683670044 0.5710974335670471
0.7147586941719055 0.23686861991882324 0.4539480209350586
0.8102172017097473 0.2661786377429962 0.518118679523468
0.825336217880249 0.17696961760520935 0.39771538972854614
0.7698860168457031 0.30414682626724243 0.4758993983268738
0.8354005217552185 0.2864442467689514 0.49468931555747986
0.7427901029586792 0.19352541863918304 0.49730733036994934
0.6629928946495056 0.19228926301002502 0.5371620059013367
0.729334831237793 0.27917999029159546 0.4815605878829956
0.6861202716827393 0.3298073709011078 0.4786036014556885
0.6883248090744019 0.2062956541776657 0.5444754362106323
0.7266784310340881 0.2096143364906311 0.42741134762763977
0.8468962907791138 0.2706041932106018 0.36588147282600403
0.7760166525840759 0.2692301273345947 0.462547242641449
0.7423320412635803 0.30646294355392456 0.5367619395256042
0.8368569016456604 0.2114904224872589 0.5036907196044922
0.8283314108848572 0.2823930084705353 0.3752652108669281
0.7463904619216919 0.19375139474868774 0.4567284882068634
0.7001312375068665 0.3295629024505615 0.49188148975372314
0.6956139206886292 0.3404342830181122 0.3517506420612335
0.7329666614532471 0.1611967235803604 0.3899689316749573
0.8632159233093262 0.3081701397895813 0.43612465262413025
0.7689087986946106 0.2646956145763397 0.5020630359649658
0.8266996741294861 0.27162688970565796 0.38011878728866577
0.771137535572052 0.21341148018836975 0.4682132601737976
0.8096516728401184 0.18425476551055908 0.5396673679351807
0.8240483403205872 0.2763032019138336 0.38551515340805054
0.7853955030441284 0.31534144282341003 0.5463471412658691
0.7613701820373535 0.23840385675430298 0.5335249304771423
0.7976951599121094 0.352051705121994 0.43485602736473083
0.7729867100715637 0.2087429314851761 0.4461074769496918
0.8290247917175293 0.3157900869846344 0.3653163015842438
0.7515197992324829 0.34183624386787415 0.39507076144218445
0.7385204434394836 0.23409110307693481 0.5290219783782959
0.8217037916183472 0.19924035668373108 0.545566976070404
0.726533830165863 0.2969641387462616 0.3844362497329712
0.7863245010375977 0.22188305854797363 0.5226008296012878
0.7419666051864624 0.2537790536880493 0.43839365243911743
0.7615300416946411 0.20527811348438263 0.5264895558357239
0.6968710422515869 0.24425233900547028 0.4275551736354828
0.7449000477790833 0.20391182601451874 0.42109712958335876
0.8066139817237854 0.34490564465522766 0.5407692790031433
0.7162930369377136 0.25794482231140137 0.5254969596862793
0.8275654911994934 0.19988000392913818 0.42722389101982117
0.8276643753051758 0.2415606677532196 0.40292081236839294
0.8184114098548889 0.21483638882637024 0.5648239254951477
0.8164172172546387 0.2964235842227936 0.42044681310653687
0.6706892848014832 0.17673610150814056 0.4897056519985199
0.7370247840881348 0.3023369312286377 0.4434944689273834
0.8081209063529968 0.22548457980155945 0.49183836579322815
0.7706519365310669 0.20486028492450714 0.5666235089302063
0.8515434265136719 0.35007885098457336 0.4362345039844513
0.8102172017097473 0.2661786377429962 0.518118679523468
0.825336217880249 0.17696961760520935 0.39771538972854614
0.7698860168457031 0.30414682626724243 0.4758993983268738
0.7245877981185913 0.17378894984722137 0.40282362699508667
0.8110398054122925 0.26735562086105347 0.501074492931366
0.7320546507835388 0.16925300657749176 0.4860619604587555
0.6682012677192688 0.17419129610061646 0.4150465428829193
0.778306245803833 0.22593185305595398 0.4477479159832001
0.7384805083274841 0.208004891872406 0.4932257831096649
0.8465443849563599 0.24100418388843536 0.5080859661102295
0.844983696937561 0.2087624967098236 0.45986172556877136
0.6835261583328247 0.3129710853099823 0.387527197599411
0.6933183073997498 0.2343745231628418 0.5467521548271179
0.8599989414215088 0.3367702066898346 0.4557212293148041
0.8073745965957642 0.16446925699710846 0.5023636817932129
0.8483274579048157 0.3063525855541229 0.3955559730529785
0.7281519174575806 0.3308943808078766 0.41319555044174194
0.7187695503234863 0.24185383319854736 0.5306065082550049
0.7917906641960144 0.2522926330566406 0.41834190487861633
0.7523306012153625 0.33879008889198303 0.4448908865451813
0.8476225137710571 0.3087913691997528 0.40815669298171997
0.7974851727485657 0.2475842386484146 0.552151083946228
0.7134697437286377 0.17580260336399078 0.4633817970752716
0.8287197351455688 0.2999855875968933 0.4966020882129669
0.674501359462738 0.29682013392448425 0.53800368309021
0.7152888178825378 0.2047119140625 0.4900573194026947
0.6734594106674194 0.21498575806617737 0.4540292024612427
0.7152888178825378 0.2047119140625 0.4900573194026947
0.6734594106674194 0.21498575806617737 0.4540292024612427
0.7308032512664795 0.3353782892227173 0.38374096155166626
0.7768989205360413 0.30068841576576233 0.3647623360157013
0.7410308718681335 0.2500480115413666 0.4669283926486969
0.8217037916183472 0.19924035668373108 0.545566976070404
0.6969366669654846 0.18827979266643524 0.4253341853618622
0.678009033203125 0.35573458671569824 0.4166508615016937
0.7233800888061523 0.1788254678249359 0.4388953447341919
0.768253743648529 0.16450755298137665 0.48407182097435
0.7419666051864624 0.2537790536880493 0.43839365243911743
0.7615300416946411 0.20527811348438263 0.5264895558357239
0.6968710422515869 0.24425233900547028 0.4275551736354828
0.7449000477790833 0.20391182601451874 0.42109712958335876
0.8066139817237854 0.34490564465522766 0.5407692790031433
0.7162930369377136 0.25794482231140137 0.5254969596862793
0.8275654911994934 0.19988000392913818 0.42722389101982117
0.8276643753051758 0.2415606677532196 0.40292081236839294
0.8288692831993103 0.30161750316619873 0.44583818316459656
0.7615300416946411 0.20527811348438263 0.5264895558357239
0.6968710422515869 0.24425233900547028 0.4275551736354828
0.7449000477790833 0.20391182601451874 0.42109712958335876
0.8066139817237854 0.34490564465522766 0.5407692790031433
0.7162930369377136 0.25794482231140137 0.5254969596862793
0.8275654911994934 0.19988000392913818 0.42722389101982117
0.8276643753051758 0.2415606677532196 0.40292081236839294
0.8184114098548889 0.21483638882637024 0.5648239254951477
0.8164172172546387 0.2964235842227936 0.42044681310653687
0.6706892848014832 0.17673610150814056 0.4897056519985199
0.7370247840881348 0.3023369312286377 0.4434944689273834
0.8081209063529968 0.22548457980155945 0.49183836579322815
0.7706519365310669 0.20486028492450714 0.5666235089302063
0.8505983352661133 0.3551642596721649 0.4584272503852844
0.7015030384063721 0.2766079902648926 0.3805062174797058
0.7009416818618774 0.23224389553070068 0.45137786865234375
0.8475035429000854 0.20537421107292175 0.43457573652267456
0.7956241369247437 0.24858199059963226 0.5237749814987183
0.7518057227134705 0.27644816040992737 0.4585094451904297
0.8441111445426941 0.16335555911064148 0.453978955745697
0.7996681928634644 0.16867128014564514 0.4973941743373871
0.7972162365913391 0.35864123702049255 0.4391802251338959
0.6842484474182129 0.20621848106384277 0.5462338328361511
0.844983696937561 0.2087624967098236 0.45986172556877136
0.7397809028625488 0.27775004506111145 0.4366176128387451
0.7433471083641052 0.2599688470363617 0.422537237405777
0.8148820400238037 0.23491495847702026 0.5240336060523987
0.7501225471496582 0.3395208716392517 0.5077435970306396
0.8326970934867859 0.1674322783946991 0.49581843614578247
0.8386887907981873 0.3010958135128021 0.4141736626625061
0.7573803663253784 0.28397855162620544 0.3854033350944519
0.6902875900268555 0.29631033539772034 0.42606234550476074
0.8156611919403076 0.2741036117076874 0.47057926654815674
0.6618946194648743 0.18220025300979614 0.41322264075279236
0.8241825103759766 0.17186668515205383 0.505556046962738
0.6629952788352966 0.2991896867752075 0.5251847505569458
0.8184114098548889 0.21483638882637024 0.5648239254951477
0.8164172172546387 0.2964235842227936 0.42044681310653687
0.6706892848014832 0.17673610150814056 0.4897056519985199
0.7370247840881348 0.3023369312286377 0.4434944689273834
0.8081209063529968 0.22548457980155945 0.49183836579322815
0.7706519365310669 0.20486028492450714 0.5666235089302063
0.8515434265136719 0.35007885098457336 0.4362345039844513
0.8102172017097473 0.2661786377429962 0.518118679523468
0.825336217880249 0.17696961760520935 0.39771538972854614
0.7698860168457031 0.30414682626724243 0.4758993983268738
0.7245877981185913 0.17378894984722137 0.40282362699508667
0.8110398054122925 0.26735562086105347 0.501074492931366
0.7320546507835388 0.16925300657749176 0.4860619604587555
0.6682012677192688 0.17419129610061646 0.4150465428829193
0.778306245803833 0.22593185305595398 0.4477479159832001
0.803039014339447 0.30060526728630066 0.3829347491264343
0.7561644911766052 0.2537854015827179 0.36630815267562866
0.6606389284133911 0.20067256689071655 0.5401285886764526
0.7332170009613037 0.3546805679798126 0.44319644570350647
0.7809394001960754 0.2528045177459717 0.41472673416137695
0.8614178895950317 0.3381499648094177 0.401250958442688
0.7948780059814453 0.25859829783439636 0.40670567750930786
0.6947247982025146 0.334299772977829 0.530978262424469
0.8251934051513672 0.25522398948669434 0.37651968002319336
0.7990112900733948 0.2610182762145996 0.5486546754837036
0.6956976652145386 0.36504003405570984 0.5223254561424255
0.7110370397567749 0.2550621032714844 0.5009976029396057
0.6563856601715088 0.2116212546825409 0.5567649602890015
0.826577365398407 0.287716269493103 0.4625169634819031
0.7367708086967468 0.31071096658706665 0.36340853571891785
0.7033802270889282 0.30526626110076904 0.48797598481178284
0.7083477973937988 0.2559621334075928 0.4889562427997589
0.8221080303192139 0.1762920469045639 0.44427165389060974
0.767876386642456 0.24342164397239685 0.5297125577926636
0.8380649089813232 0.2838781774044037 0.4482883810997009
0.8576174378395081 0.33094391226768494 0.539935290813446
0.6936686038970947 0.35971134901046753 0.476203978061676
0.8139438629150391 0.1789337694644928 0.4671574532985687
0.6836998462677002 0.18554477393627167 0.5289748907089233
0.8500804901123047 0.2010556012392044 0.49233436584472656
0.7387478351593018 0.2780013978481293 0.46719542145729065
0.8073745965957642 0.16446925699710846 0.5023636817932129
0.8483274579048157 0.3063525855541229 0.3955559730529785
0.7281519174575806 0.3308943808078766 0.41319555044174194
0.7187695503234863 0.24185383319854736 0.5306065082550049
0.7187695503234863 0.24185383319854736 0.5306065082550049
0.7917906641960144 0.2522926330566406 0.41834190487861633
0.7523306012153625 0.33879008889198303 0.4448908865451813
0.8476225137710571 0.3087913691997528 0.40815669298171997
0.8099754452705383 0.2023533582687378 0.5367200970649719
0.7974851727485657 0.2475842386484146 0.552151083946228
0.7134697437286377 0.17580260336399078 0.4633817970752716
0.8287197351455688 0.2999855875968933 0.4966020882129669
0.674501359462738 0.29682013392448425 0.53800368309021
0.7152888178825378 0.2047119140625 0.4900573194026947
0.6734594106674194 0.21498575806617737 0.4540292024612427
0.7308032512664795 0.3353782892227173 0.38374096155166626
0.7768989205360413 0.30068841576576233 0.3647623360157013
0.7410308718681335 0.2500480115413666 0.4669283926486969
0.8359462022781372 0.25715693831443787 0.5217573642730713
0.6963703632354736 0.353001207113266 0.3634917736053467
0.8039494752883911 0.33300480246543884 0.3819958567619324
0.825336217880249 0.17696961760520935 0.39771538972854614
0.7698860168457031 0.30414682626724243 0.4758993983268738
0.7245877981185913 0.17378894984722137 0.40282362699508667
0.8110398054122925 0.26735562086105347 0.501074492931366
0.8317717909812927 0.23073998093605042 0.4962327778339386
0.8334121704101562 0.1975664347410202 0.4471752345561981
0.8220882415771484 0.2299884706735611 0.479117214679718
0.8061542510986328 0.17763039469718933 0.4892393946647644
0.7356700301170349 0.23367902636528015 0.5183576941490173
0.7798941731452942 0.34550389647483826 0.4511042535305023
0.8338198065757751 0.2645677328109741 0.5613338947296143
0.7275956869125366 0.19443866610527039 0.5559959411621094
0.6899270415306091 0.33909088373184204 0.5031432509422302
0.7611584663391113 0.328659325838089 0.4940633773803711
0.7876007556915283 0.3249390125274658 0.4152005910873413
0.8183059096336365 0.3155677020549774 0.40859276056289673
0.8637537956237793 0.30622899532318115 0.4911768138408661
0.8617060780525208 0.3270187973976135 0.47802355885505676
0.681326150894165 0.2168882042169571 0.46839439868927
0.8074476718902588 0.31282177567481995 0.3684491813182831
0.7180842757225037 0.2721311151981354 0.5350964069366455
0.8084847927093506 0.20944257080554962 0.4890691936016083
0.7564659714698792 0.1922484040260315 0.41387495398521423
0.7666633725166321 0.24117211997509003 0.36770835518836975
0.6713433861732483 0.3343295753002167 0.45454639196395874
