ply
format ascii 1.0
element vertex 830
property float x
property float y
property float z
end_header
0.8514372110366821 0.34021297097206116 0.4514475166797638
0.7947592735290527 0.32421785593032837 0.3796352446079254
0.8198474049568176 0.18897981941699982 0.47327446937561035
0.7729535698890686 0.1548219919204712 0.39927828311920166
0.7625744938850403 0.27639636397361755 0.43679162859916687
0.678878903388977 0.1904251128435135 0.5453757047653198
0.7456835508346558 0.3137529790401459 0.5234851241111755
0.832426130771637 0.18457353115081787 0.48791971802711487
0.6886976957321167 0.24453599750995636 0.4672050476074219
0.71371990442276 0.22220925986766815 0.44311341643333435
0.787769615650177 0.30534374713897705 0.4994466006755829
0.6739278435707092 0.23770561814308167 0.4648435711860657
0.7462654113769531 0.30106452107429504 0.46908169984817505
0.8311544060707092 0.2997615337371826 0.4625423550605774
0.8232205510139465 0.2580026388168335 0.37666916847229004
0.7216403484344482 0.3404194414615631 0.3713378608226776
0.7168287634849548 0.23979268968105316 0.5184926390647888
0.7623034715652466 0.3410877585411072 0.4434801936149597
0.8031948804855347 0.27532556653022766 0.4464029371738434
0.7155132293701172 0.2843739986419678 0.514909029006958
0.6833381652832031 0.29487329721450806 0.4829421937465668
0.7718134522438049 0.2684279680252075 0.5541630387306213
0.6727582216262817 0.22666043043136597 0.5446996092796326
0.828514575958252 0.1696133017539978 0.43419522047042847
0.7008995413780212 0.19628867506980896 0.42823755741119385
0.7045427560806274 0.2809811532497406 0.5469435453414917
0.8389883041381836 0.19302542507648468 0.42394310235977173
0.6766777038574219 0.2299315631389618 0.5553218126296997
0.84622722864151 0.3105362057685852 0.4398745894432068
0.79791659116745 0.17668046057224274 0.47313886880874634
0.823619544506073 0.18165548145771027 0.5396226048469543
0.7971600890159607 0.32039928436279297 0.4913056790828705
0.7352427244186401 0.342464804649353 0.36347994208335876
0.6711047291755676 0.31106677651405334 0.38567054271698
0.7758468985557556 0.2953476011753082 0.37275969982147217
0.7370467185974121 0.33297449350357056 0.3520166277885437
0.8082837462425232 0.30715566873550415 0.36325088143348694
0.6776400804519653 0.26539239287376404 0.4674440920352936
0.736011803150177 0.3175671398639679 0.3961097300052643
0.8219239711761475 0.19626635313034058 0.3905656635761261
0.8267582058906555 0.20434869825839996 0.5327426195144653
0.8161858320236206 0.24488428235054016 0.5313459634780884
0.7215515375137329 0.2425750195980072 0.3646627366542816
0.8347803354263306 0.2065083533525467 0.5344769954681396
0.7597747445106506 0.20921123027801514 0.5254697799682617
0.7027294039726257 0.31086334586143494 0.457248717546463
0.7324045300483704 0.2917896807193756 0.473908394575119
0.8306111693382263 0.20388682186603546 0.4431714117527008
0.7579857707023621 0.17297939956188202 0.45150026679039
0.6965392827987671 0.3530987501144409 0.5004896521568298
0.679315447807312 0.34375816583633423 0.44327521324157715
0.8170870542526245 0.23986376821994781 0.416616827249527
0.7655917406082153 0.2899889051914215 0.376546174287796
0.7808996438980103 0.22640608251094818 0.49789193272590637
0.8252124786376953 0.31588271260261536 0.43296560645103455
0.690764844417572 0.24594783782958984 0.4356721043586731
0.6785160899162292 0.1852262169122696 0.4494462311267853
0.7713624835014343 0.16422788798809052 0.42882776260375977
0.6712785959243774 0.24522078037261963 0.5142585039138794
0.7388005256652832 0.33333471417427063 0.4572063386440277
0.769116222858429 0.18707503378391266 0.5634453892707825
0.7441006302833557 0.30496159195899963 0.3796231150627136
0.7633090615272522 0.22181996703147888 0.5399667024612427
0.7963735461235046 0.3366405665874481 0.41318193078041077
0.7897146940231323 0.2805348038673401 0.3849181830883026
0.692265510559082 0.3452487289905548 0.5329955220222473
0.6953290104866028 0.18424367904663086 0.5191078782081604
0.7916589379310608 0.2709915041923523 0.4442136585712433
0.7592216730117798 0.26931533217430115 0.45304611325263977
0.6811935305595398 0.25429823994636536 0.5030999779701233
0.8260203003883362 0.31976795196533203 0.39668768644332886
0.7707417011260986 0.23442719876766205 0.5009699463844299
0.7525249123573303 0.33058613538742065 0.3674960136413574
0.7804585695266724 0.3198540210723877 0.352918416261673
0.854222297668457 0.27633774280548096 0.3738098740577698
0.8531578183174133 0.2046748846769333 0.4248363673686981
0.7203860282897949 0.19348923861980438 0.406009703874588
0.7378482222557068 0.17932263016700745 0.5295475721359253
0.7516188025474548 0.25596195459365845 0.4594663083553314
0.7375328540802002 0.21227364242076874 0.40408360958099365
0.7185065746307373 0.3251309096813202 0.4128756523132324
0.7531418204307556 0.26461872458457947 0.5170201659202576
0.8062639832496643 0.32946106791496277 0.4213121831417084
0.7410286664962769 0.19298408925533295 0.3892037570476532
0.7466346621513367 0.2965216636657715 0.364296555519104
0.7986389398574829 0.29805681109428406 0.3795841932296753
0.8310204148292542 0.27858784794807434 0.5225762724876404
0.6995319128036499 0.1559084802865982 0.39380791783332825
0.7458078861236572 0.37689879536628723 0.5251473784446716
0.7614861130714417 0.15497316420078278 0.424868106842041
0.7300803661346436 0.29150158166885376 0.5238047242164612
0.8420864939689636 0.1840118169784546 0.47075924277305603
0.6989526152610779 0.2532358467578888 0.39435750246047974
0.7791835069656372 0.32426637411117554 0.5356230735778809
0.7903313040733337 0.3386765718460083 0.46091118454933167
0.8390685319900513 0.2164922058582306 0.39361944794654846
0.8373124003410339 0.21676215529441833 0.38074392080307007
0.7098565101623535 0.313374787569046 0.4274734556674957
0.6907610893249512 0.34726476669311523 0.3967324197292328
0.7555859088897705 0.22236809134483337 0.47376978397369385
0.8239535093307495 0.1682843565940857 0.48425009846687317
0.6733126044273376 0.20404218137264252 0.53855961561203
0.73029625415802 0.24134618043899536 0.5328184962272644
0.7230756878852844 0.3288482129573822 0.47467073798179626
0.7161845564842224 0.30319705605506897 0.414806067943573
0.7916589379310608 0.2709915041923523 0.4442136585712433
0.7592216730117798 0.26931533217430115 0.45304611325263977
0.7431547045707703 0.23686659336090088 0.4722602069377899
0.8161253333091736 0.15564116835594177 0.43825745582580566
0.7136444449424744 0.17755790054798126 0.4248645007610321
0.7798566222190857 0.2197500318288803 0.5563793778419495
0.7485784292221069 0.29167312383651733 0.3657110035419464
0.7021889090538025 0.3486388623714447 0.45632779598236084
0.8357278108596802 0.19951815903186798 0.43328022956848145
0.7592940330505371 0.2870706021785736 0.4564809203147888
0.7857887744903564 0.22775597870349884 0.5609491467475891
0.8198505640029907 0.15541253983974457 0.4342372417449951
0.7244881391525269 0.1753215491771698 0.5009241104125977
0.7500200271606445 0.14896149933338165 0.3914281129837036
0.7050181031227112 0.35491982102394104 0.45684629678726196
0.8141215443611145 0.21580597758293152 0.48995643854141235
0.6803539395332336 0.19741201400756836 0.5288534164428711
0.7347691655158997 0.35813993215560913 0.49397605657577515
0.6757580637931824 0.2958703935146332 0.4166816771030426
0.7139303684234619 0.23649579286575317 0.5440489053726196
0.794646143913269 0.2828987240791321 0.48624131083488464
0.8550994992256165 0.3259422183036804 0.45785173773765564
0.6777338981628418 0.1919574737548828 0.4969322681427002
0.8544299006462097 0.27291053533554077 0.3749375641345978
0.704975426197052 0.23156365752220154 0.47736483812332153
0.7908163070678711 0.16810685396194458 0.4273826777935028
0.7394734621047974 0.18182417750358582 0.3901348412036896
0.8208329677581787 0.18733195960521698 0.5389828085899353
0.7236614227294922 0.26551079750061035 0.4338917136192322
0.7345916628837585 0.28662392497062683 0.4910203814506531
0.8271900415420532 0.312024861574173 0.4138277769088745
0.7030650973320007 0.3083536624908447 0.3936700224876404
0.7003440856933594 0.27259746193885803 0.4576404392719269
0.8002619743347168 0.28204235434532166 0.42759057879447937
0.8024705648422241 0.2916586101055145 0.4956818222999573
0.7729051113128662 0.30499523878097534 0.462338387966156
0.8316753506660461 0.30431804060935974 0.3953808546066284
0.7120534181594849 0.3504886031150818 0.532862663269043
0.8347803354263306 0.2065083533525467 0.5344769954681396
0.8354327082633972 0.26518261432647705 0.4549223780632019
0.7460886836051941 0.19509439170360565 0.5577989816665649
0.8371923565864563 0.3255438506603241 0.5136948823928833
0.7078593969345093 0.19712360203266144 0.3847089111804962
0.7331650853157043 0.18213088810443878 0.4038679301738739
0.7140737771987915 0.2972041070461273 0.49252840876579285
0.808473527431488 0.24079811573028564 0.39116352796554565
0.8193532824516296 0.3015062212944031 0.4028632342815399
0.6834936738014221 0.25159603357315063 0.37584060430526733
0.7433236837387085 0.24431098997592926 0.5026377439498901
0.7435386776924133 0.3109211325645447 0.42226049304008484
0.8215371966362 0.2606014609336853 0.5313717722892761
0.6618713736534119 0.16213469207286835 0.4198152720928192
0.674027681350708 0.35779550671577454 0.5281001329421997
0.7537710070610046 0.23006650805473328 0.45780208706855774
0.7396219372749329 0.3358643352985382 0.49352961778640747
0.6880316734313965 0.33040761947631836 0.47810572385787964
0.7610734701156616 0.23004058003425598 0.38018178939819336
0.7271835803985596 0.1863938271999359 0.47210636734962463
0.6701017618179321 0.38500073552131653 0.5192509889602661
0.814841091632843 0.21093779802322388 0.5187366604804993
0.8085952401161194 0.3589429557323456 0.5354927778244019
0.8102968335151672 0.34947970509529114 0.47677192091941833
0.77436763048172 0.1740347445011139 0.4883115887641907
0.8387853503227234 0.2411268800497055 0.5029273629188538
0.8416383862495422 0.30996501445770264 0.43941283226013184
0.7784214019775391 0.18423229455947876 0.5119786262512207
0.7451876401901245 0.3442530632019043 0.4863342046737671
0.6931867003440857 0.3424966335296631 0.37309640645980835
0.7889235019683838 0.1636621505022049 0.42726361751556396
0.7012097835540771 0.18247903883457184 0.4455620348453522
0.6692821979522705 0.2935691475868225 0.4716503322124481
0.6789776086807251 0.36134693026542664 0.4098776876926422
0.7241188287734985 0.2587728798389435 0.39835095405578613
0.7563657760620117 0.2628680169582367 0.5531173944473267
0.8022281527519226 0.3270500898361206 0.38712647557258606
0.7332445979118347 0.3108048737049103 0.5159232020378113
0.7665843367576599 0.2176196426153183 0.47566547989845276
0.7833994030952454 0.1875612437725067 0.521672248840332
0.7140631675720215 0.3662227988243103 0.4464118778705597
0.7078640460968018 0.2419532984495163 0.47064492106437683
0.7170500159263611 0.22174912691116333 0.5057356357574463
0.8151721954345703 0.1842576563358307 0.49817630648612976
0.8075876235961914 0.33495262265205383 0.5055875182151794
0.7897146940231323 0.2805348038673401 0.3849181830883026
0.7071241736412048 0.3531464636325836 0.5205544233322144
0.6853650808334351 0.2950093746185303 0.5372928380966187
0.6723135113716125 0.22796852886676788 0.4203474223613739
0.7701548933982849 0.26638010144233704 0.5033882856369019
0.818846583366394 0.2421673834323883 0.522465705871582
0.7440410256385803 0.20317314565181732 0.5298622250556946
0.7370467185974121 0.33297449350357056 0.3520166277885437
0.8082837462425232 0.30715566873550415 0.36325088143348694
0.6776400804519653 0.26539239287376404 0.4674440920352936
0.736011803150177 0.3175671398639679 0.3961097300052643
0.8219239711761475 0.19626635313034058 0.3905656635761261
0.7046104073524475 0.34977129101753235 0.3780699074268341
0.7110409140586853 0.26694542169570923 0.4467158317565918
0.7597747445106506 0.20921123027801514 0.5254697799682617
0.7027294039726257 0.31086334586143494 0.457248717546463
0.7324045300483704 0.2917896807193756 0.473908394575119
0.6907141804695129 0.29319918155670166 0.5451473593711853
0.6965392827987671 0.3530987501144409 0.5004896521568298
0.679315447807312 0.34375816583633423 0.44327521324157715
0.8170870542526245 0.23986376821994781 0.416616827249527
0.7655917406082153 0.2899889051914215 0.376546174287796
0.7808996438980103 0.22640608251094818 0.49789193272590637
0.8252124786376953 0.31588271260261536 0.43296560645103455
0.690764844417572 0.24594783782958984 0.4356721043586731
0.6785160899162292 0.1852262169122696 0.4494462311267853
0.7713624835014343 0.16422788798809052 0.42882776260375977
0.7990792393684387 0.2986147105693817 0.4495988190174103
0.6653497219085693 0.28251513838768005 0.4979732632637024
0.7982405424118042 0.33477023243904114 0.41561469435691833
0.7046769261360168 0.3085034191608429 0.4158434271812439
0.7633090615272522 0.22181996703147888 0.5399667024612427
0.689236581325531 0.26251381635665894 0.5444511771202087
0.8075876235961914 0.33495262265205383 0.5055875182151794
0.8373051285743713 0.15986911952495575 0.46351122856140137
0.7672635316848755 0.2826370596885681 0.5553733706474304
0.836219310760498 0.28282099962234497 0.43801555037498474
0.8479654788970947 0.17893192172050476 0.45417922735214233
0.6877679228782654 0.25411850214004517 0.4842948317527771
0.753655731678009 0.2643377482891083 0.38455432653427124
0.7989685535430908 0.1653151661157608 0.4963778555393219
0.7541978359222412 0.20116162300109863 0.5005182027816772
0.7899717092514038 0.2035832554101944 0.503132700920105
0.8176014423370361 0.16289734840393066 0.44724538922309875
0.7889847755432129 0.19891227781772614 0.47763144969940186
0.821121871471405 0.2053382247686386 0.4309813380241394
0.7520162463188171 0.16010311245918274 0.40612292289733887
0.789706826210022 0.3108822703361511 0.394158273935318
0.8039689660072327 0.17368608713150024 0.4577309787273407
0.6926767826080322 0.33439508080482483 0.3985506594181061
0.7357075214385986 0.285950243473053 0.5193090438842773
0.8450459241867065 0.26960691809654236 0.5087134838104248
0.7875692248344421 0.33787620067596436 0.4650036096572876
0.6853748559951782 0.27015823125839233 0.527349591255188
0.6792647242546082 0.3034801781177521 0.4801589548587799
0.728914201259613 0.33165353536605835 0.45686379075050354
0.7824265360832214 0.17014192044734955 0.5320948958396912
0.7411878108978271 0.16119585931301117 0.3849518895149231
0.6857455968856812 0.22001521289348602 0.42359137535095215
0.8029335141181946 0.3003208041191101 0.44223466515541077
0.7791383862495422 0.1941976100206375 0.4045954942703247
0.8137597441673279 0.29329997301101685 0.3998933732509613
0.7590559720993042 0.2708120048046112 0.5439099669456482
0.7227699756622314 0.1807727813720703 0.48521196842193604
0.6766093969345093 0.18498392403125763 0.3775880038738251
0.7479103207588196 0.2106882631778717 0.5383002161979675
0.7977898120880127 0.32262587547302246 0.5150535106658936
0.7029683589935303 0.20959028601646423 0.48530974984169006
0.837599515914917 0.3175765573978424 0.41535279154777527
0.8049870133399963 0.2570168673992157 0.4197755455970764
0.7918110489845276 0.21159617602825165 0.41124045848846436
0.8434494137763977 0.3119741380214691 0.376863956451416
0.8243612051010132 0.26699987053871155 0.5375592708587646
0.7089018821716309 0.24960795044898987 0.3753054141998291
0.674700140953064 0.2479603886604309 0.43021905422210693
0.7439201474189758 0.17249614000320435 0.3937544822692871
0.6696241497993469 0.3124169707298279 0.5361891984939575
0.7734583616256714 0.23619985580444336 0.4476800560951233
0.6883363127708435 0.18712271749973297 0.4916916787624359
0.740515410900116 0.19337110221385956 0.5605654716491699
0.7188903093338013 0.2321033775806427 0.4817091226577759
0.8524409532546997 0.2864645719528198 0.47597813606262207
0.6848459839820862 0.332836389541626 0.34458330273628235
0.8015945553779602 0.285415381193161 0.5517488718032837
0.6799315214157104 0.2731882333755493 0.44910141825675964
0.6990587115287781 0.2743448317050934 0.4491601288318634
0.7651866674423218 0.3070949912071228 0.39979320764541626
0.8077800273895264 0.22529232501983643 0.4320972263813019
0.7065679430961609 0.21646511554718018 0.4552367031574249
0.702387273311615 0.24569804966449738 0.4079087972640991
0.8181215524673462 0.3299218416213989 0.5138356685638428
0.8657334446907043 0.2972266376018524 0.38850924372673035
0.8606423735618591 0.22342894971370697 0.3911159634590149
0.6971650719642639 0.2458915263414383 0.5176596641540527
0.7215233445167542 0.19594407081604004 0.5264929533004761
0.7545865774154663 0.3429274260997772 0.3980725407600403
0.7040555477142334 0.3186492323875427 0.36251384019851685
0.7679387927055359 0.1832219362258911 0.5429708361625671
0.6741198301315308 0.2646121680736542 0.4158232510089874
0.8076843023300171 0.3195406496524811 0.49278724193573
0.7968971729278564 0.29691705107688904 0.5472545623779297
0.7563085556030273 0.34774208068847656 0.4844156503677368
0.7479661107063293 0.22596141695976257 0.4929857850074768
0.8146867752075195 0.2369900792837143 0.5517961382865906
0.8322224020957947 0.2945484519004822 0.46670809388160706
0.7370467185974121 0.33297449350357056 0.3520166277885437
0.8356000185012817 0.2839387357234955 0.42649221420288086
0.7267031669616699 0.22915934026241302 0.53037029504776
0.7064750790596008 0.22440001368522644 0.370110422372818
0.8490052819252014 0.32227104902267456 0.36489203572273254
0.6743502616882324 0.2127508968114853 0.5175752639770508
0.7734583616256714 0.23619985580444336 0.4476800560951233
0.6883363127708435 0.18712271749973297 0.4916916787624359
0.740515410900116 0.19337110221385956 0.5605654716491699
0.7188903093338013 0.2321033775806427 0.4817091226577759
0.8524409532546997 0.2864645719528198 0.47597813606262207
0.7183312177658081 0.3013423979282379 0.41457080841064453
0.7695983648300171 0.21457402408123016 0.39651623368263245
0.7558027505874634 0.3357389569282532 0.5101584792137146
0.7539583444595337 0.22816382348537445 0.43861472606658936
0.6668001413345337 0.33006036281585693 0.4622909128665924
0.7093099355697632 0.24480986595153809 0.5407778024673462
0.7959566116333008 0.3396080732345581 0.4022424817085266
0.8162074089050293 0.35702967643737793 0.5273256301879883
0.7215011119842529 0.33696436882019043 0.44826576113700867
0.6945765018463135 0.20867666602134705 0.47775185108184814
0.814219057559967 0.3161454200744629 0.4022071957588196
0.6918365955352783 0.21226242184638977 0.5334951281547546
0.6816840171813965 0.18376639485359192 0.5149710774421692
0.6890832185745239 0.36393919587135315 0.4635993242263794
0.8498846292495728 0.17701777815818787 0.4072374999523163
0.810054361820221 0.2508297860622406 0.3982939124107361
0.7907768487930298 0.3740590512752533 0.5324108600616455
0.8231649994850159 0.28805065155029297 0.444950133562088
0.8146867752075195 0.2369900792837143 0.5517961382865906
0.8322224020957947 0.2945484519004822 0.46670809388160706
0.7370467185974121 0.33297449350357056 0.3520166277885437
0.8082837462425232 0.30715566873550415 0.36325088143348694
0.6776400804519653 0.26539239287376404 0.4674440920352936
0.736011803150177 0.3175671398639679 0.3961097300052643
0.8219239711761475 0.19626635313034058 0.3905656635761261
0.8267582058906555 0.20434869825839996 0.5327426195144653
0.8161858320236206 0.24488428235054016 0.5313459634780884
0.7215515375137329 0.2425750195980072 0.3646627366542816
0.8319815397262573 0.25199437141418457 0.48591938614845276
0.6946173906326294 0.21603870391845703 0.503687858581543
0.8138383030891418 0.3021412193775177 0.48738497495651245
0.7342132329940796 0.2723076343536377 0.41548341512680054
0.7558027505874634 0.3357389569282532 0.5101584792137146
0.7539583444595337 0.22816382348537445 0.43861472606658936
0.7058535814285278 0.2869437634944916 0.5251995921134949
0.6629508137702942 0.20261408388614655 0.47672444581985474
0.8076555132865906 0.315448522567749 0.44201821088790894
0.8388031125068665 0.31632763147354126 0.5079601407051086
0.7508101463317871 0.3720308542251587 0.5053176283836365
0.6679672002792358 0.21027660369873047 0.49428266286849976
0.7974914908409119 0.30606532096862793 0.43461599946022034
0.7018469572067261 0.1938953995704651 0.5686937570571899
0.6779332756996155 0.24882017076015472 0.5256674885749817
0.8053881525993347 0.2410401552915573 0.47236204147338867
0.7348300218582153 0.31267648935317993 0.3419143855571747
0.8266485929489136 0.22482629120349884 0.5633477568626404
0.8348661065101624 0.3452760875225067 0.4270477294921875
0.7963249087333679 0.2941780090332031 0.45890870690345764
0.7812116146087646 0.23373004794120789 0.4094807207584381
0.8418011665344238 0.23264385759830475 0.3813767433166504
0.6696241497993469 0.3124169707298279 0.5361891984939575
0.8524409532546997 0.2864645719528198 0.47597813606262207
0.7183312177658081 0.3013423979282379 0.41457080841064453
0.7695983648300171 0.21457402408123016 0.39651623368263245
0.7558027505874634 0.3357389569282532 0.5101584792137146
0.7539583444595337 0.22816382348537445 0.43861472606658936
0.6668001413345337 0.33006036281585693 0.4622909128665924
0.7093099355697632 0.24480986595153809 0.5407778024673462
0.7959566116333008 0.3396080732345581 0.4022424817085266
0.8162074089050293 0.35702967643737793 0.5273256301879883
0.7215011119842529 0.33696436882019043 0.44826576113700867
0.6945765018463135 0.20867666602134705 0.47775185108184814
0.814219057559967 0.3161454200744629 0.4022071957588196
0.6918365955352783 0.21226242184638977 0.5334951281547546
0.6816840171813965 0.18376639485359192 0.5149710774421692
0.6890832185745239 0.36393919587135315 0.4635993242263794
0.8498846292495728 0.17701777815818787 0.4072374999523163
0.810054361820221 0.2508297860622406 0.3982939124107361
0.7907768487930298 0.3740590512752533 0.5324108600616455
0.8231649994850159 0.28805065155029297 0.444950133562088
0.7304103374481201 0.288362056016922 0.354135662317276
0.6961787343025208 0.27994027733802795 0.442736953496933
0.778780460357666 0.3323671221733093 0.3461436331272125
0.7227720022201538 0.20724011957645416 0.5282372832298279
0.7780376672744751 0.16891881823539734 0.479938805103302
0.7095654606819153 0.23260658979415894 0.4666995108127594
0.7984975576400757 0.2916337847709656 0.5017202496528625
0.6994877457618713 0.29493606090545654 0.5290316939353943
0.679884135723114 0.2531454563140869 0.4291892349720001
0.7599273324012756 0.2935681641101837 0.4685463309288025
0.7906813025474548 0.27604401111602783 0.37432876229286194
0.761522650718689 0.22776807844638824 0.45582184195518494
0.7433236837387085 0.24431098997592926 0.5026377439498901
0.8124141097068787 0.30641958117485046 0.3787563443183899
0.8061537742614746 0.3038600981235504 0.49737656116485596
0.8394617438316345 0.28549689054489136 0.4697932004928589
0.7195324897766113 0.2164200246334076 0.49187564849853516
0.7188289165496826 0.3684593439102173 0.45579949021339417
0.6968706846237183 0.26172181963920593 0.428366094827652
0.7134210467338562 0.24063529074192047 0.46061745285987854
0.7152301669120789 0.22164203226566315 0.43625736236572266
0.6655396819114685 0.2382185459136963 0.4941823184490204
0.7463648915290833 0.28204232454299927 0.4593620002269745
0.8300720453262329 0.3372020721435547 0.5240456461906433
0.675834059715271 0.27586549520492554 0.4502071142196655
0.6795386075973511 0.31669163703918457 0.35783839225769043
0.6899442672729492 0.24915945529937744 0.5503593683242798
0.7808313965797424 0.1959468424320221 0.4257960915565491
0.7287979125976562 0.3604277968406677 0.43518659472465515
0.693984866142273 0.16812454164028168 0.43355655670166016
0.8005664348602295 0.2375030517578125 0.4024104177951813
0.8401538729667664 0.15093183517456055 0.44154226779937744
0.8496449589729309 0.2905099093914032 0.4009949266910553
0.7691090703010559 0.2682307958602905 0.44875994324684143
0.7546468377113342 0.2994658350944519 0.3830808699131012
0.8081404566764832 0.2235793173313141 0.4468056857585907
0.8007688522338867 0.19957582652568817 0.5268241167068481
0.7199137210845947 0.24045880138874054 0.37003353238105774
0.7550875544548035 0.3318333327770233 0.4236465096473694
0.7062338590621948 0.16720804572105408 0.42462456226348877
0.7302378416061401 0.3316560685634613 0.39073309302330017
0.8032017350196838 0.2844025492668152 0.4315095841884613
0.7072675228118896 0.2304501086473465 0.5357945561408997
0.7445361614227295 0.26169583201408386 0.4237549901008606
0.8022281527519226 0.3270500898361206 0.38712647557258606
0.8096339702606201 0.15716961026191711 0.3938525319099426
0.8229791522026062 0.2254246473312378 0.563395082950592
0.7211219668388367 0.3407018184661865 0.36603423953056335
0.7182596921920776 0.22866655886173248 0.4745846390724182
0.7706050872802734 0.26977285742759705 0.5393470525741577
0.7573975324630737 0.27375712990760803 0.48410531878471375
0.6651670336723328 0.22533008456230164 0.41761013865470886
0.6843511462211609 0.23757679760456085 0.45632204413414
0.8175190687179565 0.24885964393615723 0.4444809556007385
0.836219310760498 0.28282099962234497 0.43801555037498474
0.8479654788970947 0.17893192172050476 0.45417922735214233
0.6754966378211975 0.2118673324584961 0.40266168117523193
0.7183261513710022 0.3347793519496918 0.353890597820282
0.7353165149688721 0.25465551018714905 0.5574097037315369
0.8112775087356567 0.2890492081642151 0.4431452453136444
0.7174644470214844 0.37292394042015076 0.49130314588546753
0.8132314085960388 0.15249621868133545 0.43308427929878235
0.793676495552063 0.33403149247169495 0.3682842254638672
0.7786992192268372 0.3260872960090637 0.38921576738357544
0.8103694319725037 0.1621725857257843 0.45126640796661377
0.7153537273406982 0.3554053008556366 0.4639982283115387
0.7430099844932556 0.2819075584411621 0.36208122968673706
0.7065327763557434 0.18448962271213531 0.5429547429084778
0.7949652671813965 0.24870269000530243 0.47028303146362305
0.7070236802101135 0.16982495784759521 0.38159167766571045
0.8133524656295776 0.2617529332637787 0.5264645218849182
0.810338020324707 0.2147914469242096 0.5552667379379272
0.8343347907066345 0.2963394522666931 0.4672962427139282
0.7702891826629639 0.3072851002216339 0.46522313356399536
0.7058327198028564 0.2699788212776184 0.35294297337532043
0.7912826538085938 0.28732070326805115 0.5112362504005432
0.7725485563278198 0.2740727365016937 0.39628374576568604
0.8206132650375366 0.23320426046848297 0.38497328758239746
0.7780179977416992 0.3540905714035034 0.48661357164382935
0.6777282953262329 0.2526388466358185 0.3897373676300049
0.837319552898407 0.2600558400154114 0.45653119683265686
0.8235897421836853 0.27353501319885254 0.5526763200759888
0.8600056171417236 0.30059197545051575 0.3598046898841858
0.696414589881897 0.2900272309780121 0.47704869508743286
0.8449349999427795 0.23728995025157928 0.4224039912223816
0.6906789541244507 0.3009756803512573 0.5389593243598938
0.8270136117935181 0.2784119248390198 0.5359379649162292
0.7342104315757751 0.2929688096046448 0.3930051326751709
0.716300368309021 0.2535244822502136 0.5141729712486267
0.8330870270729065 0.17435646057128906 0.48852303624153137
0.8169722557067871 0.2899799644947052 0.45418867468833923
0.6865611672401428 0.34360483288764954 0.48207181692123413
0.702505350112915 0.3487444818019867 0.4412340223789215
0.7879565954208374 0.270571231842041 0.4686221778392792
0.8131085634231567 0.18257422745227814 0.4274558126926422
0.7602541446685791 0.2982481122016907 0.480062872171402
0.7911711931228638 0.26668214797973633 0.37296056747436523
0.7464547157287598 0.23176462948322296 0.48635637760162354
0.8617147207260132 0.24531583487987518 0.38808614015579224
0.7581140398979187 0.17888514697551727 0.512596607208252
0.8170114159584045 0.22400692105293274 0.5074324011802673
0.7299264669418335 0.3155193030834198 0.4678162634372711
0.6600532531738281 0.21495969593524933 0.46531304717063904
0.8136143684387207 0.29691454768180847 0.35642731189727783
0.725205659866333 0.27955740690231323 0.538682222366333
0.7998964786529541 0.1735546737909317 0.5200331807136536
0.6688867211341858 0.21193300187587738 0.46388450264930725
0.7136189341545105 0.30432045459747314 0.3756140470504761
0.836219310760498 0.28282099962234497 0.43801555037498474
0.7233172655105591 0.23302853107452393 0.4735843539237976
0.8081183433532715 0.2171454280614853 0.392448365688324
0.6998487710952759 0.36299216747283936 0.4648206830024719
0.7558210492134094 0.15589255094528198 0.4475643038749695
0.665300190448761 0.21494412422180176 0.4197681248188019
0.7535749077796936 0.32697805762290955 0.5271318554878235
0.8555927872657776 0.2058919221162796 0.39159926772117615
0.7052625417709351 0.37845343351364136 0.5023511052131653
0.6953048706054688 0.29349321126937866 0.3789529502391815
0.813142716884613 0.2569725513458252 0.5255794525146484
0.6908803582191467 0.1891738325357437 0.40375036001205444
0.7883884906768799 0.33628448843955994 0.4553462862968445
0.7883884906768799 0.33628448843955994 0.4553462862968445
0.7742596864700317 0.3358100354671478 0.5153892636299133
0.8455665707588196 0.24373407661914825 0.42412498593330383
0.7801337242126465 0.24137097597122192 0.3853188157081604
0.6841185092926025 0.19748714566230774 0.4831441640853882
0.761347770690918 0.1910557597875595 0.48105940222740173
0.6950094103813171 0.19840815663337708 0.5102153420448303
0.664288341999054 0.22612619400024414 0.393873929977417
0.8474006056785583 0.22089026868343353 0.4207893908023834
0.6934624314308167 0.3586159348487854 0.40621218085289
0.820537805557251 0.3390125632286072 0.4452565014362335
0.7058983445167542 0.24065381288528442 0.5468308329582214
0.6981463432312012 0.3495326042175293 0.48030349612236023
0.7271873950958252 0.3342589735984802 0.3910883069038391
0.7620238065719604 0.2874881327152252 0.42878976464271545
0.8267729878425598 0.2923455238342285 0.48379358649253845
0.8254222273826599 0.3506487309932709 0.4896877706050873
0.7267714142799377 0.25957581400871277 0.4168802499771118
0.8140799403190613 0.25963637232780457 0.5663467645645142
0.8418011665344238 0.23264385759830475 0.3813767433166504
0.8555927872657776 0.2058919221162796 0.39159926772117615
0.7052625417709351 0.37845343351364136 0.5023511052131653
0.6953048706054688 0.29349321126937866 0.3789529502391815
0.813142716884613 0.2569725513458252 0.5255794525146484
0.6908803582191467 0.1891738325357437 0.40375036001205444
0.7883884906768799 0.33628448843955994 0.4553462862968445
0.84648597240448 0.29602134227752686 0.5083470344543457
0.7658773064613342 0.24524249136447906 0.4930344223976135
0.7967557907104492 0.339967280626297 0.482050359249115
0.723823070526123 0.30882003903388977 0.42114949226379395
0.7516547441482544 0.3051161766052246 0.5418623089790344
0.7892505526542664 0.20133522152900696 0.5061306953430176
0.8096328377723694 0.2638404667377472 0.48700860142707825
0.6622587442398071 0.2038852572441101 0.5134621858596802
0.8267729878425598 0.2923455238342285 0.48379358649253845
0.8254222273826599 0.3506487309932709 0.4896877706050873
0.7261106371879578 0.2747268080711365 0.41538289189338684
0.8206132650375366 0.23320426046848297 0.38497328758239746
0.7780179977416992 0.3540905714035034 0.48661357164382935
0.6777282953262329 0.2526388466358185 0.3897373676300049
0.837319552898407 0.2600558400154114 0.45653119683265686
0.8235897421836853 0.27353501319885254 0.5526763200759888
0.8600056171417236 0.30059197545051575 0.3598046898841858
0.696414589881897 0.2900272309780121 0.47704869508743286
0.8449349999427795 0.23728995025157928 0.4224039912223816
0.6906789541244507 0.3009756803512573 0.5389593243598938
0.8270136117935181 0.2784119248390198 0.5359379649162292
0.7342104315757751 0.2929688096046448 0.3930051326751709
0.716300368309021 0.2535244822502136 0.5141729712486267
0.8330870270729065 0.17435646057128906 0.48852303624153137
0.8169722557067871 0.2899799644947052 0.45418867468833923
0.6850362420082092 0.18822672963142395 0.42930126190185547
0.810338020324707 0.2147914469242096 0.5552667379379272
0.8343347907066345 0.2963394522666931 0.4672962427139282
0.7702891826629639 0.3072851002216339 0.46522313356399536
0.7058327198028564 0.2699788212776184 0.35294297337532043
0.73723965883255 0.18715780973434448 0.5003523230552673
0.806230366230011 0.3011583387851715 0.43753814697265625
0.7478340864181519 0.24301142990589142 0.40337470173835754
0.6778492331504822 0.20745398104190826 0.4207818806171417
0.6860461831092834 0.3023544251918793 0.5021641254425049
0.6728032231330872 0.1787717044353485 0.48344743251800537
0.6711920499801636 0.24664188921451569 0.44300371408462524
0.8234930038452148 0.255744993686676 0.47248557209968567
0.8155871033668518 0.20619313418865204 0.40638482570648193
0.8540248274803162 0.23137527704238892 0.4479168653488159
0.6627495288848877 0.24435743689537048 0.5113582015037537
0.7254558205604553 0.2432888299226761 0.3887660503387451
0.684246301651001 0.22435665130615234 0.49877044558525085
0.7044161558151245 0.24408960342407227 0.521339476108551
0.7458139657974243 0.23773308098316193 0.40565890073776245
0.7080628275871277 0.3572547733783722 0.48892682790756226
0.6828871965408325 0.22387787699699402 0.39853498339653015
0.8346276879310608 0.20077607035636902 0.5384466648101807
0.6738378405570984 0.3484290540218353 0.5269092917442322
0.8130375742912292 0.17208898067474365 0.5579021573066711
0.8532047271728516 0.2050175666809082 0.436376690864563
0.7314327359199524 0.2596423625946045 0.4652893841266632
0.7099077701568604 0.3310614824295044 0.37386590242385864
0.7221208214759827 0.28322359919548035 0.5517425537109375
0.7019321918487549 0.2330787479877472 0.5329837799072266
0.6971613168716431 0.2065615952014923 0.3955237865447998
0.8547218441963196 0.2435779571533203 0.47255244851112366
0.8498846292495728 0.17701777815818787 0.4072374999523163
0.7233172655105591 0.23302853107452393 0.4735843539237976
0.8081183433532715 0.2171454280614853 0.392448365688324
0.7043967247009277 0.3522472381591797 0.47420138120651245
0.7525748014450073 0.16564121842384338 0.4074240028858185
0.7535749077796936 0.32697805762290955 0.5271318554878235
0.8555927872657776 0.2058919221162796 0.39159926772117615
0.7052625417709351 0.37845343351364136 0.5023511052131653
0.8331171870231628 0.26108062267303467 0.5498272776603699
0.6551568508148193 0.19071120023727417 0.5101001262664795
0.6665908098220825 0.33919385075569153 0.524117648601532
0.6958176493644714 0.2770559787750244 0.40005308389663696
0.7467194199562073 0.2636649012565613 0.37978243827819824
0.6899363994598389 0.34052005410194397 0.37834540009498596
0.6950094103813171 0.19840815663337708 0.5102153420448303
0.7401737570762634 0.2894558310508728 0.5327130556106567
0.6964814066886902 0.22544144093990326 0.5047726035118103
0.8096328377723694 0.2638404667377472 0.48700860142707825
0.6622587442398071 0.2038852572441101 0.5134621858596802
0.8267729878425598 0.2923455238342285 0.48379358649253845
0.8254222273826599 0.3506487309932709 0.4896877706050873
0.7261106371879578 0.2747268080711365 0.41538289189338684
0.8206132650375366 0.23320426046848297 0.38497328758239746
0.7780179977416992 0.3540905714035034 0.48661357164382935
0.6777282953262329 0.2526388466358185 0.3897373676300049
0.837319552898407 0.2600558400154114 0.45653119683265686
0.8235897421836853 0.27353501319885254 0.5526763200759888
0.8600056171417236 0.30059197545051575 0.3598046898841858
0.7293448448181152 0.3596775233745575 0.5033227801322937
0.7717882394790649 0.33525121212005615 0.534109354019165
0.8371509313583374 0.31598109006881714 0.37617233395576477
0.7710350751876831 0.21218055486679077 0.5092642903327942
0.8300720453262329 0.3372020721435547 0.5240456461906433
0.8330870270729065 0.17435646057128906 0.48852303624153137
0.8169722557067871 0.2899799644947052 0.45418867468833923
0.7342104315757751 0.2929688096046448 0.3930051326751709
0.716300368309021 0.2535244822502136 0.5141729712486267
0.8330870270729065 0.17435646057128906 0.48852303624153137
0.716300368309021 0.2535244822502136 0.5141729712486267
0.8330870270729065 0.17435646057128906 0.48852303624153137
0.8169722557067871 0.2899799644947052 0.45418867468833923
0.8169722557067871 0.2899799644947052 0.45418867468833923
0.6865611672401428 0.34360483288764954 0.48207181692123413
0.702505350112915 0.3487444818019867 0.4412340223789215
0.7879565954208374 0.270571231842041 0.4686221778392792
0.7879565954208374 0.270571231842041 0.4686221778392792
0.8131085634231567 0.18257422745227814 0.4274558126926422
0.7602541446685791 0.2982481122016907 0.480062872171402
0.7299264669418335 0.3155193030834198 0.4678162634372711
0.6600532531738281 0.21495969593524933 0.46531304717063904
0.8253633975982666 0.20176082849502563 0.4042320251464844
0.834536075592041 0.30064520239830017 0.48860296607017517
0.7738701701164246 0.14733321964740753 0.43056318163871765
0.8501193523406982 0.3332692086696625 0.5021365284919739
0.7208511829376221 0.34971916675567627 0.48692670464515686
0.8292177319526672 0.29647693037986755 0.41906532645225525
0.680436372756958 0.3081315755844116 0.3921382427215576
0.7590371966362 0.1758003681898117 0.4774516522884369
0.8371560573577881 0.159805566072464 0.404404878616333
0.8153064846992493 0.16257545351982117 0.43208765983581543
0.7876671552658081 0.17499203979969025 0.49292346835136414
0.8509956002235413 0.2465907335281372 0.47297295928001404
0.7977777123451233 0.2737885117530823 0.4313945770263672
0.7076196670532227 0.3049614131450653 0.5100265741348267
0.7795178294181824 0.3260478079319 0.38161447644233704
0.7879565954208374 0.270571231842041 0.4686221778392792
0.8131085634231567 0.18257422745227814 0.4274558126926422
0.7602541446685791 0.2982481122016907 0.480062872171402
0.7911711931228638 0.26668214797973633 0.37296056747436523
0.7464547157287598 0.23176462948322296 0.48635637760162354
0.8617147207260132 0.24531583487987518 0.38808614015579224
0.7581140398979187 0.17888514697551727 0.512596607208252
0.8170114159584045 0.22400692105293274 0.5074324011802673
0.7299264669418335 0.3155193030834198 0.4678162634372711
0.6600532531738281 0.21495969593524933 0.46531304717063904
0.8136143684387207 0.29691454768180847 0.35642731189727783
0.725205659866333 0.27955740690231323 0.538682222366333
0.7998964786529541 0.1735546737909317 0.5200331807136536
0.6688867211341858 0.21193300187587738 0.46388450264930725
0.7136189341545105 0.30432045459747314 0.3756140470504761
0.7051466703414917 0.21004918217658997 0.41880062222480774
0.8094881176948547 0.18769745528697968 0.5642379522323608
0.7977777123451233 0.2737885117530823 0.4313945770263672
0.7076196670532227 0.3049614131450653 0.5100265741348267
0.8422607183456421 0.21166694164276123 0.42066124081611633
0.7370783090591431 0.2226497381925583 0.549237847328186
0.8408858776092529 0.3382504880428314 0.42138004302978516
0.7505261301994324 0.3300437331199646 0.38365259766578674
0.7777712345123291 0.21052095293998718 0.4302452504634857
0.861183762550354 0.32802826166152954 0.4687515199184418
0.8172985911369324 0.23091068863868713 0.41208943724632263
0.7451386451721191 0.1964622139930725 0.48117154836654663
0.7137641906738281 0.27655741572380066 0.39048463106155396
0.6936084032058716 0.2467091679573059 0.5143792033195496
0.6788465976715088 0.2846067547798157 0.5090047717094421
0.6787444353103638 0.377561092376709 0.4936577379703522
0.7816225290298462 0.25948888063430786 0.4313659071922302
0.7204497456550598 0.19498306512832642 0.5284616351127625
0.7291181683540344 0.3249726891517639 0.4770042300224304
0.7879565954208374 0.270571231842041 0.4686221778392792
0.8131085634231567 0.18257422745227814 0.4274558126926422
0.7602541446685791 0.2982481122016907 0.480062872171402
0.7911711931228638 0.26668214797973633 0.37296056747436523
0.7464547157287598 0.23176462948322296 0.48635637760162354
0.8617147207260132 0.24531583487987518 0.38808614015579224
0.7581140398979187 0.17888514697551727 0.512596607208252
0.8170114159584045 0.22400692105293274 0.5074324011802673
0.7379628419876099 0.2946690022945404 0.3801901042461395
0.754616916179657 0.21151301264762878 0.4786053001880646
0.6931964159011841 0.3497028350830078 0.470688134431839
0.6694686412811279 0.24262461066246033 0.39136770367622375
0.8265349268913269 0.28941893577575684 0.4587567150592804
0.6802895665168762 0.36154183745384216 0.42647552490234375
0.6922679543495178 0.1973026543855667 0.38689056038856506
0.7952025532722473 0.355368435382843 0.4821374714374542
0.6874217391014099 0.3291081488132477 0.3764260411262512
0.7716629505157471 0.29871147871017456 0.4746956527233124
0.6705236434936523 0.2305814027786255 0.3605008125305176
0.8655163049697876 0.342144638299942 0.48354679346084595
0.6865151524543762 0.3067161738872528 0.5410029292106628
0.7887259721755981 0.33716070652008057 0.37291380763053894
0.6595501899719238 0.21145711839199066 0.5443373918533325
0.7474030256271362 0.2035520374774933 0.5627714395523071
0.7532926201820374 0.3301176130771637 0.48147204518318176
0.6834797263145447 0.2922389507293701 0.3825439512729645
0.7562228441238403 0.22763414680957794 0.5314807891845703
0.7012635469436646 0.23718775808811188 0.4791569709777832
0.7615063786506653 0.23282082378864288 0.4439014494419098
0.8446125984191895 0.3302038013935089 0.429817795753479
0.7590008974075317 0.22224615514278412 0.49848318099975586
0.6646820306777954 0.18665337562561035 0.43416380882263184
0.8090930581092834 0.2090938538312912 0.4128424823284149
0.7628980875015259 0.16560979187488556 0.43186989426612854
0.8466015458106995 0.20841430127620697 0.47381287813186646
0.7553364634513855 0.2718205153942108 0.4981594979763031
0.7398743033409119 0.295665442943573 0.48182472586631775
0.6932948231697083 0.3182149827480316 0.5279713869094849
0.8342138528823853 0.20316721498966217 0.42778682708740234
0.7146010994911194 0.3010854423046112 0.5064744353294373
0.7583417892456055 0.2830043435096741 0.5459253787994385
0.6667590141296387 0.18169036507606506 0.3710143566131592
0.8349919319152832 0.2179611623287201 0.5340099334716797
0.8313217759132385 0.3058720827102661 0.3969816565513611
0.70308518409729 0.19058452546596527 0.5493428111076355
0.8132025599479675 0.2540495991706848 0.40449491143226624
0.8029813766479492 0.22250312566757202 0.4109652638435364
0.7968885898590088 0.2129780501127243 0.5615166425704956
0.6911079287528992 0.3429831564426422 0.3508056104183197
0.8089011907577515 0.29516321420669556 0.49216535687446594
0.7533162236213684 0.2397623360157013 0.4166804552078247
0.7056974768638611 0.30911603569984436 0.495352178812027
0.7914097309112549 0.31795355677604675 0.36697375774383545
0.8142133355140686 0.30465108156204224 0.3913189470767975
0.6845526695251465 0.17231374979019165 0.45148149132728577
0.6774528622627258 0.18377356231212616 0.45196112990379333
0.7678656578063965 0.24906323850154877 0.3779717683792114
0.8267111778259277 0.29836305975914 0.4989655017852783
0.8120209574699402 0.28631848096847534 0.4521673321723938
0.810338020324707 0.2147914469242096 0.5552667379379272
0.8343347907066345 0.2963394522666931 0.4672962427139282
0.7072675228118896 0.2304501086473465 0.5357945561408997
0.716300368309021 0.2535244822502136 0.5141729712486267
0.8330870270729065 0.17435646057128906 0.48852303624153137
0.8169722557067871 0.2899799644947052 0.45418867468833923
0.6865611672401428 0.34360483288764954 0.48207181692123413
0.702505350112915 0.3487444818019867 0.4412340223789215
0.7879565954208374 0.270571231842041 0.4686221778392792
0.8131085634231567 0.18257422745227814 0.4274558126926422
0.7602541446685791 0.2982481122016907 0.480062872171402
0.7911711931228638 0.26668214797973633 0.37296056747436523
0.7464547157287598 0.23176462948322296 0.48635637760162354
0.8617147207260132 0.24531583487987518 0.38808614015579224
0.7581140398979187 0.17888514697551727 0.512596607208252
0.8170114159584045 0.22400692105293274 0.5074324011802673
0.7299264669418335 0.3155193030834198 0.4678162634372711
0.6600532531738281 0.21495969593524933 0.46531304717063904
0.8136143684387207 0.29691454768180847 0.35642731189727783
0.725205659866333 0.27955740690231323 0.538682222366333
0.7998964786529541 0.1735546737909317 0.5200331807136536
0.6688867211341858 0.21193300187587738 0.46388450264930725
0.7136189341545105 0.30432045459747314 0.3756140470504761
0.7051466703414917 0.21004918217658997 0.41880062222480774
0.8094881176948547 0.18769745528697968 0.5642379522323608
0.7977777123451233 0.2737885117530823 0.4313945770263672
0.7076196670532227 0.3049614131450653 0.5100265741348267
0.8422607183456421 0.21166694164276123 0.42066124081611633
0.7370783090591431 0.2226497381925583 0.549237847328186
0.8408858776092529 0.3382504880428314 0.42138004302978516
0.7505261301994324 0.3300437331199646 0.38365259766578674
0.7777712345123291 0.21052095293998718 0.4302452504634857
0.8581423759460449 0.20738424360752106 0.39972710609436035
0.7068467736244202 0.16338865458965302 0.4138445556163788
0.7078038454055786 0.3404158055782318 0.3891363739967346
0.7807091474533081 0.20290838181972504 0.5551254749298096
0.8376508951187134 0.21947303414344788 0.38588425517082214
0.8198769092559814 0.2240189015865326 0.3988330066204071
0.7064271569252014 0.3177720010280609 0.40519189834594727
0.6931696534156799 0.16824029386043549 0.4144599437713623
0.7195305228233337 0.31529945135116577 0.3844185471534729
0.8540875315666199 0.3191068768501282 0.42829442024230957
0.8038786053657532 0.26368558406829834 0.4814988374710083
0.7831303477287292 0.32596415281295776 0.5280442833900452
0.7021364569664001 0.23460154235363007 0.36579006910324097
0.6670241951942444 0.15799865126609802 0.3863207697868347
0.810116171836853 0.24916325509548187 0.4192182123661041
0.829265296459198 0.19520045816898346 0.47595709562301636
0.8066871166229248 0.21718433499336243 0.4380831718444824
0.7461795210838318 0.20547375082969666 0.4547002613544464
0.7784482836723328 0.33861401677131653 0.5379052758216858
0.8349406123161316 0.13418172299861908 0.4031142592430115
0.7473015189170837 0.3169306218624115 0.5214129090309143
0.7710880637168884 0.3174744248390198 0.36859363317489624
0.810338020324707 0.2147914469242096 0.5552667379379272
0.8267729878425598 0.2923455238342285 0.48379358649253845
0.8254222273826599 0.3506487309932709 0.4896877706050873
0.7261106371879578 0.2747268080711365 0.41538289189338684
0.8206132650375366 0.23320426046848297 0.38497328758239746
0.7780179977416992 0.3540905714035034 0.48661357164382935
0.6777282953262329 0.2526388466358185 0.3897373676300049
0.837319552898407 0.2600558400154114 0.45653119683265686
0.8235897421836853 0.27353501319885254 0.5526763200759888
0.8600056171417236 0.30059197545051575 0.3598046898841858
0.696414589881897 0.2900272309780121 0.47704869508743286
0.8449349999427795 0.23728995025157928 0.4224039912223816
0.7058327198028564 0.2699788212776184 0.35294297337532043
0.8449349999427795 0.23728995025157928 0.4224039912223816
0.6906789541244507 0.3009756803512573 0.5389593243598938
0.8270136117935181 0.2784119248390198 0.5359379649162292
0.7342104315757751 0.2929688096046448 0.3930051326751709
0.716300368309021 0.2535244822502136 0.5141729712486267
0.8330870270729065 0.17435646057128906 0.48852303624153137
0.8169722557067871 0.2899799644947052 0.45418867468833923
0.6865611672401428 0.34360483288764954 0.48207181692123413
0.702505350112915 0.3487444818019867 0.4412340223789215
0.7879565954208374 0.270571231842041 0.4686221778392792
0.7571216225624084 0.2683188319206238 0.46646758913993835
0.8338464498519897 0.28941455483436584 0.48840510845184326
0.8168368339538574 0.34063848853111267 0.4799862205982208
0.8040570020675659 0.23484565317630768 0.5351150035858154
0.756509006023407 0.22746607661247253 0.4762096107006073
0.7596092820167542 0.27628305554389954 0.45010435581207275
0.7605161666870117 0.28520914912223816 0.5116897821426392
0.6691713929176331 0.2775939702987671 0.4399673342704773
0.7732320427894592 0.23018072545528412 0.48094654083251953
0.7883226275444031 0.32795897126197815 0.39552590250968933
0.7423043251037598 0.16792984306812286 0.4081396460533142
0.8219171762466431 0.219651997089386 0.5358478426933289
0.6922814249992371 0.17940476536750793 0.4123401641845703
0.7545650601387024 0.17375566065311432 0.4677553176879883
0.8339560627937317 0.17134705185890198 0.4114269018173218
0.6991375684738159 0.1697603017091751 0.41791725158691406
0.8110085725784302 0.35768118500709534 0.48126843571662903
