ply
format ascii 1.0
element vertex 821
property float x
property float y
property float z
end_header
0.2456590235233307 0.20790159702301025 0.5228859782218933
0.17390666902065277 0.13798174262046814 0.48936182260513306
0.11962419003248215 0.24585172533988953 0.46037954092025757
0.24051004648208618 0.13780415058135986 0.5756117701530457
0.1805378794670105 0.2758892774581909 0.45922139286994934
0.24279212951660156 0.13071519136428833 0.4843672811985016
0.16764549911022186 0.22786374390125275 0.6220533847808838
0.23628780245780945 0.2782663106918335 0.5374096632003784
0.29260891675949097 0.15508724749088287 0.5542503595352173
0.216528981924057 0.21599708497524261 0.4793228507041931
0.21097086369991302 0.1813701093196869 0.4496835172176361
0.24645861983299255 0.2815682291984558 0.48333242535591125
0.21998515725135803 0.176107719540596 0.45765334367752075
0.2571105659008026 0.29407167434692383 0.6257236003875732
0.12304389476776123 0.20638635754585266 0.5658546686172485
0.24684195220470428 0.151325061917305 0.5766081809997559
0.25697922706604004 0.2328212857246399 0.5286648869514465
0.227421835064888 0.255933940410614 0.5943908095359802
0.31172725558280945 0.13570880889892578 0.5569438934326172
0.1380380243062973 0.14079874753952026 0.5930135250091553
0.21307136118412018 0.12612535059452057 0.5652003884315491
0.21567898988723755 0.13387829065322876 0.5958082675933838
0.18613848090171814 0.23329991102218628 0.47926411032676697
0.15577179193496704 0.1514405906200409 0.5281568765640259
0.18850749731063843 0.24106758832931519 0.5887346863746643
0.20016548037528992 0.13560530543327332 0.536990225315094
0.19862493872642517 0.17932896316051483 0.4551367163658142
0.15612825751304626 0.21213847398757935 0.45140504837036133
0.28343644738197327 0.18750257790088654 0.5725218653678894
0.2268722802400589 0.27971071004867554 0.5724118947982788
0.20927532017230988 0.137704536318779 0.610172688961029
0.23075556755065918 0.15027198195457458 0.551749587059021
0.2236228734254837 0.14103306829929352 0.5457985401153564
0.11591177433729172 0.17051571607589722 0.5969747304916382
0.1906992644071579 0.18486015498638153 0.5094508528709412
0.21504756808280945 0.2660521864891052 0.49905911087989807
0.1650814563035965 0.2610875070095062 0.49218276143074036
0.28697603940963745 0.15579967200756073 0.5121873021125793
0.29811716079711914 0.18799521028995514 0.4730978012084961
0.2668950855731964 0.24232089519500732 0.5104916095733643
0.24812079966068268 0.22182805836200714 0.5659761428833008
0.22249284386634827 0.17436687648296356 0.4545387029647827
0.26852062344551086 0.3038347661495209 0.47925034165382385
0.11784079670906067 0.19871392846107483 0.48455342650413513
0.22911642491817474 0.2553592622280121 0.49195951223373413
0.2811965346336365 0.2699783146381378 0.48865726590156555
0.27136921882629395 0.13841240108013153 0.5396785140037537
0.16092360019683838 0.14081689715385437 0.5824359655380249
0.1770404577255249 0.19692392647266388 0.5230736136436462
0.16460728645324707 0.2670234739780426 0.5201934576034546
0.23453734815120697 0.15581616759300232 0.627630889415741
0.24856044352054596 0.20656371116638184 0.5680186152458191
0.21931831538677216 0.1745409518480301 0.6050956845283508
0.1351589411497116 0.10230745375156403 0.5434973239898682
0.1497943252325058 0.16742542386054993 0.5120499730110168
0.23828046023845673 0.2404855638742447 0.4551430642604828
0.18588711321353912 0.11701363325119019 0.48695671558380127
0.29157501459121704 0.16409623622894287 0.4943332076072693
0.2106536626815796 0.18350355327129364 0.5596380829811096
0.1763065755367279 0.21385040879249573 0.4815346598625183
0.29401907324790955 0.17549265921115875 0.5329152345657349
0.26835569739341736 0.19112324714660645 0.44745105504989624
0.15193264186382294 0.24529194831848145 0.4764452874660492
0.24809186160564423 0.12587854266166687 0.5130885243415833
0.27960026264190674 0.13671357929706573 0.4383032023906708
0.17848752439022064 0.23741796612739563 0.4510701298713684
0.29965972900390625 0.21381574869155884 0.6082521080970764
0.2533511519432068 0.24640609323978424 0.5617187023162842
0.23045291006565094 0.1626870483160019 0.5419824123382568
0.17564645409584045 0.2628726363182068 0.6273378133773804
0.1503552347421646 0.13607920706272125 0.46903008222579956
0.18906544148921967 0.28596359491348267 0.49189749360084534
0.3101993203163147 0.1746479719877243 0.48740869760513306
0.22627194225788116 0.2382269650697708 0.5720580816268921
0.1476527750492096 0.17397530376911163 0.45983412861824036
0.3060401380062103 0.1638936847448349 0.5868449211120605
0.29239344596862793 0.23741459846496582 0.5734307765960693
0.29483717679977417 0.12721587717533112 0.6109154224395752
0.19418957829475403 0.2468048483133316 0.5905316472053528
0.22940224409103394 0.10811469703912735 0.6197758913040161
0.15509139001369476 0.18325699865818024 0.5097718834877014
0.22021593153476715 0.15062153339385986 0.5523709058761597
0.28932222723960876 0.19245408475399017 0.5175965428352356
0.2052445262670517 0.2101924568414688 0.5730011463165283
0.11860103905200958 0.19992847740650177 0.5327087640762329
0.12230352312326431 0.1578022539615631 0.478922039270401
0.13122910261154175 0.17695823311805725 0.6450263857841492
0.13703128695487976 0.23863723874092102 0.4919182360172272
0.17967760562896729 0.20556794106960297 0.5853396058082581
0.23621249198913574 0.1092807874083519 0.6053754687309265
0.20528662204742432 0.28244268894195557 0.519585907459259
0.14572562277317047 0.15712864696979523 0.46489354968070984
0.12968012690544128 0.17114391922950745 0.638879120349884
0.26670002937316895 0.2540171444416046 0.5861141681671143
0.14156286418437958 0.12880167365074158 0.5186710357666016
0.1852497160434723 0.23731058835983276 0.6011583805084229
0.19682936370372772 0.20521575212478638 0.5362935066223145
0.15247109532356262 0.12344393879175186 0.4909244477748871
0.2499265968799591 0.1395043283700943 0.5206366777420044
0.2226642519235611 0.14827054738998413 0.6335426568984985
0.15783917903900146 0.17334139347076416 0.5537219047546387
0.14711983501911163 0.2195250242948532 0.5651601552963257
0.22542324662208557 0.25256356596946716 0.5486916899681091
0.12608803808689117 0.2496812641620636 0.6152247190475464
0.18425790965557098 0.16247937083244324 0.45714354515075684
0.2975296974182129 0.12715330719947815 0.5490416288375854
0.1544443666934967 0.19333764910697937 0.47988104820251465
0.18073096871376038 0.1382620483636856 0.5777636766433716
0.21127066016197205 0.1916782706975937 0.590136706829071
0.1351589411497116 0.10230745375156403 0.5434973239898682
0.1204257607460022 0.2016422599554062 0.6045001745223999
0.2700628340244293 0.14353907108306885 0.6201344728469849
0.28137829899787903 0.1476684808731079 0.6201121807098389
0.14055052399635315 0.18131333589553833 0.4889734983444214
0.13891901075839996 0.23725466430187225 0.6493068337440491
0.23509372770786285 0.15629248321056366 0.5503470301628113
0.26970189809799194 0.26206207275390625 0.5432717204093933
0.2900611460208893 0.21571967005729675 0.49605077505111694
0.21513737738132477 0.2650446593761444 0.5790058970451355
0.25378352403640747 0.15360158681869507 0.4531731605529785
0.27006903290748596 0.21710528433322906 0.44526442885398865
0.29857566952705383 0.12375997006893158 0.6111612915992737
0.22447063028812408 0.18165327608585358 0.49330469965934753
0.13755092024803162 0.16660510003566742 0.5370959043502808
0.15487150847911835 0.167081817984581 0.48026469349861145
0.12614859640598297 0.178430438041687 0.4626161456108093
0.2262299507856369 0.11955837905406952 0.47109928727149963
0.14215362071990967 0.2048846036195755 0.5404203534126282
0.2932465970516205 0.21953745186328888 0.4883989691734314
0.3014330267906189 0.1597842276096344 0.4939861595630646
0.17401593923568726 0.12200599163770676 0.43251705169677734
0.26554998755455017 0.2712646722793579 0.6022093296051025
0.19373135268688202 0.20484431087970734 0.48462072014808655
0.24146480858325958 0.21700914204120636 0.5780130624771118
0.21861018240451813 0.21304425597190857 0.5275022387504578
0.20612630248069763 0.14856068789958954 0.639698326587677
0.21791519224643707 0.28271055221557617 0.6027572751045227
0.1655377745628357 0.19351905584335327 0.5553159117698669
0.19945688545703888 0.12359427660703659 0.54899001121521
0.23522885143756866 0.1106475219130516 0.5666227340698242
0.23082077503204346 0.2158028781414032 0.45209163427352905
0.1188371479511261 0.24449047446250916 0.4927082657814026
0.21143034100532532 0.10903698951005936 0.5382712483406067
0.2542805075645447 0.16130678355693817 0.4458463490009308
0.19163236021995544 0.24656663835048676 0.6305331587791443
0.29491984844207764 0.2139291912317276 0.5041661858558655
0.2027454525232315 0.22407537698745728 0.5601811408996582
0.1884760707616806 0.1941826045513153 0.4843970835208893
0.2942267954349518 0.1693255454301834 0.5833610892295837
0.2246745228767395 0.11650197207927704 0.560713529586792
0.2125770002603531 0.1909637749195099 0.5096983313560486
0.27885159850120544 0.15471552312374115 0.4401807188987732
0.27626943588256836 0.16512244939804077 0.6297454237937927
0.17457720637321472 0.1635017693042755 0.5111355185508728
0.16408662497997284 0.23109716176986694 0.5694474577903748
0.13685131072998047 0.1823425590991974 0.6096417903900146
0.1493733674287796 0.2391492873430252 0.5686763525009155
0.24089694023132324 0.223211407661438 0.5817804932594299
0.19916538894176483 0.13139666616916656 0.5647420883178711
0.17415942251682281 0.14827322959899902 0.541962742805481
0.17757566273212433 0.1649613082408905 0.5516446232795715
0.20465122163295746 0.26396527886390686 0.5475156307220459
0.11887536197900772 0.25444892048835754 0.5579096674919128
0.24416105449199677 0.19748446345329285 0.5450499653816223
0.1289656162261963 0.13340523838996887 0.6076061725616455
0.22427508234977722 0.16525550186634064 0.6172651648521423
0.11499470472335815 0.2412737011909485 0.4718499183654785
0.29301077127456665 0.15784472227096558 0.517373263835907
0.26779624819755554 0.20097532868385315 0.5126175284385681
0.19226308166980743 0.15138602256774902 0.5391945838928223
0.14910294115543365 0.1738707423210144 0.5161721110343933
0.2678224444389343 0.2980053722858429 0.45261305570602417
0.18071171641349792 0.16687649488449097 0.46383926272392273
0.24981136620044708 0.13755737245082855 0.5296481251716614
0.16059455275535583 0.16117452085018158 0.49997788667678833
0.31399306654930115 0.18653973937034607 0.6032647490501404
0.2979861795902252 0.163373202085495 0.6303788423538208
0.20565040409564972 0.1883198469877243 0.6370682120323181
0.20050270855426788 0.14005738496780396 0.5912879109382629
0.214592844247818 0.22493420541286469 0.5236020684242249
0.1503705233335495 0.11761645972728729 0.6035141348838806
0.2129420042037964 0.11352928727865219 0.45758718252182007
0.21005862951278687 0.21342214941978455 0.46989405155181885
0.2150489091873169 0.2486223429441452 0.5257408022880554
0.25943228602409363 0.3036494553089142 0.5750526785850525
0.29021844267845154 0.23245511949062347 0.4599972069263458
0.18226826190948486 0.284110426902771 0.46711987257003784
0.12137528508901596 0.1898169070482254 0.6002505421638489
0.14778320491313934 0.1892789900302887 0.5492349863052368
0.20252837240695953 0.26856374740600586 0.5414267182350159
0.1795165091753006 0.27892762422561646 0.5493775606155396
0.1887706071138382 0.11996831744909286 0.4618612825870514
0.2158612161874771 0.24751441180706024 0.6475774645805359
0.20380879938602448 0.27428680658340454 0.549660325050354
0.2287897914648056 0.18601877987384796 0.6384751796722412
0.12759731709957123 0.12798887491226196 0.5437783002853394
0.23405182361602783 0.1158246248960495 0.6362574100494385
0.25104495882987976 0.2165556252002716 0.5679482221603394
0.17167136073112488 0.1323123425245285 0.5774281620979309
0.11936303973197937 0.15397928655147552 0.466808557510376
0.21108752489089966 0.1087237223982811 0.6028069257736206
0.2708874046802521 0.16182124614715576 0.4889447093009949
0.15234138071537018 0.24946439266204834 0.6141219735145569
0.14644022285938263 0.16651760041713715 0.4587916135787964
0.25028812885284424 0.255142480134964 0.5042265057563782
0.2361418902873993 0.18381907045841217 0.4692550301551819
0.1855061948299408 0.22401000559329987 0.5981256365776062
0.2975296974182129 0.12715330719947815 0.5490416288375854
0.1544443666934967 0.19333764910697937 0.47988104820251465
0.18073096871376038 0.1382620483636856 0.5777636766433716
0.1351589411497116 0.10230745375156403 0.5434973239898682
0.1497943252325058 0.16742542386054993 0.5120499730110168
0.23828046023845673 0.2404855638742447 0.4551430642604828
0.18588711321353912 0.11701363325119019 0.48695671558380127
0.29157501459121704 0.16409623622894287 0.4943332076072693
0.2106536626815796 0.18350355327129364 0.5596380829811096
0.1763065755367279 0.21385040879249573 0.4815346598625183
0.2106536626815796 0.18350355327129364 0.5596380829811096
0.1763065755367279 0.21385040879249573 0.4815346598625183
0.29401907324790955 0.17549265921115875 0.5329152345657349
0.26835569739341736 0.19112324714660645 0.44745105504989624
0.15193264186382294 0.24529194831848145 0.4764452874660492
0.24809186160564423 0.12587854266166687 0.5130885243415833
0.27960026264190674 0.13671357929706573 0.4383032023906708
0.17848752439022064 0.23741796612739563 0.4510701298713684
0.29965972900390625 0.21381574869155884 0.6082521080970764
0.2533511519432068 0.24640609323978424 0.5617187023162842
0.23045291006565094 0.1626870483160019 0.5419824123382568
0.17564645409584045 0.2628726363182068 0.6273378133773804
0.17712754011154175 0.1489836424589157 0.6356829404830933
0.24433739483356476 0.13554085791110992 0.46133309602737427
0.2864382266998291 0.14100892841815948 0.589469313621521
0.2681432068347931 0.12486180663108826 0.5477170944213867
0.21306347846984863 0.2136918008327484 0.5699604749679565
0.2640913426876068 0.11463312804698944 0.5991600155830383
0.1659032255411148 0.2263752669095993 0.5810243487358093
0.12777459621429443 0.207035094499588 0.5224766731262207
0.25864163041114807 0.12269304692745209 0.4677780568599701
0.27492207288742065 0.19030676782131195 0.5386641621589661
0.1493733674287796 0.2391492873430252 0.5686763525009155
0.24089694023132324 0.223211407661438 0.5817804932594299
0.20531119406223297 0.1550075262784958 0.582907497882843
0.19998805224895477 0.18149930238723755 0.5619792342185974
0.20465122163295746 0.26396527886390686 0.5475156307220459
0.11887536197900772 0.25444892048835754 0.5579096674919128
0.24416105449199677 0.19748446345329285 0.5450499653816223
0.2566435933113098 0.28392037749290466 0.4511650502681732
0.279439777135849 0.1293589174747467 0.5560863018035889
0.18797150254249573 0.11070922762155533 0.5129414200782776
0.15988406538963318 0.26339688897132874 0.563778281211853
0.29301077127456665 0.15784472227096558 0.517373263835907
0.16577772796154022 0.25671321153640747 0.5583794713020325
0.26779624819755554 0.20097532868385315 0.5126175284385681
0.19226308166980743 0.15138602256774902 0.5391945838928223
0.2678224444389343 0.2980053722858429 0.45261305570602417
0.29735928773880005 0.11587128043174744 0.6282709836959839
0.18071171641349792 0.16687649488449097 0.46383926272392273
0.24981136620044708 0.13755737245082855 0.5296481251716614
0.23038101196289062 0.2045886516571045 0.5459598898887634
0.13763950765132904 0.10667353123426437 0.604073166847229
0.2585113048553467 0.1588239073753357 0.49643489718437195
0.17076316475868225 0.1492331176996231 0.4449966251850128
0.17194892466068268 0.10584858804941177 0.560718297958374
0.19314606487751007 0.22487923502922058 0.6079220175743103
0.2598498463630676 0.127077117562294 0.44252514839172363
0.20165960490703583 0.1596570909023285 0.4656166434288025
0.26523903012275696 0.26904499530792236 0.47032660245895386
0.16471537947654724 0.11722003668546677 0.6323933005332947
0.1433658003807068 0.1722843199968338 0.63353031873703
0.29633551836013794 0.21669721603393555 0.48918697237968445
0.16682656109333038 0.10788997262716293 0.5682710409164429
0.20050270855426788 0.14005738496780396 0.5912879109382629
0.214592844247818 0.22493420541286469 0.5236020684242249
0.1503705233335495 0.11761645972728729 0.6035141348838806
0.1904149055480957 0.2571932077407837 0.4730706214904785
0.17839078605175018 0.1968722641468048 0.5942168831825256
0.21005862951278687 0.21342214941978455 0.46989405155181885
0.1807457059621811 0.12383490800857544 0.5972029566764832
0.15775614976882935 0.15366846323013306 0.5155491232872009
0.15667986869812012 0.14588311314582825 0.6071232557296753
0.19884124398231506 0.10790394246578217 0.6035045385360718
0.13897937536239624 0.2381485104560852 0.6437864899635315
0.27356764674186707 0.2850482761859894 0.4795941710472107
0.18057365715503693 0.14852778613567352 0.4548420310020447
0.1763329803943634 0.17054742574691772 0.560287594795227
0.1518404632806778 0.15671715140342712 0.5165204405784607
0.1965542435646057 0.2670184373855591 0.5731277465820312
0.2855348587036133 0.13301639258861542 0.5880946516990662
0.2322869449853897 0.21765334904193878 0.5987628102302551
0.17136943340301514 0.1318962424993515 0.5778232216835022
0.21258032321929932 0.2036484181880951 0.6091845035552979
0.13767972588539124 0.25359663367271423 0.6161310076713562
0.13519297540187836 0.2373742312192917 0.5347961783409119
0.2537681460380554 0.1378786861896515 0.6343223452568054
0.13013319671154022 0.1833365112543106 0.46115395426750183
0.1654912233352661 0.20316529273986816 0.4853108525276184
0.2428850382566452 0.29767999053001404 0.5639139413833618
0.26617395877838135 0.11898903548717499 0.489913672208786
0.1194043681025505 0.22727954387664795 0.5257933139801025
0.20945243537425995 0.19158008694648743 0.48929139971733093
0.1613437384366989 0.17381519079208374 0.5420324206352234
0.15980179607868195 0.218393474817276 0.5437749624252319
0.2019176334142685 0.2884201407432556 0.4730420708656311
0.13296131789684296 0.11714015156030655 0.49173662066459656
0.20370902121067047 0.11695411056280136 0.47095024585723877
0.1450859010219574 0.11284556984901428 0.4803304970264435
0.16948653757572174 0.1385670155286789 0.5486037135124207
0.11109468340873718 0.22693879902362823 0.5468934774398804
0.2878686189651489 0.17920227348804474 0.4949617087841034
0.27138403058052063 0.1415669173002243 0.4493076801300049
0.1548444926738739 0.21481338143348694 0.5940718650817871
0.31399306654930115 0.18653973937034607 0.6032647490501404
0.2979861795902252 0.163373202085495 0.6303788423538208
0.20565040409564972 0.1883198469877243 0.6370682120323181
0.20050270855426788 0.14005738496780396 0.5912879109382629
0.214592844247818 0.22493420541286469 0.5236020684242249
0.1503705233335495 0.11761645972728729 0.6035141348838806
0.1904149055480957 0.2571932077407837 0.4730706214904785
0.12829257547855377 0.24359042942523956 0.6157692074775696
0.19034679234027863 0.16420188546180725 0.46408143639564514
0.22766026854515076 0.13574102520942688 0.4919814467430115
0.2757232189178467 0.16491246223449707 0.6152888536453247
0.21300268173217773 0.12812769412994385 0.6134557723999023
0.23181398212909698 0.11709880828857422 0.5684787631034851
0.2817564904689789 0.1663278341293335 0.576262354850769
0.1744006872177124 0.2318459302186966 0.6055780649185181
0.1930234283208847 0.20624229311943054 0.6177336573600769
0.17395013570785522 0.2761436402797699 0.5766765475273132
0.18122705817222595 0.21301181614398956 0.4995953142642975
0.24435311555862427 0.2938658595085144 0.4702192544937134
0.1653680056333542 0.2317562848329544 0.5211142897605896
0.2524366080760956 0.14537446200847626 0.48855099081993103
0.3154294490814209 0.16417023539543152 0.511066734790802
0.1735188066959381 0.1267731636762619 0.5169072151184082
0.13349416851997375 0.12121807038784027 0.6040918231010437
0.21300268173217773 0.12812769412994385 0.6134557723999023
0.23181398212909698 0.11709880828857422 0.5684787631034851
0.2817564904689789 0.1663278341293335 0.576262354850769
0.1744006872177124 0.2318459302186966 0.6055780649185181
0.1930234283208847 0.20624229311943054 0.6177336573600769
0.17395013570785522 0.2761436402797699 0.5766765475273132
0.18122705817222595 0.21301181614398956 0.4995953142642975
0.24435311555862427 0.2938658595085144 0.4702192544937134
0.1653680056333542 0.2317562848329544 0.5211142897605896
0.2524366080760956 0.14537446200847626 0.48855099081993103
0.3065885007381439 0.163445383310318 0.5197843909263611
0.14460141956806183 0.12132695317268372 0.4817870259284973
0.2436140775680542 0.15016889572143555 0.5008670687675476
0.25442346930503845 0.28422608971595764 0.47853830456733704
0.23521779477596283 0.21718035638332367 0.6384727954864502
0.2574055790901184 0.17415323853492737 0.6185646057128906
0.1268175095319748 0.12274765968322754 0.5413585901260376
0.14710402488708496 0.1164182499051094 0.4322505593299866
0.17057237029075623 0.1309654712677002 0.5474163293838501
0.17153343558311462 0.1257830262184143 0.5081870555877686
0.22302599251270294 0.25403428077697754 0.5084207057952881
0.28693780303001404 0.1294168382883072 0.47577664256095886
0.272736132144928 0.20139697194099426 0.44637542963027954
0.21370841562747955 0.16641198098659515 0.5349100232124329
0.19720885157585144 0.1125735193490982 0.6368029117584229
0.17997786402702332 0.13274064660072327 0.44485965371131897
0.2697187066078186 0.16810666024684906 0.4911142587661743
0.1572169065475464 0.1888727992773056 0.43987539410591125
0.16080084443092346 0.17444747686386108 0.5338459610939026
0.271506667137146 0.12526512145996094 0.545735239982605
0.17447860538959503 0.136923149228096 0.564832329750061
0.1702508181333542 0.17913413047790527 0.5891745090484619
0.17167136073112488 0.1323123425245285 0.5774281620979309
0.19288849830627441 0.2630816400051117 0.6129096746444702
0.13622182607650757 0.18570728600025177 0.5571059584617615
0.12141755223274231 0.22936053574085236 0.4528406858444214
0.10810903459787369 0.25335127115249634 0.533562421798706
0.19720885157585144 0.1125735193490982 0.6368029117584229
0.17997786402702332 0.13274064660072327 0.44485965371131897
0.2836403548717499 0.17965498566627502 0.5064841508865356
0.17997786402702332 0.13274064660072327 0.44485965371131897
0.2697187066078186 0.16810666024684906 0.4911142587661743
0.1572169065475464 0.1888727992773056 0.43987539410591125
0.2428850382566452 0.29767999053001404 0.5639139413833618
0.26617395877838135 0.11898903548717499 0.489913672208786
0.1194043681025505 0.22727954387664795 0.5257933139801025
0.20945243537425995 0.19158008694648743 0.48929139971733093
0.1613437384366989 0.17381519079208374 0.5420324206352234
0.15980179607868195 0.218393474817276 0.5437749624252319
0.17768824100494385 0.2592982053756714 0.6480786204338074
0.2088043987751007 0.15701498091220856 0.485236793756485
0.1651570200920105 0.20570670068264008 0.4829186797142029
0.23130811750888824 0.23950260877609253 0.4596083164215088
0.21404236555099487 0.24666529893875122 0.6380345821380615
0.16043639183044434 0.19096992909908295 0.47601303458213806
0.2031552642583847 0.2963907718658447 0.44980588555336
0.12143786996603012 0.17412103712558746 0.5174862146377563
0.10744775831699371 0.2430804818868637 0.5989072918891907
0.3064521253108978 0.13602285087108612 0.5079429745674133
0.1747056543827057 0.13871712982654572 0.5300690531730652
0.25692564249038696 0.2576223313808441 0.583660364151001
0.30305543541908264 0.2044466733932495 0.5895123481750488
0.12122056633234024 0.13448846340179443 0.5311901569366455
0.17064577341079712 0.10737580060958862 0.6436107158660889
0.2924956977367401 0.17858929932117462 0.5755304098129272
0.2255719006061554 0.2286756932735443 0.5613886117935181
0.138461172580719 0.12328142672777176 0.5118944048881531
0.2134297788143158 0.22161757946014404 0.5698468685150146
0.20016583800315857 0.17589588463306427 0.5964308381080627
0.22936169803142548 0.2017686665058136 0.44968315958976746
0.12206388264894485 0.26442790031433105 0.4738789200782776
0.12702730298042297 0.2596617639064789 0.5652646422386169
0.12702730298042297 0.2596617639064789 0.5652646422386169
0.14720666408538818 0.1973181813955307 0.5795575380325317
0.1424906700849533 0.2612362504005432 0.49203988909721375
0.1450473964214325 0.10508681833744049 0.6077730059623718
0.21407507359981537 0.2323535680770874 0.524153470993042
0.1532493680715561 0.1366596817970276 0.4921158254146576
0.3191170394420624 0.1631985604763031 0.542072594165802
0.3191170394420624 0.1631985604763031 0.542072594165802
0.24461160600185394 0.13903239369392395 0.5928584933280945
0.2925322949886322 0.1488741934299469 0.5691694617271423
0.1861533373594284 0.12959490716457367 0.4879401624202728
0.27383267879486084 0.2801896929740906 0.5362555980682373
0.29049476981163025 0.21352681517601013 0.5660925507545471
0.2496751844882965 0.22109892964363098 0.5574343204498291
0.2575109004974365 0.2518300414085388 0.5817890167236328
0.22431737184524536 0.24627630412578583 0.5436481833457947
0.2575109004974365 0.2518300414085388 0.5817890167236328
0.22431737184524536 0.24627630412578583 0.5436481833457947
0.22431737184524536 0.24627630412578583 0.5436481833457947
0.18153639137744904 0.16434237360954285 0.5671083331108093
0.1400163173675537 0.10628512501716614 0.5103363990783691
0.21404190361499786 0.2653275728225708 0.46937015652656555
0.17028629779815674 0.13601340353488922 0.529137909412384
0.23828046023845673 0.2404855638742447 0.4551430642604828
0.17194892466068268 0.10584858804941177 0.560718297958374
0.19314606487751007 0.22487923502922058 0.6079220175743103
0.2598498463630676 0.127077117562294 0.44252514839172363
0.2598498463630676 0.127077117562294 0.44252514839172363
0.20165960490703583 0.1596570909023285 0.4656166434288025
0.2427239567041397 0.21870417892932892 0.6264539361000061
0.12432992458343506 0.2466265708208084 0.5503977537155151
0.20533062517642975 0.25442633032798767 0.578463613986969
0.23203766345977783 0.26039382815361023 0.538267195224762
0.22151018679141998 0.1587134450674057 0.5250263214111328
0.27745917439460754 0.1874409317970276 0.5296926498413086
0.17879825830459595 0.1326509416103363 0.5959857702255249
0.15501150488853455 0.11543381214141846 0.457067608833313
0.22807209193706512 0.12005432695150375 0.6123089790344238
0.21627144515514374 0.1460576206445694 0.624042272567749
0.14920394122600555 0.20253223180770874 0.495324045419693
0.19806835055351257 0.2860667109489441 0.5241347551345825
0.15191204845905304 0.11249386519193649 0.4321330785751343
0.19563008844852448 0.17952695488929749 0.4704199731349945
0.1450786590576172 0.14992661774158478 0.6219145059585571
0.1410643756389618 0.24754735827445984 0.6486194133758545
0.3039025664329529 0.20282688736915588 0.499448299407959
0.29665639996528625 0.15744991600513458 0.5754526257514954
0.14708684384822845 0.21993191540241241 0.634073793888092
0.27082258462905884 0.2578343451023102 0.5254979729652405
0.304172545671463 0.19707702100276947 0.5655845403671265
0.2924956977367401 0.17858929932117462 0.5755304098129272
0.2255719006061554 0.2286756932735443 0.5613886117935181
0.25141769647598267 0.2205342799425125 0.5273852348327637
0.21695931255817413 0.2341827005147934 0.6226924657821655
0.2213689237833023 0.11788798123598099 0.5330299139022827
0.12777459621429443 0.207035094499588 0.5224766731262207
0.1532493680715561 0.1366596817970276 0.4921158254146576
0.3191170394420624 0.1631985604763031 0.542072594165802
0.24461160600185394 0.13903239369392395 0.5928584933280945
0.2925322949886322 0.1488741934299469 0.5691694617271423
0.1861533373594284 0.12959490716457367 0.4879401624202728
0.27383267879486084 0.2801896929740906 0.5362555980682373
0.29049476981163025 0.21352681517601013 0.5660925507545471
0.2496751844882965 0.22109892964363098 0.5574343204498291
0.2575109004974365 0.2518300414085388 0.5817890167236328
0.22431737184524536 0.24627630412578583 0.5436481833457947
0.18153639137744904 0.16434237360954285 0.5671083331108093
0.1400163173675537 0.10628512501716614 0.5103363990783691
0.21404190361499786 0.2653275728225708 0.46937015652656555
0.17028629779815674 0.13601340353488922 0.529137909412384
0.16672539710998535 0.11560983955860138 0.5460785031318665
0.3103657364845276 0.1455516219139099 0.5222033858299255
0.21070316433906555 0.12315495312213898 0.6333979368209839
0.21900604665279388 0.16705583035945892 0.5059330463409424
0.27576279640197754 0.20174160599708557 0.6294176578521729
0.26521429419517517 0.21320195496082306 0.58060622215271
0.13296131789684296 0.11714015156030655 0.49173662066459656
0.13497383892536163 0.1500953733921051 0.5782067179679871
0.13636411726474762 0.19075661897659302 0.4400046467781067
0.27384084463119507 0.1420421451330185 0.6332850456237793
0.1584005057811737 0.1617649793624878 0.5280518531799316
0.12101951241493225 0.23630939424037933 0.6242456436157227
0.22931091487407684 0.23589923977851868 0.5904824137687683
0.17883341014385223 0.10713423788547516 0.6142451167106628
0.19373546540737152 0.23826031386852264 0.5979897379875183
0.23946724832057953 0.12198594957590103 0.4692501425743103
0.18926912546157837 0.13154999911785126 0.5905648469924927
0.24835200607776642 0.1995241492986679 0.5182452201843262
0.23038101196289062 0.2045886516571045 0.5459598898887634
0.13763950765132904 0.10667353123426437 0.604073166847229
0.2585113048553467 0.1588239073753357 0.49643489718437195
0.17076316475868225 0.1492331176996231 0.4449966251850128
0.17194892466068268 0.10584858804941177 0.560718297958374
0.19314606487751007 0.22487923502922058 0.6079220175743103
0.2598498463630676 0.127077117562294 0.44252514839172363
0.2597489655017853 0.1269242912530899 0.44263675808906555
0.17112064361572266 0.2681901454925537 0.4763944149017334
0.1640259176492691 0.23049646615982056 0.5447851419448853
0.2427239567041397 0.21870417892932892 0.6264539361000061
0.12507516145706177 0.24405458569526672 0.6347303986549377
0.18529388308525085 0.22266285121440887 0.49552029371261597
0.16672539710998535 0.11560983955860138 0.5460785031318665
0.3103657364845276 0.1455516219139099 0.5222033858299255
0.21070316433906555 0.12315495312213898 0.6333979368209839
0.21900604665279388 0.16705583035945892 0.5059330463409424
0.27576279640197754 0.20174160599708557 0.6294176578521729
0.26521429419517517 0.21320195496082306 0.58060622215271
0.13296131789684296 0.11714015156030655 0.49173662066459656
0.20370902121067047 0.11695411056280136 0.47095024585723877
0.1450859010219574 0.11284556984901428 0.4803304970264435
0.16948653757572174 0.1385670155286789 0.5486037135124207
0.11109468340873718 0.22693879902362823 0.5468934774398804
0.2878686189651489 0.17920227348804474 0.4949617087841034
0.27138403058052063 0.1415669173002243 0.4493076801300049
0.1548444926738739 0.21481338143348694 0.5940718650817871
0.31399306654930115 0.18653973937034607 0.6032647490501404
0.2979861795902252 0.163373202085495 0.6303788423538208
0.20565040409564972 0.1883198469877243 0.6370682120323181
0.20050270855426788 0.14005738496780396 0.5912879109382629
0.13334767520427704 0.13723455369472504 0.5565725564956665
0.27384084463119507 0.1420421451330185 0.6332850456237793
0.1584005057811737 0.1617649793624878 0.5280518531799316
0.12101951241493225 0.23630939424037933 0.6242456436157227
0.22931091487407684 0.23589923977851868 0.5904824137687683
0.17883341014385223 0.10713423788547516 0.6142451167106628
0.19373546540737152 0.23826031386852264 0.5979897379875183
0.23946724832057953 0.12198594957590103 0.4692501425743103
0.18926912546157837 0.13154999911785126 0.5905648469924927
0.24208620190620422 0.1423022300004959 0.5261476039886475
0.22962436079978943 0.29770827293395996 0.5062441825866699
0.13739149272441864 0.15663015842437744 0.6387923359870911
0.3091215193271637 0.17514283955097198 0.5034990310668945
0.2435666024684906 0.252712219953537 0.5290593504905701
0.1944335699081421 0.11530544608831406 0.5139219760894775
0.12996040284633636 0.15771815180778503 0.6322896480560303
0.23277704417705536 0.19936078786849976 0.5402913093566895
0.21259619295597076 0.1739630252122879 0.5782600045204163
0.16567185521125793 0.1775692105293274 0.5758843421936035
0.21226249635219574 0.16832688450813293 0.5504255890846252
0.25323522090911865 0.14656256139278412 0.6135016083717346
0.20852574706077576 0.24583132565021515 0.44822219014167786
0.2654740810394287 0.26204413175582886 0.6292763948440552
0.2371615320444107 0.22159670293331146 0.6169631481170654
0.2649029791355133 0.12535297870635986 0.500825822353363
0.21702975034713745 0.26877841353416443 0.6123292446136475
0.15070144832134247 0.21725627779960632 0.5350192189216614
0.14455202221870422 0.22268496453762054 0.47472551465034485
0.17294716835021973 0.2791649103164673 0.4993194043636322
0.10810903459787369 0.25335127115249634 0.533562421798706
0.22832365334033966 0.277179479598999 0.5331720113754272
0.30778664350509644 0.1622774451971054 0.5817269682884216
0.2585113048553467 0.1588239073753357 0.49643489718437195
0.22722937166690826 0.24926574528217316 0.4908907413482666
0.1791147142648697 0.12127191573381424 0.5733518600463867
0.2479892522096634 0.14411109685897827 0.44363072514533997
0.22752732038497925 0.21389737725257874 0.5185720324516296
0.2539214491844177 0.19983863830566406 0.4894393980503082
0.1870889961719513 0.24101191759109497 0.6111743450164795
0.26942524313926697 0.12046980857849121 0.47538790106773376
0.13646717369556427 0.11123528331518173 0.6475213170051575
0.16789540648460388 0.10903054475784302 0.5661209225654602
0.2929093539714813 0.14357353746891022 0.6069735288619995
0.16711276769638062 0.26986566185951233 0.5329405069351196
0.21330834925174713 0.2656380534172058 0.5547327995300293
0.20861881971359253 0.10842735320329666 0.5920788049697876
0.28519129753112793 0.20249825716018677 0.5000484585762024
0.3181823492050171 0.1245831623673439 0.5415389537811279
0.24844622611999512 0.16728492081165314 0.5104349255561829
0.2654740810394287 0.26204413175582886 0.6292763948440552
0.2371615320444107 0.22159670293331146 0.6169631481170654
0.2649029791355133 0.12535297870635986 0.500825822353363
0.21702975034713745 0.26877841353416443 0.6123292446136475
0.15070144832134247 0.21725627779960632 0.5350192189216614
0.14455202221870422 0.22268496453762054 0.47472551465034485
0.17294716835021973 0.2791649103164673 0.4993194043636322
0.10810903459787369 0.25335127115249634 0.533562421798706
0.22832365334033966 0.277179479598999 0.5331720113754272
0.30778664350509644 0.1622774451971054 0.5817269682884216
0.17704124748706818 0.1284293234348297 0.57621830701828
0.2018352448940277 0.13979209959506989 0.4818865656852722
0.21027113497257233 0.20533767342567444 0.45599815249443054
0.14669182896614075 0.18727438151836395 0.466589093208313
0.18470469117164612 0.15219679474830627 0.4792192876338959
0.23203766345977783 0.26039382815361023 0.538267195224762
0.2575109004974365 0.2518300414085388 0.5817890167236328
0.22431737184524536 0.24627630412578583 0.5436481833457947
0.18153639137744904 0.16434237360954285 0.5671083331108093
0.1400163173675537 0.10628512501716614 0.5103363990783691
0.21404190361499786 0.2653275728225708 0.46937015652656555
0.17028629779815674 0.13601340353488922 0.529137909412384
0.16672539710998535 0.11560983955860138 0.5460785031318665
0.3103657364845276 0.1455516219139099 0.5222033858299255
0.21070316433906555 0.12315495312213898 0.6333979368209839
0.13245879113674164 0.19056951999664307 0.4420512020587921
0.22163446247577667 0.11311668902635574 0.45969995856285095
0.11781322956085205 0.20733101665973663 0.4745344817638397
0.2342449128627777 0.1657467782497406 0.47257864475250244
0.2521582245826721 0.1906202733516693 0.521597146987915
0.15711398422718048 0.2360355108976364 0.6180211305618286
0.24468505382537842 0.12270622700452805 0.580903947353363
0.11045583337545395 0.25022652745246887 0.5238621234893799
0.16060444712638855 0.16821378469467163 0.6427119374275208
0.1952696144580841 0.19016337394714355 0.6227853298187256
0.18851368129253387 0.10749539732933044 0.6451917886734009
0.16210123896598816 0.18856041133403778 0.5252560973167419
0.22708040475845337 0.2593798339366913 0.610812783241272
0.24623388051986694 0.2815413475036621 0.5926377773284912
0.22692705690860748 0.2480393648147583 0.5163751840591431
0.24783934652805328 0.11093565076589584 0.5343033671379089
0.16185958683490753 0.22065186500549316 0.628169059753418
0.17119178175926208 0.2732197642326355 0.5744987726211548
0.2999407947063446 0.16830426454544067 0.5400227904319763
0.15014788508415222 0.24958330392837524 0.604004442691803
0.2144113928079605 0.19546501338481903 0.6353281140327454
0.2018352448940277 0.13979209959506989 0.4818865656852722
0.12206388264894485 0.26442790031433105 0.4738789200782776
0.2031552642583847 0.2963907718658447 0.44980588555336
0.12143786996603012 0.17412103712558746 0.5174862146377563
0.10744775831699371 0.2430804818868637 0.5989072918891907
0.28540149331092834 0.12558384239673615 0.5639325976371765
0.1585882604122162 0.10498480498790741 0.6274400353431702
0.2328643649816513 0.1095966249704361 0.6073811650276184
0.2294277846813202 0.23011139035224915 0.5651344656944275
0.25692564249038696 0.2576223313808441 0.583660364151001
0.30305543541908264 0.2044466733932495 0.5895123481750488
0.12122056633234024 0.13448846340179443 0.5311901569366455
0.2898390591144562 0.24510802328586578 0.6347351670265198
0.22603102028369904 0.22161881625652313 0.5441842079162598
0.17903515696525574 0.14940741658210754 0.6257428526878357
0.23549756407737732 0.28869566321372986 0.5385115146636963
0.2737322449684143 0.23114442825317383 0.5525359511375427
0.1426556259393692 0.15290489792823792 0.6304730176925659
0.1369432806968689 0.15523774921894073 0.582283616065979
0.20982205867767334 0.12169723212718964 0.6417627930641174
0.19459223747253418 0.26830583810806274 0.44817328453063965
0.13653838634490967 0.15097473561763763 0.6093126535415649
0.2793545126914978 0.11580825597047806 0.5177323222160339
0.24898101389408112 0.24718409776687622 0.5741857886314392
0.22111065685749054 0.11657049506902695 0.5868791341781616
0.16820980608463287 0.11844537407159805 0.5833706259727478
0.19254931807518005 0.15383122861385345 0.4757443368434906
0.3052227199077606 0.15016943216323853 0.4365677833557129
0.23929007351398468 0.2743777632713318 0.5066622495651245
0.24054767191410065 0.18105781078338623 0.48321372270584106
0.17993894219398499 0.11541324853897095 0.487203985452652
0.12000443786382675 0.17609040439128876 0.4713410437107086
0.12560980021953583 0.25235411524772644 0.4975874722003937
0.21070316433906555 0.12315495312213898 0.6333979368209839
0.26617395877838135 0.11898903548717499 0.489913672208786
0.1194043681025505 0.22727954387664795 0.5257933139801025
0.20945243537425995 0.19158008694648743 0.48929139971733093
0.1613437384366989 0.17381519079208374 0.5420324206352234
0.15980179607868195 0.218393474817276 0.5437749624252319
0.17768824100494385 0.2592982053756714 0.6480786204338074
0.2088043987751007 0.15701498091220856 0.485236793756485
0.21404236555099487 0.24666529893875122 0.6380345821380615
0.16043639183044434 0.19096992909908295 0.47601303458213806
0.2031552642583847 0.2963907718658447 0.44980588555336
0.12143786996603012 0.17412103712558746 0.5174862146377563
0.10744775831699371 0.2430804818868637 0.5989072918891907
0.28540149331092834 0.12558384239673615 0.5639325976371765
0.1585882604122162 0.10498480498790741 0.6274400353431702
0.2328643649816513 0.1095966249704361 0.6073811650276184
0.2294277846813202 0.23011139035224915 0.5651344656944275
0.25692564249038696 0.2576223313808441 0.583660364151001
0.30305543541908264 0.2044466733932495 0.5895123481750488
0.12122056633234024 0.13448846340179443 0.5311901569366455
0.2898390591144562 0.24510802328586578 0.6347351670265198
0.22603102028369904 0.22161881625652313 0.5441842079162598
0.17903515696525574 0.14940741658210754 0.6257428526878357
0.23549756407737732 0.28869566321372986 0.5385115146636963
0.21851718425750732 0.2787040174007416 0.6029682159423828
0.23644612729549408 0.29414063692092896 0.5297905206680298
0.11285503208637238 0.18821629881858826 0.4647357165813446
0.18380121886730194 0.2643364667892456 0.5552375316619873
0.1993691623210907 0.21691133081912994 0.48729953169822693
0.1815321445465088 0.22659410536289215 0.6118263006210327
0.3203986883163452 0.14217668771743774 0.5948783755302429
0.26744115352630615 0.21778349578380585 0.4586619734764099
0.19681304693222046 0.2297360599040985 0.5126832723617554
0.18079103529453278 0.16510634124279022 0.6284335255622864
0.16162262856960297 0.10675156116485596 0.4875001609325409
0.20074430108070374 0.2320515364408493 0.6407701969146729
0.23644612729549408 0.29414063692092896 0.5297905206680298
0.11285503208637238 0.18821629881858826 0.4647357165813446
0.18380121886730194 0.2643364667892456 0.5552375316619873
0.1993691623210907 0.21691133081912994 0.48729953169822693
0.1815321445465088 0.22659410536289215 0.6118263006210327
0.3203986883163452 0.14217668771743774 0.5948783755302429
0.26744115352630615 0.21778349578380585 0.4586619734764099
0.21422962844371796 0.22069226205348969 0.4715381860733032
0.25959256291389465 0.14424839615821838 0.6401119232177734
0.3056950867176056 0.20579580962657928 0.596685528755188
0.15640012919902802 0.23599568009376526 0.48931941390037537
0.26072266697883606 0.18563151359558105 0.5384429097175598
0.12976910173892975 0.211324542760849 0.49468040466308594
0.169982448220253 0.21915410459041595 0.46399134397506714
0.23052844405174255 0.17104825377464294 0.591731607913971
0.21627406775951385 0.11612649261951447 0.5235494375228882
0.1256975680589676 0.1958605796098709 0.5396832823753357
0.17616018652915955 0.11294956505298615 0.6118772029876709
0.22141264379024506 0.27396607398986816 0.6164945960044861
0.26525041460990906 0.15788517892360687 0.6319301724433899
0.24722272157669067 0.2564927935600281 0.505763590335846
0.24394582211971283 0.14433808624744415 0.5646300315856934
0.24474084377288818 0.16522550582885742 0.5684981942176819
0.2989945113658905 0.16462074220180511 0.48416876792907715
0.24439631402492523 0.17483122646808624 0.503074586391449
0.23939089477062225 0.17641742527484894 0.5682528614997864
0.1484251767396927 0.12164830416440964 0.5312537550926208
0.11219853907823563 0.24069403111934662 0.4976726174354553
0.15857884287834167 0.2607344090938568 0.5675885677337646
0.2328643649816513 0.1095966249704361 0.6073811650276184
0.2294277846813202 0.23011139035224915 0.5651344656944275
0.25692564249038696 0.2576223313808441 0.583660364151001
0.30305543541908264 0.2044466733932495 0.5895123481750488
0.2161037176847458 0.2890634536743164 0.6000423431396484
0.24424730241298676 0.12651154398918152 0.5539044141769409
0.1328439563512802 0.13800765573978424 0.46074625849723816
0.1328417807817459 0.23913505673408508 0.6475527882575989
0.3005344867706299 0.1439361274242401 0.44339990615844727
0.1662546694278717 0.10528737306594849 0.5836935043334961
0.21118901669979095 0.15071360766887665 0.5253762006759644
0.18246734142303467 0.2582450211048126 0.4654787480831146
0.27321097254753113 0.23042990267276764 0.49647489190101624
0.17701393365859985 0.20223866403102875 0.4859318733215332
0.3184681236743927 0.14027604460716248 0.496390700340271
0.23023952543735504 0.12678466737270355 0.4956151247024536
0.2678367793560028 0.1912626326084137 0.4657655954360962
0.19254931807518005 0.15383122861385345 0.4757443368434906
0.3052227199077606 0.15016943216323853 0.4365677833557129
0.23929007351398468 0.2743777632713318 0.5066622495651245
0.24054767191410065 0.18105781078338623 0.48321372270584106
0.17993894219398499 0.11541324853897095 0.487203985452652
0.12000443786382675 0.17609040439128876 0.4713410437107086
0.12560980021953583 0.25235411524772644 0.4975874722003937
0.2742047607898712 0.16456127166748047 0.5037725567817688
0.21627406775951385 0.11612649261951447 0.5235494375228882
0.1256975680589676 0.1958605796098709 0.5396832823753357
0.17616018652915955 0.11294956505298615 0.6118772029876709
0.27055636048316956 0.21668830513954163 0.5803084373474121
0.23672743141651154 0.12639571726322174 0.5960524082183838
0.234930157661438 0.21016985177993774 0.5262711644172668
0.25442346930503845 0.28422608971595764 0.47853830456733704
0.23301279544830322 0.15657398104667664 0.4949869215488434
0.13212645053863525 0.13134244084358215 0.46050044894218445
0.2674713730812073 0.2010594755411148 0.6274802088737488
0.21005849540233612 0.12048323452472687 0.6207441091537476
0.276604562997818 0.2888748347759247 0.5594191551208496
0.13489261269569397 0.12089129537343979 0.45791348814964294
0.2431827336549759 0.1945393830537796 0.5463953018188477
0.18471764028072357 0.14240188896656036 0.5751373171806335
0.23627716302871704 0.18065282702445984 0.5781127214431763
0.17591559886932373 0.28122836351394653 0.5018816590309143
0.24951499700546265 0.27437448501586914 0.49172443151474
0.2070515751838684 0.23797498643398285 0.45281633734703064
0.2432231903076172 0.12224391847848892 0.5161455869674683
0.1412922888994217 0.12988759577274323 0.6091897487640381
0.23311352729797363 0.2937234342098236 0.45776861906051636
0.26828163862228394 0.19280950725078583 0.5645406246185303
0.14644783735275269 0.11492593586444855 0.4297392666339874
0.28444382548332214 0.2590760588645935 0.4841567873954773
0.2208338975906372 0.16686168313026428 0.5732042193412781
0.2880616784095764 0.2525283396244049 0.4711255729198456
0.2249208241701126 0.15930859744548798 0.573271632194519
0.1527697741985321 0.15307649970054626 0.6038070321083069
0.15303419530391693 0.27560746669769287 0.49150922894477844
0.1595333367586136 0.18680047988891602 0.6426044702529907
0.23244547843933105 0.20536810159683228 0.5732967257499695
0.13347859680652618 0.20990075170993805 0.48206058144569397
0.17375130951404572 0.26811298727989197 0.5164368152618408
0.18965615332126617 0.128378763794899 0.5466147065162659
0.26188039779663086 0.2698705196380615 0.6442816853523254
0.23045746982097626 0.23611249029636383 0.5620785355567932
0.17594340443611145 0.10855893045663834 0.4786286950111389
0.2018352448940277 0.13979209959506989 0.4818865656852722
0.21422962844371796 0.22069226205348969 0.4715381860733032
0.25959256291389465 0.14424839615821838 0.6401119232177734
0.3056950867176056 0.20579580962657928 0.596685528755188
0.24161630868911743 0.10957763344049454 0.6354909539222717
0.12277361005544662 0.1924533247947693 0.5834381580352783
0.1560758352279663 0.18849226832389832 0.4546598196029663
0.13759742677211761 0.22036650776863098 0.5938277244567871
0.2090071439743042 0.18774396181106567 0.4684908390045166
0.277162104845047 0.12293940037488937 0.5651889443397522
0.2329408824443817 0.1585443615913391 0.5543729662895203
0.21627406775951385 0.11612649261951447 0.5235494375228882
0.1256975680589676 0.1958605796098709 0.5396832823753357
0.17616018652915955 0.11294956505298615 0.6118772029876709
0.27055636048316956 0.21668830513954163 0.5803084373474121
0.23672743141651154 0.12639571726322174 0.5960524082183838
0.234930157661438 0.21016985177993774 0.5262711644172668
0.24627685546875 0.17153605818748474 0.5748692154884338
0.19474796950817108 0.2021327018737793 0.635466456413269
0.1347866654396057 0.12209946662187576 0.5236192345619202
0.13975073397159576 0.2566484808921814 0.5174170732498169
0.1484251767396927 0.12164830416440964 0.5312537550926208
0.11219853907823563 0.24069403111934662 0.4976726174354553
0.1464082896709442 0.24564087390899658 0.4986628293991089
0.17106708884239197 0.14976766705513 0.5712757706642151
0.28834599256515503 0.17654313147068024 0.5602538585662842
0.16614408791065216 0.1723080426454544 0.5189400911331177
0.14415758848190308 0.24942196905612946 0.5620806813240051
0.2226954996585846 0.21465834975242615 0.5005974173545837
0.21682101488113403 0.14105980098247528 0.5101739764213562
0.2510692775249481 0.18089093267917633 0.5738102197647095
0.2590864896774292 0.19917981326580048 0.4534631669521332
0.21027113497257233 0.20533767342567444 0.45599815249443054
0.24951499700546265 0.27437448501586914 0.49172443151474
0.2070515751838684 0.23797498643398285 0.45281633734703064
0.2432231903076172 0.12224391847848892 0.5161455869674683
0.1412922888994217 0.12988759577274323 0.6091897487640381
0.23311352729797363 0.2937234342098236 0.45776861906051636
0.26828163862228394 0.19280950725078583 0.5645406246185303
