ply
format ascii 1.0
element vertex 821
property float x
property float y
property float z
end_header
0.23824933171272278 0.20893308520317078 0.481308251619339
0.24313446879386902 0.2563893795013428 0.5209548473358154
0.21323496103286743 0.11402509361505508 0.5861480236053467
0.25275132060050964 0.26809728145599365 0.44831582903862
0.14313673973083496 0.1951175481081009 0.6157457232475281
0.3045555353164673 0.1186918169260025 0.6084360480308533
0.12865185737609863 0.1204240545630455 0.5756621360778809
0.2722014784812927 0.26200971007347107 0.4899004101753235
0.14960534870624542 0.1822187751531601 0.6258466243743896
0.1688101887702942 0.21878166496753693 0.6171742081642151
0.23256497085094452 0.17751576006412506 0.5757638812065125
0.22791768610477448 0.25366976857185364 0.610621452331543
0.1680123209953308 0.23291465640068054 0.649109959602356
0.11278656125068665 0.24673673510551453 0.4560103416442871
0.2661789357662201 0.2445099949836731 0.45385289192199707
0.2565625011920929 0.17538994550704956 0.5383077263832092
0.27301859855651855 0.2580174505710602 0.4925898611545563
0.2231002002954483 0.23670236766338348 0.4598376452922821
0.2295006364583969 0.21837234497070312 0.5094515085220337
0.2765566110610962 0.19187232851982117 0.49167150259017944
0.25939539074897766 0.2623431980609894 0.6239193677902222
0.31490224599838257 0.1383700966835022 0.4726918339729309
0.22831498086452484 0.1345849484205246 0.5641693472862244
0.2319970279932022 0.2943068742752075 0.46541857719421387
0.25244635343551636 0.236562579870224 0.6261554956436157
0.24702931940555573 0.2679668962955475 0.46619951725006104
0.24230682849884033 0.24219027161598206 0.5493118762969971
0.2123822420835495 0.16394618153572083 0.45978736877441406
0.21532629430294037 0.1675747036933899 0.594501793384552
0.2798754572868347 0.26387089490890503 0.5546605587005615
0.2269497662782669 0.1639045923948288 0.5109381675720215
0.23407527804374695 0.17048415541648865 0.5822586417198181
0.2681855261325836 0.12681902945041656 0.4557478725910187
0.28724077343940735 0.18266154825687408 0.592930018901825
0.13709378242492676 0.19326657056808472 0.6384795308113098
0.2604922950267792 0.22332024574279785 0.49145469069480896
0.20719696581363678 0.12690523266792297 0.559307336807251
0.14508862793445587 0.13490542769432068 0.4861566126346588
0.2635418772697449 0.1886155605316162 0.47418612241744995
0.2253088355064392 0.2157401293516159 0.6388953924179077
0.2225191444158554 0.2097390592098236 0.6433308720588684
0.2775647044181824 0.12660568952560425 0.6284453868865967
0.21640914678573608 0.11590690165758133 0.5323824286460876
0.26667746901512146 0.28447645902633667 0.6031926870346069
0.21038103103637695 0.19713842868804932 0.5802500247955322
0.20097634196281433 0.11651372164487839 0.4628894627094269
0.16243146359920502 0.1867409497499466 0.6489690542221069
0.14086809754371643 0.22461600601673126 0.6331003308296204
0.17655956745147705 0.15288212895393372 0.5374405384063721
0.13504980504512787 0.23826149106025696 0.48600977659225464
0.12191030383110046 0.15539363026618958 0.6056375503540039
0.24116560816764832 0.12318506091833115 0.6013833284378052
0.2600233256816864 0.2564404010772705 0.6119770407676697
0.31758010387420654 0.12814262509346008 0.5693798661231995
0.19399726390838623 0.19325296580791473 0.5412684082984924
0.22428376972675323 0.11962740123271942 0.5621742606163025
0.21667738258838654 0.11415297538042068 0.6305152773857117
0.11191287636756897 0.22773313522338867 0.6494569778442383
0.18668411672115326 0.16459795832633972 0.4940882921218872
0.22723454236984253 0.18121649324893951 0.6005265712738037
0.15978753566741943 0.15293696522712708 0.47929611802101135
0.3085055649280548 0.12762944400310516 0.47602325677871704
0.20630893111228943 0.27941930294036865 0.46479111909866333
0.2294616550207138 0.15886837244033813 0.5546042323112488
0.2844897210597992 0.2048976719379425 0.6043931841850281
0.13006210327148438 0.26010605692863464 0.5366955995559692
0.21391651034355164 0.17059138417243958 0.5018209218978882
0.25229689478874207 0.19630374014377594 0.6290931701660156
0.22604909539222717 0.17852872610092163 0.4694330394268036
0.31989115476608276 0.13473708927631378 0.4978157877922058
0.19045154750347137 0.147690087556839 0.48906272649765015
0.25568556785583496 0.2179926633834839 0.6047282218933105
0.17786484956741333 0.18400663137435913 0.4688275158405304
0.22319050133228302 0.23471768200397491 0.47568845748901367
0.24158690869808197 0.2119075059890747 0.4504375159740448
0.2167912870645523 0.10802054405212402 0.5388075709342957
0.15212781727313995 0.21381090581417084 0.5135902762413025
0.218542218208313 0.18331532180309296 0.507716178894043
0.1564042717218399 0.13252782821655273 0.6405748724937439
0.14172789454460144 0.2553599774837494 0.49071937799453735
0.225929394364357 0.13431192934513092 0.5700552463531494
0.21974463760852814 0.15946602821350098 0.4824528098106384
0.320914626121521 0.12184896320104599 0.5722282528877258
0.19032692909240723 0.22195567190647125 0.5287599563598633
0.24104459583759308 0.12048272788524628 0.5668423175811768
0.19072474539279938 0.23963338136672974 0.6153792142868042
0.18962986767292023 0.19288209080696106 0.6410197019577026
0.27128374576568604 0.2830435037612915 0.5384021997451782
0.25998979806900024 0.25272634625434875 0.6331827044487
0.25939831137657166 0.20293977856636047 0.5185344219207764
0.15396571159362793 0.10349929332733154 0.6000146269798279
0.2103818953037262 0.24222977459430695 0.6309641003608704
0.25842058658599854 0.26383793354034424 0.44764870405197144
0.19241799414157867 0.1983773559331894 0.5609574317932129
0.16365131735801697 0.10748343914747238 0.5777065753936768
0.30412766337394714 0.1294771134853363 0.6082459688186646
0.29463863372802734 0.1440914273262024 0.47209158539772034
0.2676120698451996 0.13875901699066162 0.4954445958137512
0.21390649676322937 0.20221348106861115 0.5534749031066895
0.11889218538999557 0.13342373073101044 0.4571375846862793
0.2070055902004242 0.16197237372398376 0.5109545588493347
0.17019885778427124 0.18354561924934387 0.5168508887290955
0.2570141553878784 0.18070213496685028 0.565291702747345
0.20657849311828613 0.23422707617282867 0.5124629735946655
0.27488547563552856 0.21247176826000214 0.47482627630233765
0.13671977818012238 0.11178184300661087 0.5535125732421875
0.17019158601760864 0.2589828670024872 0.48312318325042725
0.24490347504615784 0.21836481988430023 0.5923434495925903
0.3071024417877197 0.12926694750785828 0.436592698097229
0.12432861328125 0.2560567557811737 0.5703901648521423
0.1792096346616745 0.13250324130058289 0.45221585035324097
0.18110698461532593 0.1553240865468979 0.6295151114463806
0.22059011459350586 0.14258630573749542 0.5018537044525146
0.22629569470882416 0.11103969067335129 0.4718792140483856
0.2757432460784912 0.2923077344894409 0.5945836901664734
0.12874729931354523 0.11299898475408554 0.4912680685520172
0.15493178367614746 0.20611675083637238 0.47479724884033203
0.23429317772388458 0.23966474831104279 0.5849232077598572
0.24884623289108276 0.22018270194530487 0.6269816756248474
0.15977248549461365 0.24868285655975342 0.5717646479606628
0.28178930282592773 0.11134810000658035 0.5860027074813843
0.1451663225889206 0.11131041496992111 0.512381374835968
0.1363016963005066 0.23299705982208252 0.47934165596961975
0.22434107959270477 0.2676852345466614 0.45020195841789246
0.2764262557029724 0.17395582795143127 0.53182053565979
0.11943233758211136 0.19468960165977478 0.44859352707862854
0.21924477815628052 0.18068867921829224 0.579620361328125
0.16706015169620514 0.20116092264652252 0.600139856338501
0.11519423872232437 0.2059207260608673 0.6090601086616516
0.28807562589645386 0.2577783465385437 0.5904784798622131
0.26001641154289246 0.16880886256694794 0.6328501105308533
0.19664345681667328 0.2269538938999176 0.48851439356803894
0.2754446864128113 0.1893075555562973 0.4722331464290619
0.1610245406627655 0.13909097015857697 0.4360452890396118
0.2605828046798706 0.1863684505224228 0.6354660391807556
0.11834321916103363 0.15260767936706543 0.4938657283782959
0.14019086956977844 0.2270834892988205 0.5059447288513184
0.17867782711982727 0.10715670883655548 0.5163892507553101
0.24131427705287933 0.2229757457971573 0.5619601011276245
0.2718312442302704 0.2737915515899658 0.5298488140106201
0.13792431354522705 0.16206946969032288 0.4582846462726593
0.28964245319366455 0.16301856935024261 0.5573722720146179
0.2863466143608093 0.21738716959953308 0.44752106070518494
0.1985010802745819 0.14485767483711243 0.5806174278259277
0.2712480127811432 0.2816796898841858 0.5118111371994019
0.3045555353164673 0.1186918169260025 0.6084360480308533
0.12865185737609863 0.1204240545630455 0.5756621360778809
0.2722014784812927 0.26200971007347107 0.4899004101753235
0.14960534870624542 0.1822187751531601 0.6258466243743896
0.1688101887702942 0.21878166496753693 0.6171742081642151
0.23256497085094452 0.17751576006412506 0.5757638812065125
0.22791768610477448 0.25366976857185364 0.610621452331543
0.1680123209953308 0.23291465640068054 0.649109959602356
0.2087174504995346 0.18744325637817383 0.5612869262695312
0.2321282923221588 0.28091728687286377 0.5086439847946167
0.22692282497882843 0.23195889592170715 0.6048024296760559
0.11138919740915298 0.25554949045181274 0.5676055550575256
0.26655113697052 0.13387806713581085 0.4747978448867798
0.17761191725730896 0.11615642160177231 0.49674850702285767
0.13082951307296753 0.26837265491485596 0.45761582255363464
0.2502293288707733 0.26729413866996765 0.590262770652771
0.14206255972385406 0.163249671459198 0.6181120276451111
0.159791499376297 0.2100667804479599 0.5016050934791565
0.15781277418136597 0.2390795201063156 0.5910407304763794
0.2643044888973236 0.16142120957374573 0.6313835382461548
0.19567960500717163 0.14312942326068878 0.5216692090034485
0.15958265960216522 0.11171381175518036 0.5450751185417175
0.22873486578464508 0.1843167543411255 0.5227552652359009
0.1687132865190506 0.1624009609222412 0.6391628384590149
0.28494179248809814 0.2546328902244568 0.5150536298751831
0.21443986892700195 0.17519156634807587 0.4752214252948761
0.18215401470661163 0.16253313422203064 0.5712321400642395
0.17674297094345093 0.21534082293510437 0.5589685440063477
0.23633794486522675 0.26859748363494873 0.4800788164138794
0.18937364220619202 0.11092939972877502 0.42904359102249146
0.26864326000213623 0.11456605792045593 0.5950461626052856
0.24102109670639038 0.23365183174610138 0.5149357914924622
0.23934122920036316 0.11368311196565628 0.6193833947181702
0.29249143600463867 0.1491715908050537 0.5772413015365601
0.13529309630393982 0.21463827788829803 0.5332457423210144
0.16267813742160797 0.16854891180992126 0.6432108283042908
0.20849314332008362 0.27726292610168457 0.5933699607849121
0.23547211289405823 0.28140023350715637 0.4667937159538269
0.2552020251750946 0.26416444778442383 0.5213814377784729
0.25805017352104187 0.2086350917816162 0.5075641870498657
0.19789986312389374 0.1329205483198166 0.6330233216285706
0.17296887934207916 0.13238084316253662 0.5672805309295654
0.1376970410346985 0.11248795688152313 0.5547568202018738
0.15947209298610687 0.10718098282814026 0.49803614616394043
0.2621748447418213 0.2884279191493988 0.5258457660675049
0.22353240847587585 0.21190159022808075 0.4903343617916107
0.23427711427211761 0.10762251168489456 0.6376250982284546
0.11519423872232437 0.2059207260608673 0.6090601086616516
0.28807562589645386 0.2577783465385437 0.5904784798622131
0.26001641154289246 0.16880886256694794 0.6328501105308533
0.19664345681667328 0.2269538938999176 0.48851439356803894
0.2754446864128113 0.1893075555562973 0.4722331464290619
0.1610245406627655 0.13909097015857697 0.4360452890396118
0.2605828046798706 0.1863684505224228 0.6354660391807556
0.11834321916103363 0.15260767936706543 0.4938657283782959
0.14019086956977844 0.2270834892988205 0.5059447288513184
0.17867782711982727 0.10715670883655548 0.5163892507553101
0.24131427705287933 0.2229757457971573 0.5619601011276245
0.2718312442302704 0.2737915515899658 0.5298488140106201
0.13792431354522705 0.16206946969032288 0.4582846462726593
0.2581601142883301 0.25176024436950684 0.49748578667640686
0.29578641057014465 0.15307249128818512 0.6036084890365601
0.11378834396600723 0.2223861664533615 0.654313862323761
0.14028853178024292 0.1143169105052948 0.6193506717681885
0.1785617172718048 0.2414918690919876 0.5402787327766418
0.27420127391815186 0.2514731287956238 0.5027830004692078
0.19892218708992004 0.11588606238365173 0.501624345779419
0.13071344792842865 0.2569030821323395 0.4814985692501068
0.2014671415090561 0.1614406257867813 0.5830825567245483
0.18499065935611725 0.23420259356498718 0.633583664894104
0.1873791664838791 0.15090370178222656 0.5038048028945923
0.19855253398418427 0.22842226922512054 0.6353172063827515
0.1675071269273758 0.14170515537261963 0.549202561378479
0.2767803966999054 0.20982614159584045 0.5557916164398193
0.1365225613117218 0.25023484230041504 0.49705445766448975
0.11519423872232437 0.2059207260608673 0.6090601086616516
0.28807562589645386 0.2577783465385437 0.5904784798622131
0.26001641154289246 0.16880886256694794 0.6328501105308533
0.19664345681667328 0.2269538938999176 0.48851439356803894
0.2754446864128113 0.1893075555562973 0.4722331464290619
0.1610245406627655 0.13909097015857697 0.4360452890396118
0.2605828046798706 0.1863684505224228 0.6354660391807556
0.11834321916103363 0.15260767936706543 0.4938657283782959
0.14019086956977844 0.2270834892988205 0.5059447288513184
0.17867782711982727 0.10715670883655548 0.5163892507553101
0.24131427705287933 0.2229757457971573 0.5619601011276245
0.2718312442302704 0.2737915515899658 0.5298488140106201
0.13792431354522705 0.16206946969032288 0.4582846462726593
0.21369674801826477 0.17832376062870026 0.4755854606628418
0.28885141015052795 0.2051742672920227 0.5369207262992859
0.15553994476795197 0.11459870636463165 0.6111661195755005
0.27368250489234924 0.2760177254676819 0.5051436424255371
0.11133858561515808 0.2505372166633606 0.4989508092403412
0.2844897210597992 0.2048976719379425 0.6043931841850281
0.13006210327148438 0.26010605692863464 0.5366955995559692
0.21391651034355164 0.17059138417243958 0.5018209218978882
0.25229689478874207 0.19630374014377594 0.6290931701660156
0.22604909539222717 0.17852872610092163 0.4694330394268036
0.31989115476608276 0.13473708927631378 0.4978157877922058
0.19045154750347137 0.147690087556839 0.48906272649765015
0.18409577012062073 0.25344353914260864 0.5896902680397034
0.138767808675766 0.10560888051986694 0.4957239031791687
0.21930451691150665 0.12639661133289337 0.5619143843650818
0.283540815114975 0.1542932242155075 0.5613507628440857
0.3032679557800293 0.1154279038310051 0.555436909198761
0.23095940053462982 0.19127468764781952 0.48499003052711487
0.2562580108642578 0.26560178399086 0.4878917932510376
0.2819404900074005 0.2686183750629425 0.4743868410587311
0.17110073566436768 0.23813189566135406 0.4864976704120636
0.2113414853811264 0.18698234856128693 0.5894904732704163
0.18270474672317505 0.21482767164707184 0.4646538496017456
0.12741027772426605 0.14301040768623352 0.5997381210327148
0.10909047722816467 0.2477370798587799 0.5813096165657043
0.3089822828769684 0.12793156504631042 0.46171754598617554
0.232181116938591 0.24321340024471283 0.6397410035133362
0.11790809780359268 0.20254185795783997 0.4891906678676605
0.27364063262939453 0.17181405425071716 0.5000649690628052
0.14446473121643066 0.14954443275928497 0.5986605286598206
0.22868035733699799 0.17299388349056244 0.5293685793876648
0.1891573667526245 0.13130468130111694 0.4910498857498169
0.20134352147579193 0.22482937574386597 0.45263999700546265
0.20487934350967407 0.2744463384151459 0.6165087223052979
0.15812063217163086 0.19076283276081085 0.5398862361907959
0.20066671073436737 0.19175876677036285 0.5005378127098083
0.12865185737609863 0.1204240545630455 0.5756621360778809
0.28724077343940735 0.18266154825687408 0.592930018901825
0.13709378242492676 0.19326657056808472 0.6384795308113098
0.2604922950267792 0.22332024574279785 0.49145469069480896
0.20719696581363678 0.12690523266792297 0.559307336807251
0.14508862793445587 0.13490542769432068 0.4861566126346588
0.2635418772697449 0.1886155605316162 0.47418612241744995
0.2253088355064392 0.2157401293516159 0.6388953924179077
0.2225191444158554 0.2097390592098236 0.6433308720588684
0.26667746901512146 0.28447645902633667 0.6031926870346069
0.14512504637241364 0.15471437573432922 0.5034182667732239
0.1608666181564331 0.1171342208981514 0.6294726729393005
0.30977511405944824 0.1655460000038147 0.6258399486541748
0.19655868411064148 0.1967558115720749 0.5721746683120728
0.2364596724510193 0.27441564202308655 0.5051771998405457
0.2634531557559967 0.29260802268981934 0.5681809782981873
0.2939022481441498 0.16171638667583466 0.5148738622665405
0.1233145073056221 0.11014266312122345 0.4960325062274933
0.3089822828769684 0.12793156504631042 0.46171754598617554
0.232181116938591 0.24321340024471283 0.6397410035133362
0.11790809780359268 0.20254185795783997 0.4891906678676605
0.2461838275194168 0.13598844408988953 0.4792598485946655
0.19969311356544495 0.11500617861747742 0.5415568351745605
0.2686443626880646 0.27142688632011414 0.5212783813476562
0.1377272605895996 0.14513973891735077 0.572401762008667
0.19974495470523834 0.23730626702308655 0.5116226673126221
0.2724001407623291 0.15610092878341675 0.5235937237739563
0.30019134283065796 0.22071945667266846 0.6405984163284302
0.20066671073436737 0.19175876677036285 0.5005378127098083
0.23449289798736572 0.1154671236872673 0.5832028388977051
0.2066582888364792 0.23379017412662506 0.5444844961166382
0.16957825422286987 0.1862793266773224 0.545184850692749
0.2722014784812927 0.26200971007347107 0.4899004101753235
0.13709378242492676 0.19326657056808472 0.6384795308113098
0.2604922950267792 0.22332024574279785 0.49145469069480896
0.20719696581363678 0.12690523266792297 0.559307336807251
0.14508862793445587 0.13490542769432068 0.4861566126346588
0.2635418772697449 0.1886155605316162 0.47418612241744995
0.2253088355064392 0.2157401293516159 0.6388953924179077
0.157105952501297 0.11430738866329193 0.4583800733089447
0.14512504637241364 0.15471437573432922 0.5034182667732239
0.1608666181564331 0.1171342208981514 0.6294726729393005
0.30977511405944824 0.1655460000038147 0.6258399486541748
0.16878022253513336 0.11022704094648361 0.5854145288467407
0.18334032595157623 0.1512293964624405 0.4737236201763153
0.14766071736812592 0.10898108780384064 0.6222463250160217
0.3089822828769684 0.12793156504631042 0.46171754598617554
0.232181116938591 0.24321340024471283 0.6397410035133362
0.11790809780359268 0.20254185795783997 0.4891906678676605
0.27364063262939453 0.17181405425071716 0.5000649690628052
0.2736407220363617 0.17181403934955597 0.5000650882720947
0.2686443626880646 0.27142688632011414 0.5212783813476562
0.1377272605895996 0.14513973891735077 0.572401762008667
0.19974495470523834 0.23730626702308655 0.5116226673126221
0.1256127953529358 0.18372397124767303 0.5879108905792236
0.20487934350967407 0.2744463384151459 0.6165087223052979
0.30019134283065796 0.22071945667266846 0.6405984163284302
0.19059450924396515 0.10533080250024796 0.5758854746818542
0.23449289798736572 0.1154671236872673 0.5832028388977051
0.16957825422286987 0.1862793266773224 0.545184850692749
0.29126492142677307 0.18134747445583344 0.490874707698822
0.19377325475215912 0.16679297387599945 0.4795415997505188
0.28017306327819824 0.20356187224388123 0.46999722719192505
0.1515224128961563 0.2670077085494995 0.5145843625068665
0.2321282923221588 0.28091728687286377 0.5086439847946167
0.21942497789859772 0.26468923687934875 0.5525056719779968
0.18868975341320038 0.23870190978050232 0.5665549635887146
0.21473932266235352 0.20885834097862244 0.587261974811554
0.12059642374515533 0.1766430288553238 0.5449395179748535
0.11842881888151169 0.19840386509895325 0.4762824475765228
0.19473592936992645 0.20201025903224945 0.6215896606445312
0.17278218269348145 0.2622411251068115 0.5935521125793457
0.2882990539073944 0.2016078233718872 0.4697116017341614
0.1259959191083908 0.25242143869400024 0.4708525836467743
0.15327274799346924 0.11385063827037811 0.4865615665912628
0.1349964290857315 0.1734132617712021 0.5232482552528381
0.29596012830734253 0.18542908132076263 0.5186371803283691
0.2472888082265854 0.18862342834472656 0.5222439765930176
0.31448864936828613 0.13787920773029327 0.570297360420227
0.23590615391731262 0.21983309090137482 0.6366861462593079
0.15252965688705444 0.16434308886528015 0.551689624786377
0.12470304220914841 0.17024807631969452 0.4984056353569031
0.2342258244752884 0.11148573458194733 0.5770384669303894
0.2694358229637146 0.13507579267024994 0.5428562760353088
0.16812671720981598 0.12180423736572266 0.6182093024253845
0.2655318081378937 0.14102868735790253 0.46177470684051514
0.220811665058136 0.16067418456077576 0.5940336585044861
0.21477024257183075 0.27103254199028015 0.5650243163108826
0.3132677674293518 0.11764441430568695 0.48893338441848755
0.19674402475357056 0.12146949768066406 0.555016815662384
0.1663842499256134 0.1304631531238556 0.5116387605667114
0.23015986382961273 0.12214173376560211 0.6348134279251099
0.2514720857143402 0.23683053255081177 0.6286839842796326
0.15582942962646484 0.14062084257602692 0.5642285943031311
0.1304214596748352 0.260113388299942 0.5744161605834961
0.17216314375400543 0.1184605211019516 0.6240478754043579
0.13709378242492676 0.19326657056808472 0.6384795308113098
0.1325433999300003 0.11261770874261856 0.5279359817504883
0.17629916965961456 0.1852218359708786 0.467725545167923
0.18739137053489685 0.1107129156589508 0.5203143358230591
0.11495975404977798 0.26134899258613586 0.45324355363845825
0.1820632368326187 0.19123445451259613 0.4748888611793518
0.2230520397424698 0.19211702048778534 0.5173819065093994
0.2914206385612488 0.16226358711719513 0.5106469988822937
0.30926236510276794 0.13439425826072693 0.5090625286102295
0.17041097581386566 0.23227187991142273 0.5886189937591553
0.2347075194120407 0.23090535402297974 0.541251003742218
0.14490249752998352 0.19243432581424713 0.5563528537750244
0.31072139739990234 0.1698945164680481 0.44128337502479553
0.23893366754055023 0.1134168952703476 0.5578562021255493
0.2317444235086441 0.130855992436409 0.6350517272949219
0.21100378036499023 0.23516017198562622 0.5450045466423035
0.27093586325645447 0.25388818979263306 0.6037817597389221
0.2038714736700058 0.13575750589370728 0.5310793519020081
0.2777137756347656 0.1431582123041153 0.5243014097213745
0.12197484076023102 0.13460832834243774 0.547082245349884
0.14978159964084625 0.25956547260284424 0.629351794719696
0.22878672182559967 0.212486132979393 0.49179360270500183
0.2808440029621124 0.21360179781913757 0.6091134548187256
0.18263846635818481 0.2310982346534729 0.6351372599601746
0.11606349796056747 0.20474372804164886 0.5252724885940552
0.28782016038894653 0.1507631540298462 0.6302601099014282
0.13050392270088196 0.2577080726623535 0.5838283896446228
0.25136736035346985 0.20888414978981018 0.6303888559341431
0.25227877497673035 0.22020874917507172 0.5424679517745972
0.14394967257976532 0.21302303671836853 0.48301512002944946
0.131562739610672 0.19596204161643982 0.6049731373786926
0.24660317599773407 0.23560971021652222 0.5994672775268555
0.28885141015052795 0.2051742672920227 0.5369207262992859
0.2840782105922699 0.2036578357219696 0.5466175675392151
0.20455440878868103 0.14318986237049103 0.6015818119049072
0.21942497789859772 0.26468923687934875 0.5525056719779968
0.18868975341320038 0.23870190978050232 0.5665549635887146
0.21473932266235352 0.20885834097862244 0.587261974811554
0.12059642374515533 0.1766430288553238 0.5449395179748535
0.11842881888151169 0.19840386509895325 0.4762824475765228
0.19473592936992645 0.20201025903224945 0.6215896606445312
0.17278218269348145 0.2622411251068115 0.5935521125793457
0.2882990539073944 0.2016078233718872 0.4697116017341614
0.1259959191083908 0.25242143869400024 0.4708525836467743
0.15327274799346924 0.11385063827037811 0.4865615665912628
0.1349964290857315 0.1734132617712021 0.5232482552528381
0.29596012830734253 0.18542908132076263 0.5186371803283691
0.2583400011062622 0.1688327193260193 0.6253525614738464
0.2801818549633026 0.23611311614513397 0.5843476057052612
0.1649186760187149 0.12308643758296967 0.6411576271057129
0.2625066936016083 0.13762226700782776 0.5489633083343506
0.15947924554347992 0.11444516479969025 0.435041606426239
0.11993741244077682 0.25566408038139343 0.5660990476608276
0.30451610684394836 0.12391124665737152 0.4564632773399353
0.180774986743927 0.21060481667518616 0.5000928044319153
0.25836849212646484 0.1934235841035843 0.6017023921012878
0.23733152449131012 0.21040204167366028 0.4454464614391327
0.1360325813293457 0.20564234256744385 0.6171376705169678
0.12589547038078308 0.27028533816337585 0.45648181438446045
0.136952742934227 0.2255222648382187 0.6072906255722046
0.3151014447212219 0.13015562295913696 0.48301663994789124
0.1494181901216507 0.1305665373802185 0.4407661557197571
0.15484462678432465 0.21696360409259796 0.6247009038925171
0.2429283857345581 0.14140264689922333 0.5527951717376709
0.15553994476795197 0.11459870636463165 0.6111661195755005
0.2914206385612488 0.16226358711719513 0.5106469988822937
0.30926236510276794 0.13439425826072693 0.5090625286102295
0.17041097581386566 0.23227187991142273 0.5886189937591553
0.2347075194120407 0.23090535402297974 0.541251003742218
0.14490249752998352 0.19243432581424713 0.5563528537750244
0.31072139739990234 0.1698945164680481 0.44128337502479553
0.23893366754055023 0.1134168952703476 0.5578562021255493
0.2317444235086441 0.130855992436409 0.6350517272949219
0.21100378036499023 0.23516017198562622 0.5450045466423035
0.21835334599018097 0.23809508979320526 0.49358266592025757
0.27073171734809875 0.2541173994541168 0.603529691696167
0.20995664596557617 0.11013577878475189 0.5277354717254639
0.32146450877189636 0.1505824327468872 0.6347734332084656
0.2371143251657486 0.1870146095752716 0.5488560795783997
0.14824356138706207 0.23952925205230713 0.5138599276542664
0.13013486564159393 0.25175729393959045 0.4891049265861511
0.15869753062725067 0.11556407809257507 0.557915210723877
0.2808440029621124 0.21360179781913757 0.6091134548187256
0.18263846635818481 0.2310982346534729 0.6351372599601746
0.11606349796056747 0.20474372804164886 0.5252724885940552
0.28782016038894653 0.1507631540298462 0.6302601099014282
0.13050392270088196 0.2577080726623535 0.5838283896446228
0.25136736035346985 0.20888414978981018 0.6303888559341431
0.25227877497673035 0.22020874917507172 0.5424679517745972
0.25705984234809875 0.13358056545257568 0.5777544975280762
0.15035830438137054 0.17632049322128296 0.6219021081924438
0.131562739610672 0.19596204161643982 0.6049731373786926
0.24660317599773407 0.23560971021652222 0.5994672775268555
0.16387738287448883 0.13177752494812012 0.6247851848602295
0.1149422898888588 0.23286180198192596 0.6525778770446777
0.11698518693447113 0.15615645051002502 0.5322487354278564
0.2718312442302704 0.2737915515899658 0.5298488140106201
0.2914206385612488 0.16226358711719513 0.5106469988822937
0.2347075194120407 0.23090535402297974 0.541251003742218
0.14490249752998352 0.19243432581424713 0.5563528537750244
0.31072139739990234 0.1698945164680481 0.44128337502479553
0.23893366754055023 0.1134168952703476 0.5578562021255493
0.2317444235086441 0.130855992436409 0.6350517272949219
0.21835334599018097 0.23809508979320526 0.49358266592025757
0.27073171734809875 0.2541173994541168 0.603529691696167
0.20995664596557617 0.11013577878475189 0.5277354717254639
0.32146450877189636 0.1505824327468872 0.6347734332084656
0.2371143251657486 0.1870146095752716 0.5488560795783997
0.14824356138706207 0.23952925205230713 0.5138599276542664
0.13013486564159393 0.25175729393959045 0.4891049265861511
0.15869753062725067 0.11556407809257507 0.557915210723877
0.2735673785209656 0.22213773429393768 0.5267664194107056
0.11792600154876709 0.18917050957679749 0.5435852408409119
0.2073613703250885 0.1143193170428276 0.6375948786735535
0.23912447690963745 0.15500491857528687 0.5675981640815735
0.15735533833503723 0.1062212735414505 0.5185206532478333
0.16297338902950287 0.1808975487947464 0.5845986604690552
0.28557583689689636 0.21395859122276306 0.6198870539665222
0.19313089549541473 0.18563443422317505 0.5447779893875122
0.29169341921806335 0.2330431193113327 0.5077840685844421
0.131562739610672 0.19596204161643982 0.6049731373786926
0.24660317599773407 0.23560971021652222 0.5994672775268555
0.16387738287448883 0.13177752494812012 0.6247851848602295
0.1149422898888588 0.23286180198192596 0.6525778770446777
0.11698518693447113 0.15615645051002502 0.5322487354278564
0.23323695361614227 0.23448634147644043 0.4956057369709015
0.31737056374549866 0.14217457175254822 0.5170565247535706
0.21954745054244995 0.17896030843257904 0.6306098699569702
0.13103576004505157 0.13901817798614502 0.43629762530326843
0.17278218269348145 0.2622411251068115 0.5935521125793457
0.2882990539073944 0.2016078233718872 0.4697116017341614
0.1259959191083908 0.25242143869400024 0.4708525836467743
0.15327274799346924 0.11385063827037811 0.4865615665912628
0.1349964290857315 0.1734132617712021 0.5232482552528381
0.29596012830734253 0.18542908132076263 0.5186371803283691
0.2472888082265854 0.18862342834472656 0.5222439765930176
0.31448864936828613 0.13787920773029327 0.570297360420227
0.23590615391731262 0.21983309090137482 0.6366861462593079
0.2792036831378937 0.13776005804538727 0.4877639412879944
0.1513420045375824 0.20387805998325348 0.6105155944824219
0.2820659875869751 0.19463923573493958 0.6023991107940674
0.2576732933521271 0.14889924228191376 0.45532503724098206
0.253013551235199 0.11142706125974655 0.5090087056159973
0.12954656779766083 0.15717969834804535 0.4593046307563782
0.16312432289123535 0.1425677239894867 0.4561639726161957
0.1810985505580902 0.14847253262996674 0.5970917344093323
0.28021240234375 0.2048816680908203 0.5342212319374084
0.24056948721408844 0.22014784812927246 0.5003384947776794
0.1490546315908432 0.2596055865287781 0.5537809729576111
0.19733138382434845 0.21168863773345947 0.5082862973213196
0.19227521121501923 0.19144785404205322 0.497722327709198
0.2506749927997589 0.24207700788974762 0.4760251045227051
0.20726168155670166 0.11004778742790222 0.5622562766075134
0.24013173580169678 0.24207216501235962 0.523415744304657
0.12397047132253647 0.24956199526786804 0.4780503511428833
0.1290101408958435 0.10174660384654999 0.6404959559440613
0.27449455857276917 0.14970658719539642 0.6302352547645569
0.2624591886997223 0.2504713833332062 0.5774509310722351
0.2678416073322296 0.1309421956539154 0.617928147315979
0.13765448331832886 0.145600363612175 0.5730288028717041
0.21369674801826477 0.17832376062870026 0.4755854606628418
0.2472888082265854 0.18862342834472656 0.5222439765930176
0.31448864936828613 0.13787920773029327 0.570297360420227
0.23590615391731262 0.21983309090137482 0.6366861462593079
0.15252965688705444 0.16434308886528015 0.551689624786377
0.12470304220914841 0.17024807631969452 0.4984056353569031
0.2342258244752884 0.11148573458194733 0.5770384669303894
0.2694358229637146 0.13507579267024994 0.5428562760353088
0.16812671720981598 0.12180423736572266 0.6182093024253845
0.2655318081378937 0.14102868735790253 0.46177470684051514
0.220811665058136 0.16067418456077576 0.5940336585044861
0.21477024257183075 0.27103254199028015 0.5650243163108826
0.3132677674293518 0.11764441430568695 0.48893338441848755
0.19674402475357056 0.12146949768066406 0.555016815662384
0.1663842499256134 0.1304631531238556 0.5116387605667114
0.2269703447818756 0.12501636147499084 0.556033194065094
0.14882558584213257 0.2477603554725647 0.46217960119247437
0.12565530836582184 0.23086951673030853 0.6153307557106018
0.2752150595188141 0.15700684487819672 0.504633903503418
0.1412132978439331 0.2527121305465698 0.5143777132034302
0.24881167709827423 0.17643512785434723 0.5633099675178528
0.16024789214134216 0.17772114276885986 0.6267834901809692
0.1176263615489006 0.22755078971385956 0.47963258624076843
0.11399824172258377 0.2625533640384674 0.48506930470466614
0.12461668252944946 0.15815110504627228 0.5660104155540466
0.28547340631484985 0.16716766357421875 0.4781053960323334
0.19289876520633698 0.16918227076530457 0.642859160900116
0.20607595145702362 0.2039714753627777 0.6044093370437622
0.23355768620967865 0.18707109987735748 0.5287135243415833
0.23932082951068878 0.15283523499965668 0.46078431606292725
0.29004111886024475 0.21056388318538666 0.6093184947967529
0.22732321918010712 0.16833151876926422 0.5247495770454407
0.21369674801826477 0.17832376062870026 0.4755854606628418
0.23772920668125153 0.13879655301570892 0.5793194770812988
0.11798721551895142 0.15355348587036133 0.5792631506919861
0.17275652289390564 0.11207251995801926 0.5440468788146973
0.13061514496803284 0.25370487570762634 0.5745291113853455
0.31721198558807373 0.12271637469530106 0.544247567653656
0.23777465522289276 0.17932739853858948 0.5006642937660217
0.23729392886161804 0.29057055711746216 0.4842868447303772
0.12679366767406464 0.13581965863704681 0.5669926404953003
0.3090868294239044 0.14328953623771667 0.6022546291351318
0.2429283857345581 0.14140264689922333 0.5527951717376709
0.1938086748123169 0.19408287107944489 0.6464178562164307
0.1713046431541443 0.23280780017375946 0.4580082595348358
0.2771092355251312 0.23790429532527924 0.6281550526618958
0.2976702153682709 0.12435391545295715 0.5632611513137817
0.30925050377845764 0.1915993094444275 0.6037711501121521
0.1762586385011673 0.26328134536743164 0.6421303153038025
0.23128625750541687 0.11851409077644348 0.5316723585128784
0.2477395385503769 0.15700769424438477 0.5927242040634155
0.29481184482574463 0.2085234820842743 0.443327397108078
0.2042764574289322 0.17284554243087769 0.6363217830657959
0.25781288743019104 0.1480676531791687 0.5322940945625305
0.29656848311424255 0.19544637203216553 0.565406858921051
0.2604965567588806 0.29135119915008545 0.4916803538799286
0.24721838533878326 0.12183050811290741 0.5290643572807312
0.1618776172399521 0.10588353127241135 0.5174404382705688
0.3165254294872284 0.1510045826435089 0.572837769985199
0.2822405695915222 0.15356387197971344 0.626096785068512
0.2203480303287506 0.13816313445568085 0.4479057490825653
0.23161552846431732 0.12663918733596802 0.5505396723747253
0.18993081152439117 0.1756473332643509 0.5885249376296997
0.2906123995780945 0.11834334582090378 0.520634651184082
0.28885141015052795 0.2051742672920227 0.5369207262992859
0.12940657138824463 0.2376105636358261 0.6085351705551147
0.12763570249080658 0.20454096794128418 0.5377992987632751
0.14854079484939575 0.18635161221027374 0.5811659097671509
0.27309098839759827 0.1362752616405487 0.48990294337272644
0.1662232130765915 0.18390227854251862 0.48044127225875854
0.20429930090904236 0.28109273314476013 0.46059125661849976
0.18898971378803253 0.17894954979419708 0.5787238478660583
0.21658869087696075 0.2695574164390564 0.5155994892120361
0.16506735980510712 0.11806583404541016 0.4831806421279907
0.12743507325649261 0.16684521734714508 0.47618454694747925
0.2703624963760376 0.2864450216293335 0.4967010021209717
0.2049778699874878 0.10973052680492401 0.4953092634677887
0.159656822681427 0.15677906572818756 0.6065174341201782
0.21949723362922668 0.23895250260829926 0.5498051643371582
0.21603703498840332 0.16743630170822144 0.6279584765434265
0.23843738436698914 0.2792961001396179 0.5467321872711182
0.19488954544067383 0.20936641097068787 0.5584584474563599
0.17716357111930847 0.21954146027565002 0.6404051780700684
0.17055746912956238 0.19694893062114716 0.5810361504554749
0.12584733963012695 0.13834577798843384 0.47084152698516846
0.15759579837322235 0.1682836264371872 0.5313471555709839
0.14010348916053772 0.2515721023082733 0.6177070140838623
0.21772512793540955 0.18453408777713776 0.4613429009914398
0.22018912434577942 0.16304628551006317 0.6049113273620605
0.20957447588443756 0.16323836147785187 0.6278717517852783
0.16133736073970795 0.26141780614852905 0.6237058639526367
0.18487459421157837 0.2600032687187195 0.5705007910728455
0.29702261090278625 0.20850437879562378 0.6198800802230835
0.23736095428466797 0.20548969507217407 0.6217312812805176
0.16767621040344238 0.17553259432315826 0.5074090957641602
0.271340548992157 0.12253042310476303 0.62074214220047
0.2066582888364792 0.23379017412662506 0.5444844961166382
0.19472388923168182 0.12696054577827454 0.5579671263694763
0.2797973155975342 0.2043379247188568 0.6412851810455322
0.2472771853208542 0.263211190700531 0.5059834122657776
0.1562391221523285 0.22446607053279877 0.4792211353778839
0.1414790153503418 0.1606520712375641 0.561600923538208
0.30564573407173157 0.15472149848937988 0.4968513548374176
0.1812785565853119 0.14143770933151245 0.6283224821090698
0.28420326113700867 0.18767350912094116 0.6242226958274841
0.1669289767742157 0.17374467849731445 0.5787336230278015
0.1997266411781311 0.19684500992298126 0.636120080947876
0.1292104423046112 0.10893496870994568 0.529036819934845
0.2275352030992508 0.15464866161346436 0.5321821570396423
0.25666260719299316 0.23057226836681366 0.5240705609321594
0.15018053352832794 0.2383526712656021 0.4775950014591217
0.12119109183549881 0.25227734446525574 0.4516294002532959
0.20753051340579987 0.14642995595932007 0.45478254556655884
0.27904367446899414 0.25029364228248596 0.4617820978164673
0.2774758040904999 0.18073420226573944 0.5511304140090942
0.24278482794761658 0.12218796461820602 0.6340394616127014
0.1439974009990692 0.13338956236839294 0.46559157967567444
0.20587269961833954 0.19907146692276 0.5329870581626892
0.2779136300086975 0.2429649382829666 0.4919893443584442
0.1780131757259369 0.14587832987308502 0.62628173828125
0.2423514872789383 0.11085005849599838 0.49278348684310913
0.1462767869234085 0.1466568410396576 0.45482417941093445
0.21032564342021942 0.2530179023742676 0.478916734457016
0.17910395562648773 0.20013085007667542 0.4429154098033905
0.1566573977470398 0.139603853225708 0.5793241262435913
0.19275936484336853 0.2680477499961853 0.5449174642562866
0.24622796475887299 0.259909987449646 0.4777464270591736
0.1428195983171463 0.10519460588693619 0.6010888814926147
0.16957825422286987 0.1862793266773224 0.545184850692749
0.29596012830734253 0.18542908132076263 0.5186371803283691
0.2472888082265854 0.18862342834472656 0.5222439765930176
0.31448864936828613 0.13787920773029327 0.570297360420227
0.31448864936828613 0.13787920773029327 0.570297360420227
0.23590615391731262 0.21983309090137482 0.6366861462593079
0.15252965688705444 0.16434308886528015 0.551689624786377
0.16812671720981598 0.12180423736572266 0.6182093024253845
0.2655318081378937 0.14102868735790253 0.46177470684051514
0.220811665058136 0.16067418456077576 0.5940336585044861
0.21477024257183075 0.27103254199028015 0.5650243163108826
0.21477024257183075 0.27103254199028015 0.5650243163108826
0.3132677674293518 0.11764441430568695 0.48893338441848755
0.19674402475357056 0.12146949768066406 0.555016815662384
0.16085632145404816 0.24004852771759033 0.5906199812889099
0.23748956620693207 0.12693896889686584 0.6189619302749634
0.1601782590150833 0.124495729804039 0.6320353746414185
0.14235977828502655 0.1858084499835968 0.5060239434242249
0.17695821821689606 0.2545449435710907 0.5564140677452087
0.29963767528533936 0.15070050954818726 0.5392511487007141
0.1756487339735031 0.22115544974803925 0.5037353038787842
0.2976702153682709 0.12435391545295715 0.5632611513137817
0.2742882966995239 0.30146872997283936 0.5022841095924377
0.30373069643974304 0.19633811712265015 0.45253801345825195
0.12387058138847351 0.23567107319831848 0.63741534948349
0.18945005536079407 0.1753515750169754 0.48863402009010315
0.20894479751586914 0.10747159272432327 0.626887321472168
0.1462767869234085 0.1466568410396576 0.45482417941093445
0.21032564342021942 0.2530179023742676 0.478916734457016
0.17910395562648773 0.20013085007667542 0.4429154098033905
0.1566573977470398 0.139603853225708 0.5793241262435913
0.19275936484336853 0.2680477499961853 0.5449174642562866
0.2914206385612488 0.16226358711719513 0.5106469988822937
0.1992681622505188 0.14363135397434235 0.6042365431785583
0.29913651943206787 0.11263023316860199 0.584396481513977
0.15581542253494263 0.1681871861219406 0.44694432616233826
0.13109293580055237 0.24359992146492004 0.5743451118469238
0.1534758061170578 0.10920310765504837 0.4468172490596771
0.2554977536201477 0.18438631296157837 0.5320762991905212
0.25714021921157837 0.13096944987773895 0.6025678515434265
0.27985671162605286 0.260830819606781 0.4868564307689667
0.19592240452766418 0.1475445181131363 0.5651940703392029
0.2218008190393448 0.144023135304451 0.6211479306221008
0.29169389605522156 0.21035389602184296 0.6292698383331299
0.23944306373596191 0.1759682595729828 0.5552046895027161
0.1873326450586319 0.12202806025743484 0.4809933304786682
0.21628116071224213 0.1638297140598297 0.473995178937912
0.21421024203300476 0.1082736998796463 0.55265873670578
0.1958407461643219 0.15102076530456543 0.5430525541305542
0.152930349111557 0.1355958729982376 0.5029979348182678
0.2869367003440857 0.16124850511550903 0.6388897895812988
0.29940518736839294 0.20091648399829865 0.5430505275726318
0.27048084139823914 0.2576085031032562 0.6000519394874573
0.2290433794260025 0.26787471771240234 0.5516772866249084
0.23371081054210663 0.13121427595615387 0.6150577068328857
0.1326374113559723 0.17850244045257568 0.5681358575820923
0.18917788565158844 0.21233046054840088 0.5007712841033936
0.18917788565158844 0.21233046054840088 0.5007712841033936
0.20473647117614746 0.24780485033988953 0.5806394815444946
0.17746752500534058 0.22860950231552124 0.5386514067649841
0.2249307632446289 0.18000365793704987 0.5210002064704895
0.11864998191595078 0.12921851873397827 0.45853275060653687
0.1810779571533203 0.1757972538471222 0.5857969522476196
0.23555831611156464 0.28982821106910706 0.4858575165271759
0.1149422898888588 0.23286180198192596 0.6525778770446777
0.1326374113559723 0.17850244045257568 0.5681358575820923
0.18917788565158844 0.21233046054840088 0.5007712841033936
0.20473647117614746 0.24780485033988953 0.5806394815444946
0.17746752500534058 0.22860950231552124 0.5386514067649841
0.2249307632446289 0.18000365793704987 0.5210002064704895
0.11864998191595078 0.12921851873397827 0.45853275060653687
0.1810779571533203 0.1757972538471222 0.5857969522476196
0.23555831611156464 0.28982821106910706 0.4858575165271759
0.2546931207180023 0.19333556294441223 0.4792249798774719
0.1363263577222824 0.1572333425283432 0.5534112453460693
0.1856299340724945 0.17341871559619904 0.46288686990737915
0.2956377863883972 0.2262280136346817 0.5851941108703613
0.16707827150821686 0.1397164762020111 0.5203526616096497
0.30709993839263916 0.1486303061246872 0.5519120097160339
0.28237172961235046 0.17886677384376526 0.4760608375072479
0.2427346110343933 0.22633491456508636 0.6148304343223572
0.13457220792770386 0.24192090332508087 0.51849365234375
0.26974913477897644 0.12593041360378265 0.6249425411224365
0.21526893973350525 0.24434222280979156 0.5958082675933838
0.12084075808525085 0.12705831229686737 0.4876565635204315
0.26527324318885803 0.29627370834350586 0.47551462054252625
0.16783270239830017 0.23622438311576843 0.5984786152839661
0.13915517926216125 0.107914999127388 0.5421398878097534
0.27701127529144287 0.22813822329044342 0.511630117893219
0.16420796513557434 0.12068800628185272 0.5458465218544006
0.16489797830581665 0.13256143033504486 0.5150503516197205
0.2536390423774719 0.12126969546079636 0.47960588335990906
0.12940657138824463 0.2376105636358261 0.6085351705551147
0.18008878827095032 0.2459644228219986 0.550681471824646
0.17024767398834229 0.15450169146060944 0.6146461367607117
0.12618692219257355 0.11571929603815079 0.5602127313613892
0.16612555086612701 0.2500201463699341 0.5884131789207458
0.2249307632446289 0.18000365793704987 0.5210002064704895
0.11864998191595078 0.12921851873397827 0.45853275060653687
0.1810779571533203 0.1757972538471222 0.5857969522476196
0.23555831611156464 0.28982821106910706 0.4858575165271759
0.16316720843315125 0.13461950421333313 0.49959102272987366
0.21385598182678223 0.11116022616624832 0.46638065576553345
0.21272945404052734 0.14522294700145721 0.6431105136871338
0.1389041692018509 0.10584736615419388 0.49907225370407104
0.28481224179267883 0.11806827783584595 0.48353311419487
0.18820075690746307 0.22242721915245056 0.6473348736763
0.29918062686920166 0.11345338821411133 0.6042210459709167
0.30242684483528137 0.1429220736026764 0.5059758424758911
0.2515680491924286 0.2619515061378479 0.5619231462478638
0.1830921173095703 0.14921438694000244 0.5293200612068176
0.2840782105922699 0.2036578357219696 0.5466175675392151
0.20455440878868103 0.14318986237049103 0.6015818119049072
0.21942497789859772 0.26468923687934875 0.5525056719779968
0.18868975341320038 0.23870190978050232 0.5665549635887146
0.21473932266235352 0.20885834097862244 0.587261974811554
0.12059642374515533 0.1766430288553238 0.5449395179748535
0.21526893973350525 0.24434222280979156 0.5958082675933838
0.12084075808525085 0.12705831229686737 0.4876565635204315
0.26527324318885803 0.29627370834350586 0.47551462054252625
0.16783270239830017 0.23622438311576843 0.5984786152839661
0.13915517926216125 0.107914999127388 0.5421398878097534
0.27701127529144287 0.22813822329044342 0.511630117893219
0.16420796513557434 0.12068800628185272 0.5458465218544006
0.16489797830581665 0.13256143033504486 0.5150503516197205
0.2536390423774719 0.12126969546079636 0.47960588335990906
0.12940657138824463 0.2376105636358261 0.6085351705551147
0.12763570249080658 0.20454096794128418 0.5377992987632751
0.28560158610343933 0.14760863780975342 0.544397234916687
0.1363263577222824 0.1572333425283432 0.5534112453460693
0.2358739972114563 0.2297145426273346 0.6088433861732483
0.30595308542251587 0.16816271841526031 0.586752712726593
0.2077602595090866 0.24150075018405914 0.5965208411216736
0.2751718759536743 0.2824631929397583 0.46898138523101807
0.21157507598400116 0.12209901958703995 0.547984778881073
0.20429930090904236 0.28109273314476013 0.46059125661849976
0.18898971378803253 0.17894954979419708 0.5787238478660583
0.21658869087696075 0.2695574164390564 0.5155994892120361
0.16506735980510712 0.11806583404541016 0.4831806421279907
0.12743507325649261 0.16684521734714508 0.47618454694747925
0.2703624963760376 0.2864450216293335 0.4967010021209717
0.2049778699874878 0.10973052680492401 0.4953092634677887
0.159656822681427 0.15677906572818756 0.6065174341201782
0.21949723362922668 0.23895250260829926 0.5498051643371582
0.21603703498840332 0.16743630170822144 0.6279584765434265
0.23843738436698914 0.2792961001396179 0.5467321872711182
0.19488954544067383 0.20936641097068787 0.5584584474563599
0.17716357111930847 0.21954146027565002 0.6404051780700684
0.17055746912956238 0.19694893062114716 0.5810361504554749
0.12584733963012695 0.13834577798843384 0.47084152698516846
0.15759579837322235 0.1682836264371872 0.5313471555709839
0.14010348916053772 0.2515721023082733 0.6177070140838623
0.2695007026195526 0.15201637148857117 0.6185512542724609
0.1266847401857376 0.19246254861354828 0.5089955925941467
0.24303176999092102 0.27335843443870544 0.6120052933692932
0.2665693759918213 0.18529242277145386 0.632906436920166
0.20521801710128784 0.14265529811382294 0.5147146582603455
0.1259172260761261 0.10311368107795715 0.5865526795387268
0.13741232454776764 0.1522814780473709 0.5699381232261658
0.28960466384887695 0.2500161826610565 0.5815838575363159
0.18820075690746307 0.22242721915245056 0.6473348736763
0.19674402475357056 0.12146949768066406 0.555016815662384
0.16085632145404816 0.24004852771759033 0.5906199812889099
0.23748956620693207 0.12693896889686584 0.6189619302749634
0.1601782590150833 0.124495729804039 0.6320353746414185
0.14235977828502655 0.1858084499835968 0.5060239434242249
0.15978814661502838 0.26867595314979553 0.5664534568786621
0.29963767528533936 0.15070050954818726 0.5392511487007141
