ply
format ascii 1.0
element vertex 820
property float x
property float y
property float z
end_header
0.16980257630348206 0.11341475695371628 0.4496636986732483
0.15468044579029083 0.14110155403614044 0.582105815410614
0.17935222387313843 0.19582636654376984 0.5257048606872559
0.17733825743198395 0.26663434505462646 0.5248094797134399
0.22840791940689087 0.14732016623020172 0.6296840906143188
0.2519133985042572 0.1940060406923294 0.5713372826576233
0.21676792204380035 0.1671256124973297 0.6070395112037659
0.31278714537620544 0.1303689181804657 0.4373343288898468
0.22288046777248383 0.23429140448570251 0.5851038694381714
0.24459201097488403 0.11999806761741638 0.47631630301475525
0.20415757596492767 0.160244882106781 0.43954792618751526
0.2501121163368225 0.19645322859287262 0.5264450907707214
0.16843821108341217 0.13895955681800842 0.4900401830673218
0.12465815246105194 0.25570911169052124 0.466484397649765
0.23330894112586975 0.13062235713005066 0.5771942138671875
0.19552460312843323 0.274100124835968 0.46497970819473267
0.2360098958015442 0.12497743219137192 0.48509249091148376
0.1725667417049408 0.22588063776493073 0.6238558292388916
0.25171542167663574 0.26500603556632996 0.5421392321586609
0.2890428602695465 0.14143779873847961 0.5574302673339844
0.22234417498111725 0.20953315496444702 0.4832651615142822
0.21170243620872498 0.17841491103172302 0.4526573717594147
0.263362854719162 0.2675653398036957 0.48869428038597107
0.21998970210552216 0.17177096009254456 0.4603657126426697
0.27236154675483704 0.27638688683509827 0.6304856538772583
0.12469702959060669 0.21244797110557556 0.5676554441452026
0.2416526824235916 0.1426459103822708 0.5786493420600891
0.2652610242366791 0.21854321658611298 0.532960832118988
0.23771744966506958 0.2438858300447464 0.5980035066604614
0.30585789680480957 0.12249763309955597 0.5604742169380188
0.13188830018043518 0.14375582337379456 0.592086136341095
0.2043926864862442 0.12205804884433746 0.5657371282577515
0.20736779272556305 0.1285618245601654 0.5966311693191528
0.19393572211265564 0.2312004715204239 0.48371413350105286
0.15201599895954132 0.15351665019989014 0.5290230512619019
0.196258544921875 0.2358161062002182 0.5914754271507263
0.1935289204120636 0.13250626623630524 0.5376560688018799
0.19894352555274963 0.17790766060352325 0.45804262161254883
0.16012078523635864 0.21661297976970673 0.455850750207901
0.2839859127998352 0.17230887711048126 0.5761812329292297
0.24169586598873138 0.2674066424369812 0.5765812993049622
0.20113079249858856 0.13250893354415894 0.6108577847480774
0.2259139120578766 0.1435087025165558 0.5533228516578674
0.21755024790763855 0.1354634314775467 0.5469983816146851
0.11421079188585281 0.17750400304794312 0.5970194339752197
0.19144967198371887 0.18229249119758606 0.5119587779045105
0.22893311083316803 0.25743046402931213 0.5037608742713928
0.17695240676403046 0.2616729140281677 0.49732473492622375
0.28410738706588745 0.1429319679737091 0.5147627592086792
0.3004216253757477 0.1731552928686142 0.4767593741416931
0.277043879032135 0.22658224403858185 0.5152546167373657
0.2538188695907593 0.2085885852575302 0.5696099996566772
0.2222689539194107 0.16994643211364746 0.4571807086467743
0.28906139731407166 0.28608018159866333 0.4853449761867523
0.11897271871566772 0.20806056261062622 0.4884842038154602
0.24145931005477905 0.24489884078502655 0.49660396575927734
0.2961314022541046 0.25130927562713623 0.49424290657043457
0.2654036581516266 0.12808117270469666 0.5418682098388672
0.15468044579029083 0.14110155403614044 0.582105815410614
0.17935222387313843 0.19582636654376984 0.5257048606872559
0.17733825743198395 0.26663434505462646 0.5248094797134399
0.22840791940689087 0.14732016623020172 0.6296840906143188
0.2519133985042572 0.1940060406923294 0.5713372826576233
0.21676792204380035 0.1671256124973297 0.6070395112037659
0.1250615417957306 0.10323464870452881 0.5412861704826355
0.14828893542289734 0.171012282371521 0.5138429999351501
0.2484932243824005 0.22999216616153717 0.45976316928863525
0.17702776193618774 0.11685819178819656 0.4865502119064331
0.290113240480423 0.1507827341556549 0.4970795810222626
0.21052485704421997 0.17743122577667236 0.5617361664772034
0.18102020025253296 0.2137901484966278 0.4854621887207031
0.29371407628059387 0.16036000847816467 0.5362979769706726
0.27123069763183594 0.18060530722141266 0.4509040415287018
0.1603882610797882 0.24901583790779114 0.4816358685493469
0.24031732976436615 0.11968986690044403 0.5140535831451416
0.2743537724018097 0.1289115846157074 0.43896767497062683
0.18669767677783966 0.23740068078041077 0.45601600408554077
0.3031162917613983 0.19473344087600708 0.6129459142684937
0.2630736827850342 0.23140139877796173 0.5659648776054382
0.22765202820301056 0.1554226130247116 0.5439004302024841
0.1860746145248413 0.258949339389801 0.629791796207428
0.14503882825374603 0.14026866853237152 0.469825804233551
0.2064228057861328 0.2816844582557678 0.4972901940345764
0.3104081451892853 0.15907780826091766 0.49066677689552307
0.2342979907989502 0.2273271530866623 0.5755190849304199
0.14719200134277344 0.17983055114746094 0.4628003239631653
0.3030345141887665 0.1485564410686493 0.5907629728317261
0.30041995644569397 0.21792784333229065 0.5783650279045105
0.28569817543029785 0.11753096431493759 0.615003228187561
0.20288178324699402 0.24045974016189575 0.593438982963562
0.21642416715621948 0.10537249594926834 0.6208258271217346
0.1556755006313324 0.18593984842300415 0.512223482131958
0.21537932753562927 0.14494507014751434 0.5537641048431396
0.29170742630958557 0.17692412436008453 0.5213625431060791
0.2087743580341339 0.2035636603832245 0.5755416750907898
0.11969297379255295 0.2076234668493271 0.5351969599723816
0.12016678601503372 0.1663263738155365 0.48100247979164124
0.12893269956111908 0.18059365451335907 0.6451664566993713
0.14350885152816772 0.24448910355567932 0.4967779219150543
0.18216919898986816 0.2026577740907669 0.5872652530670166
0.22398322820663452 0.10624227672815323 0.6067270040512085
0.22168196737766266 0.27462396025657654 0.5243756771087646
0.143163800239563 0.16293326020240784 0.4669356644153595
0.12682774662971497 0.1750568300485611 0.6388735175132751
0.276933878660202 0.23658187687397003 0.5906752347946167
0.1350259780883789 0.1318739652633667 0.518517017364502
0.1921009123325348 0.2325286716222763 0.6036494374275208
0.20023851096630096 0.20070336759090424 0.5390374064445496
0.1451866775751114 0.1260022073984146 0.49074986577033997
0.24419142305850983 0.1314823180437088 0.5221520066261292
0.21518537402153015 0.14108042418956757 0.6350363492965698
0.15658675134181976 0.17474456131458282 0.5549705624580383
0.15133041143417358 0.22172926366329193 0.567429780960083
0.23630203306674957 0.24169008433818817 0.5526458621025085
0.1326381415128708 0.25396889448165894 0.6168352365493774
0.1821807324886322 0.16333763301372528 0.4593188464641571
0.2903554141521454 0.11666958034038544 0.5520126223564148
0.1563379168510437 0.1971256136894226 0.48330363631248474
0.17390607297420502 0.1363113820552826 0.5778516530990601
0.21170669794082642 0.18469195067882538 0.5923113822937012
0.1250615417957306 0.10323464870452881 0.5412861704826355
0.12111389636993408 0.20739977061748505 0.6053782105445862
0.26256293058395386 0.13317449390888214 0.6233289241790771
0.274673193693161 0.13584227859973907 0.6237656474113464
0.14074382185935974 0.1868705451488495 0.4918489456176758
0.14400839805603027 0.23922495543956757 0.6503243446350098
0.23119565844535828 0.14876647293567657 0.5521605610847473
0.2823950946331024 0.24436399340629578 0.5483486652374268
0.29631879925727844 0.19910234212875366 0.5005858540534973
0.2273120880126953 0.2548908591270447 0.5826688408851624
0.2507466673851013 0.14695613086223602 0.4548906087875366
0.2770087718963623 0.20433861017227173 0.44950011372566223
0.28904157876968384 0.11466232687234879 0.6154370307922363
0.22512386739253998 0.17518727481365204 0.49604037404060364
0.13554039597511292 0.17126424610614777 0.53831547498703
0.153570294380188 0.1710638850927353 0.4825439751148224
0.12586812674999237 0.1872553676366806 0.46600526571273804
0.2177511602640152 0.11668922007083893 0.4710143208503723
0.1446468085050583 0.20867717266082764 0.5428447723388672
0.30023181438446045 0.20249482989311218 0.4930935800075531
0.2994226813316345 0.14578373730182648 0.4966515302658081
0.16646552085876465 0.12442700564861298 0.4326382279396057
0.2779686152935028 0.2531537115573883 0.6069750785827637
0.19747886061668396 0.20211420953273773 0.4881773889064789
0.24611935019493103 0.2047267109155655 0.5813650488853455
0.22349074482917786 0.20520812273025513 0.5307655930519104
0.19860069453716278 0.14279137551784515 0.6406229734420776
0.23231977224349976 0.27144700288772583 0.6064351797103882
0.16695234179496765 0.193565234541893 0.5571809411048889
0.19080433249473572 0.12083250284194946 0.5491222143173218
0.22427114844322205 0.10757773369550705 0.5674470663070679
0.23692405223846436 0.20802251994609833 0.45618167519569397
0.12394344061613083 0.25351428985595703 0.4980219602584839
0.20060883462429047 0.10727700591087341 0.5379308462142944
0.25244471430778503 0.1546698957681656 0.4479377269744873
0.19933170080184937 0.24037709832191467 0.633105456829071
0.3007925748825073 0.19665281474590302 0.508708655834198
0.20859616994857788 0.21758300065994263 0.5631071329116821
0.19068695604801178 0.19253872334957123 0.4876098334789276
0.2919797897338867 0.15456606447696686 0.5870177745819092
0.21465536952018738 0.11296231299638748 0.5612532496452332
0.21434806287288666 0.18521954119205475 0.5125102996826172
0.27635133266448975 0.14590191841125488 0.4419769048690796
0.27179282903671265 0.15204860270023346 0.6334498524665833
0.17245687544345856 0.16368862986564636 0.5127971172332764
0.17034539580345154 0.23030641674995422 0.5720117688179016
0.13557611405849457 0.18565528094768524 0.6101610064506531
0.15643002092838287 0.24058525264263153 0.5713815689086914
0.24640534818172455 0.21067003905773163 0.5852227210998535
0.1913614720106125 0.12794478237628937 0.5651357769966125
0.1695687621831894 0.1476569026708603 0.5427014827728271
0.17506512999534607 0.16386397182941437 0.5528663396835327
0.21727412939071655 0.2561534643173218 0.5514963865280151
0.1254001259803772 0.26111316680908203 0.5613970160484314
0.24663545191287994 0.18631480634212494 0.5481594204902649
0.12225031107664108 0.1366865485906601 0.6059730052947998
0.21994498372077942 0.1574803590774536 0.6191386580467224
0.11894556134939194 0.25171959400177 0.4776247441768646
0.29043370485305786 0.14412501454353333 0.5201535820960999
0.2714567482471466 0.18741467595100403 0.5163619518280029
0.18791529536247253 0.1487981528043747 0.5402933955192566
0.14838124811649323 0.17735888063907623 0.5181413292884827
0.28762030601501465 0.2809795141220093 0.4585181772708893
0.17925356328487396 0.16786132752895355 0.46617892384529114
0.2436600625514984 0.1296151876449585 0.5311790704727173
0.15838603675365448 0.16370274126529694 0.5016815066337585
0.31371769309043884 0.16841085255146027 0.6078690886497498
0.29351091384887695 0.148504376411438 0.6347950100898743
0.2043556272983551 0.1816660612821579 0.6390398740768433
0.19334937632083893 0.1359642744064331 0.5918178558349609
0.22132912278175354 0.21736834943294525 0.5271638035774231
0.14029304683208466 0.11808370053768158 0.601617693901062
0.2034878134727478 0.11229602992534637 0.4569931626319885
0.21539480984210968 0.20835517346858978 0.4738588035106659
0.22559283673763275 0.24003949761390686 0.5297890901565552
0.2777457535266876 0.2858700156211853 0.5802483558654785
0.29957878589630127 0.21571627259254456 0.4648923873901367
0.1990031599998474 0.2816082239151001 0.4729284942150116
0.12102030962705612 0.19555610418319702 0.6009226441383362
0.14854471385478973 0.19204261898994446 0.5509895086288452
0.2160184532403946 0.2611069083213806 0.5455912947654724
0.19441872835159302 0.27507680654525757 0.5535577535629272
0.18051400780677795 0.11997044831514359 0.4616850018501282
0.22334305942058563 0.23726911842823029 0.650720477104187
0.218206524848938 0.2663160562515259 0.5538231730461121
0.22704744338989258 0.1764085739850998 0.6410327553749084
0.12158630788326263 0.13190338015556335 0.5430997610092163
0.2214002013206482 0.1115245372056961 0.6377575993537903
0.25590449571609497 0.20316185057163239 0.5715283751487732
0.16416019201278687 0.13126365840435028 0.577083170413971
0.11708807200193405 0.16335251927375793 0.4688926339149475
0.19891124963760376 0.10649667680263519 0.6029305458068848
0.2689632177352905 0.1510748267173767 0.49134185910224915
0.16054226458072662 0.24954460561275482 0.6160898804664612
0.14505857229232788 0.17262700200080872 0.46140679717063904
0.26259011030197144 0.24119819700717926 0.5090110898017883
0.23736324906349182 0.17661477625370026 0.4722943902015686
0.19038498401641846 0.21953119337558746 0.600408673286438
0.2903554141521454 0.11666958034038544 0.5520126223564148
0.1563379168510437 0.1971256136894226 0.48330363631248474
0.17390607297420502 0.1363113820552826 0.5778516530990601
0.1250615417957306 0.10323464870452881 0.5412861704826355
0.14828893542289734 0.171012282371521 0.5138429999351501
0.2484932243824005 0.22999216616153717 0.45976316928863525
0.17702776193618774 0.11685819178819656 0.4865502119064331
0.290113240480423 0.1507827341556549 0.4970795810222626
0.21052485704421997 0.17743122577667236 0.5617361664772034
0.18102020025253296 0.2137901484966278 0.4854621887207031
0.21052485704421997 0.17743122577667236 0.5617361664772034
0.18102020025253296 0.2137901484966278 0.4854621887207031
0.29371407628059387 0.16036000847816467 0.5362979769706726
0.27123069763183594 0.18060530722141266 0.4509040415287018
0.1603882610797882 0.24901583790779114 0.4816358685493469
0.24031732976436615 0.11968986690044403 0.5140535831451416
0.2743537724018097 0.1289115846157074 0.43896767497062683
0.18669767677783966 0.23740068078041077 0.45601600408554077
0.3031162917613983 0.19473344087600708 0.6129459142684937
0.2630736827850342 0.23140139877796173 0.5659648776054382
0.22765202820301056 0.1554226130247116 0.5439004302024841
0.1860746145248413 0.258949339389801 0.629791796207428
0.17037278413772583 0.14649994671344757 0.6356881856918335
0.23848122358322144 0.13014334440231323 0.4620796740055084
0.27983447909355164 0.12933886051177979 0.5928279757499695
0.25998157262802124 0.11701620370149612 0.549697995185852
0.21723178029060364 0.20582278072834015 0.5727241635322571
0.25297433137893677 0.10968979448080063 0.6017633080482483
0.1713237464427948 0.22514237463474274 0.5832897424697876
0.12993048131465912 0.21363280713558197 0.525505542755127
0.25083431601524353 0.11716774106025696 0.46793702244758606
0.2765794098377228 0.17605522274971008 0.5421409606933594
0.15643002092838287 0.24058525264263153 0.5713815689086914
0.24640534818172455 0.21067003905773163 0.5852227210998535
0.2004830688238144 0.15035507082939148 0.5840206146240234
0.1995147466659546 0.1769363135099411 0.5638437867164612
0.21727412939071655 0.2561534643173218 0.5514963865280151
0.1254001259803772 0.26111316680908203 0.5613970160484314
0.24663545191287994 0.18631480634212494 0.5481594204902649
0.2742004692554474 0.2689064145088196 0.4566817283630371
0.2719506621360779 0.11974117159843445 0.5586901903152466
0.1778581738471985 0.11017788201570511 0.512096643447876
0.1714213490486145 0.26275700330734253 0.5672150254249573
0.29043370485305786 0.14412501454353333 0.5201535820960999
0.17635630071163177 0.2553824782371521 0.5617970824241638
0.2714567482471466 0.18741467595100403 0.5163619518280029
0.18791529536247253 0.1487981528043747 0.5402933955192566
0.28762030601501465 0.2809795141220093 0.4585181772708893
0.2859834134578705 0.1090351790189743 0.6329581141471863
0.17925356328487396 0.16786132752895355 0.46617892384529114
0.2436600625514984 0.1296151876449585 0.5311790704727173
0.23378504812717438 0.1949731707572937 0.5489954948425293
0.12645107507705688 0.10747396945953369 0.6013338565826416
0.25595003366470337 0.14937500655651093 0.49858933687210083
0.1671002209186554 0.15256816148757935 0.4466860890388489
0.16081081330776215 0.10546539723873138 0.5592576861381531
0.19797150790691376 0.2191193848848343 0.6103026866912842
0.25287768244743347 0.12205348908901215 0.4425482153892517
0.19910167157649994 0.15779057145118713 0.4675348699092865
0.28020983934402466 0.25296175479888916 0.47564706206321716
0.15336541831493378 0.1163502037525177 0.6306224465370178
0.14053182303905487 0.17428170144557953 0.6336965560913086
0.30287685990333557 0.19946829974651337 0.4938448965549469
0.155910462141037 0.10762469470500946 0.5667679309844971
0.19334937632083893 0.1359642744064331 0.5918178558349609
0.22132912278175354 0.21736834943294525 0.5271638035774231
0.14029304683208466 0.11808370053768158 0.601617693901062
0.20233720541000366 0.25381746888160706 0.47810643911361694
0.17951568961143494 0.1942598670721054 0.5958476662635803
0.21539480984210968 0.20835517346858978 0.4738588035106659
0.1713266372680664 0.12195344269275665 0.5965697169303894
0.1544240266084671 0.15596699714660645 0.5167015790939331
0.15063802897930145 0.14657489955425262 0.6066054701805115
0.18659085035324097 0.10622823238372803 0.603033721446991
0.1443212330341339 0.2401835173368454 0.6448807716369629
0.2910275459289551 0.26700839400291443 0.48535218834877014
0.17662380635738373 0.14999976754188538 0.456337571144104
0.17446134984493256 0.16944879293441772 0.5615413188934326
0.14891210198402405 0.15982407331466675 0.5177796483039856
0.20910733938217163 0.2600703835487366 0.5766857862472534
0.2777888774871826 0.12260852754116058 0.5914122462272644
0.2364872395992279 0.20642895996570587 0.6018739938735962
0.1637946367263794 0.13087278604507446 0.5774485468864441
0.21433071792125702 0.19581513106822968 0.6116049885749817
0.14583279192447662 0.2558877170085907 0.6179139614105225
0.1413324624300003 0.24217532575130463 0.5384034514427185
0.24465791881084442 0.12936629354953766 0.6369817852973938
0.13034765422344208 0.19162973761558533 0.4647499620914459
0.1686931997537613 0.20488178730010986 0.4888918399810791
0.2606979310512543 0.28255170583724976 0.568734884262085
0.2577306032180786 0.11311753839254379 0.4904806315898895
0.1228429302573204 0.23527364432811737 0.5294477343559265
0.2114785611629486 0.18684116005897522 0.49235600233078003
0.160359188914299 0.17493528127670288 0.5435402393341064
0.16448745131492615 0.2191992849111557 0.5465072989463806
0.2199392169713974 0.2820347249507904 0.47848495841026306
0.12542513012886047 0.12074187397956848 0.4911811351776123
0.1947672814130783 0.11578736454248428 0.4706522822380066
0.13633421063423157 0.11530481278896332 0.47952184081077576
0.16352161765098572 0.13818295300006866 0.5488235354423523
0.11357995122671127 0.23567192256450653 0.5498523116111755
0.28859731554985046 0.16527988016605377 0.4982522130012512
0.26671385765075684 0.13369137048721313 0.4503782093524933
0.15826165676116943 0.2152675837278366 0.595746636390686
0.31371769309043884 0.16841085255146027 0.6078690886497498
0.29351091384887695 0.148504376411438 0.6347950100898743
0.2043556272983551 0.1816660612821579 0.6390398740768433
0.19334937632083893 0.1359642744064331 0.5918178558349609
0.22132912278175354 0.21736834943294525 0.5271638035774231
0.14029304683208466 0.11808370053768158 0.601617693901062
0.20233720541000366 0.25381746888160706 0.47810643911361694
0.13420456647872925 0.24758833646774292 0.6172820329666138
0.1884467452764511 0.163854718208313 0.46625417470932007
0.22156432271003723 0.13085132837295532 0.4928641617298126
0.27167531847953796 0.15205048024654388 0.6187851428985596
0.20328861474990845 0.12323535978794098 0.6140474677085876
0.22173677384853363 0.113058902323246 0.5693376660346985
0.27915671467781067 0.15297538042068481 0.5795247554779053
0.1802615225315094 0.2288544774055481 0.6077423691749573
0.19488388299942017 0.20104381442070007 0.6197654008865356
0.18784232437610626 0.2727794647216797 0.5801682472229004
0.1858639121055603 0.21158292889595032 0.5031582713127136
0.2634543180465698 0.28008976578712463 0.47585368156433105
0.1722918152809143 0.23204225301742554 0.5247341990470886
0.24789731204509735 0.13752251863479614 0.4900476932525635
0.3139409124851227 0.14831212162971497 0.5141959190368652
0.16624774038791656 0.12680605053901672 0.5168232917785645
0.12479837983846664 0.12318122386932373 0.6019733548164368
0.20328861474990845 0.12323535978794098 0.6140474677085876
0.22173677384853363 0.113058902323246 0.5693376660346985
0.27915671467781067 0.15297538042068481 0.5795247554779053
0.1802615225315094 0.2288544774055481 0.6077423691749573
0.19488388299942017 0.20104381442070007 0.6197654008865356
0.18784232437610626 0.2727794647216797 0.5801682472229004
0.1858639121055603 0.21158292889595032 0.5031582713127136
0.2634543180465698 0.28008976578712463 0.47585368156433105
0.1722918152809143 0.23204225301742554 0.5247341990470886
0.24789731204509735 0.13752251863479614 0.4900476932525635
0.30485761165618896 0.1481378823518753 0.5229173898696899
0.13713642954826355 0.124661386013031 0.48157134652137756
0.2396233230829239 0.14266346395015717 0.5025251507759094
0.27180808782577515 0.26900938153266907 0.48405301570892334
0.23827733099460602 0.20535972714424133 0.6417039036750793
0.25447484850883484 0.1623041033744812 0.6216354966163635
0.12036006897687912 0.1262771189212799 0.5404318571090698
0.13900941610336304 0.12051688879728317 0.4321233034133911
0.1635477989912033 0.13039377331733704 0.547325849533081
0.1641995757818222 0.1263032853603363 0.5080721378326416
0.23486317694187164 0.24429859220981598 0.5128388404846191
0.280492901802063 0.12028343975543976 0.47667545080184937
0.27725881338119507 0.18958379328250885 0.4502022862434387
0.2115176022052765 0.16105014085769653 0.536734938621521
0.18421268463134766 0.11019386351108551 0.6362773776054382
0.17389360070228577 0.13447237014770508 0.4455246329307556
0.2687016427516937 0.15702368319034576 0.49376192688941956
0.15866625308990479 0.1939919888973236 0.44359084963798523
0.1600259393453598 0.17580421268939972 0.5355226397514343
0.26349958777427673 0.11705843359231949 0.5478067398071289
0.16784749925136566 0.13573890924453735 0.5648964047431946
0.16907748579978943 0.1782200038433075 0.590234100818634
0.16416019201278687 0.13126365840435028 0.577083170413971
0.20371773838996887 0.2564004361629486 0.615814208984375
0.1361720710992813 0.18994006514549255 0.5585272312164307
0.12497024238109589 0.2392699420452118 0.4585210084915161
0.1119423508644104 0.262974351644516 0.5379438996315002
0.18421268463134766 0.11019386351108551 0.6362773776054382
0.17389360070228577 0.13447237014770508 0.4455246329307556
0.28427737951278687 0.1657932847738266 0.5097658038139343
0.17389360070228577 0.13447237014770508 0.4455246329307556
0.2687016427516937 0.15702368319034576 0.49376192688941956
0.15866625308990479 0.1939919888973236 0.44359084963798523
0.2606979310512543 0.28255170583724976 0.568734884262085
0.2577306032180786 0.11311753839254379 0.4904806315898895
0.1228429302573204 0.23527364432811737 0.5294477343559265
0.2114785611629486 0.18684116005897522 0.49235600233078003
0.160359188914299 0.17493528127670288 0.5435402393341064
0.16448745131492615 0.2191992849111557 0.5465072989463806
0.18703678250312805 0.2549927830696106 0.650432825088501
0.2058081179857254 0.15364639461040497 0.4869222044944763
0.16866016387939453 0.2075476050376892 0.48662516474723816
0.24122682213783264 0.2300478219985962 0.46419069170951843
0.22163847088813782 0.23679228127002716 0.6411017775535583
0.16215214133262634 0.19404497742652893 0.4793678820133209
0.2226160615682602 0.28993797302246094 0.45550939440727234
0.12059206515550613 0.18166008591651917 0.5194435119628906
0.11031145602464676 0.2511531114578247 0.6006674766540527
0.30116623640060425 0.12343840301036835 0.5100938081741333
0.1689974069595337 0.13820725679397583 0.5305325388908386
0.2678293287754059 0.24136346578598022 0.5880430936813354
0.3056826889514923 0.18591460585594177 0.5939918160438538
0.11679128557443619 0.1400943547487259 0.5310837626457214
0.15710051357746124 0.10646502673625946 0.6415008902549744
0.2917439639568329 0.16328103840351105 0.5792227983474731
0.23231112957000732 0.2184801995754242 0.5647376775741577
0.13129879534244537 0.12646299600601196 0.5115103721618652
0.21880410611629486 0.21338413655757904 0.5727784633636475
0.19813156127929688 0.1710224449634552 0.5979474782943726
0.23331312835216522 0.1952645182609558 0.4533761143684387
0.12991222739219666 0.2731670141220093 0.480327844619751
0.1356445997953415 0.26454871892929077 0.5686258673667908
0.1356445997953415 0.26454871892929077 0.5686258673667908
0.14842329919338226 0.19941826164722443 0.5809617638587952
0.15296578407287598 0.265746146440506 0.4975637197494507
0.13300566375255585 0.10552860796451569 0.6050645112991333
0.22197352349758148 0.22458389401435852 0.527871310710907
0.14784637093544006 0.139835923910141 0.49271178245544434
0.3170939087867737 0.14683197438716888 0.545638382434845
0.3170939087867737 0.14683197438716888 0.545638382434845
0.2371310442686081 0.13133664429187775 0.5947221517562866
0.28774580359458923 0.1357109248638153 0.5724821090698242
0.17924869060516357 0.12929584085941315 0.48822763562202454
0.28959280252456665 0.26135021448135376 0.541839599609375
0.2950363755226135 0.19587397575378418 0.5704509019851685
0.2554664611816406 0.20782284438610077 0.5611315369606018
0.2675545811653137 0.23575864732265472 0.5860987901687622
0.23424597084522247 0.2359214425086975 0.5475230813026428
0.2675545811653137 0.23575864732265472 0.5860987901687622
0.23424597084522247 0.2359214425086975 0.5475230813026428
0.23424597084522247 0.2359214425086975 0.5475230813026428
0.17860442399978638 0.16259579360485077 0.5681627988815308
0.13029898703098297 0.10773002356290817 0.5087626576423645
0.22802482545375824 0.25748446583747864 0.4743267893791199
0.1643010526895523 0.1359606385231018 0.5294273495674133
0.2484932243824005 0.22999216616153717 0.45976316928863525
0.16081081330776215 0.10546539723873138 0.5592576861381531
0.19797150790691376 0.2191193848848343 0.6103026866912842
0.25287768244743347 0.12205348908901215 0.4425482153892517
0.25287768244743347 0.12205348908901215 0.4425482153892517
0.19910167157649994 0.15779057145118713 0.4675348699092865
0.24633318185806274 0.20590069890022278 0.6298409104347229
0.1306624859571457 0.252632200717926 0.5538837313652039
0.21567286550998688 0.24618372321128845 0.5818089842796326
0.24446718394756317 0.24839197099208832 0.542593240737915
0.21838533878326416 0.15291497111320496 0.5267428159713745
0.27887049317359924 0.1732182502746582 0.5331311821937561
0.17075970768928528 0.13075105845928192 0.5956188440322876
0.14666439592838287 0.11796029657125473 0.45661360025405884
0.2171420305967331 0.11530373990535736 0.6134032607078552
0.20884661376476288 0.13966821134090424 0.6252070665359497
0.15193426609039307 0.20645999908447266 0.4987882375717163
0.2150040566921234 0.2793799638748169 0.5289444327354431
0.14313989877700806 0.11562157422304153 0.4316873848438263
0.1958991289138794 0.17784583568572998 0.473225861787796
0.13936291635036469 0.15182316303253174 0.6212770938873291
0.14770051836967468 0.24906329810619354 0.6498516798019409
0.3081502318382263 0.18549787998199463 0.5037594437599182
0.29296737909317017 0.14338822662830353 0.5789822340011597
0.15038001537322998 0.22109030187129974 0.6351817846298218
0.2832029461860657 0.24045656621456146 0.5306007266044617
0.3063090741634369 0.17942988872528076 0.5697987079620361
0.2917439639568329 0.16328103840351105 0.5792227983474731
0.23231112957000732 0.2184801995754242 0.5647376775741577
0.2577739357948303 0.2076304703950882 0.5313177108764648
0.22302134335041046 0.22439634799957275 0.6256614327430725
0.21202991902828217 0.11466016620397568 0.5333340764045715
0.12993048131465912 0.21363280713558197 0.525505542755127
0.14784637093544006 0.139835923910141 0.49271178245544434
0.3170939087867737 0.14683197438716888 0.545638382434845
0.2371310442686081 0.13133664429187775 0.5947221517562866
0.28774580359458923 0.1357109248638153 0.5724821090698242
0.17924869060516357 0.12929584085941315 0.48822763562202454
0.28959280252456665 0.26135021448135376 0.541839599609375
0.2950363755226135 0.19587397575378418 0.5704509019851685
0.2554664611816406 0.20782284438610077 0.5611315369606018
0.2675545811653137 0.23575864732265472 0.5860987901687622
0.23424597084522247 0.2359214425086975 0.5475230813026428
0.17860442399978638 0.16259579360485077 0.5681627988815308
0.13029898703098297 0.10773002356290817 0.5087626576423645
0.22802482545375824 0.25748446583747864 0.4743267893791199
0.1643010526895523 0.1359606385231018 0.5294273495674133
0.15752793848514557 0.11541631072759628 0.5451130867004395
0.30628064274787903 0.13112445175647736 0.5249843597412109
0.19939713180065155 0.11878989636898041 0.633820116519928
0.21734008193016052 0.16156858205795288 0.5079783201217651
0.27679216861724854 0.185843363404274 0.6335294246673584
0.26929858326911926 0.19810184836387634 0.5843963623046875
0.12542513012886047 0.12074187397956848 0.4911811351776123
0.13040153682231903 0.15413504838943481 0.5779276490211487
0.13737361133098602 0.19893991947174072 0.44407209753990173
0.26566290855407715 0.1313931941986084 0.6368313431739807
0.15599855780601501 0.16362892091274261 0.5293578505516052
0.1251918077468872 0.2415253221988678 0.6253986358642578
0.23653362691402435 0.22436732053756714 0.5938541293144226
0.16633351147174835 0.1062353178858757 0.612758457660675
0.20087476074695587 0.2321203500032425 0.600669264793396
0.23142044246196747 0.11793750524520874 0.4693169593811035
0.1810370236635208 0.12873515486717224 0.5905190110206604
0.25161615014076233 0.18824546039104462 0.5216454267501831
0.23378504812717438 0.1949731707572937 0.5489954948425293
0.12645107507705688 0.10747396945953369 0.6013338565826416
0.25595003366470337 0.14937500655651093 0.49858933687210083
0.1671002209186554 0.15256816148757935 0.4466860890388489
0.16081081330776215 0.10546539723873138 0.5592576861381531
0.19797150790691376 0.2191193848848343 0.6103026866912842
0.25287768244743347 0.12205348908901215 0.4425482153892517
0.2527507245540619 0.12191974371671677 0.44265052676200867
0.18446564674377441 0.2679600119590759 0.48195141553878784
0.1705177128314972 0.23035964369773865 0.5478286743164062
0.24633318185806274 0.20590069890022278 0.6298409104347229
0.1304686814546585 0.24834968149662018 0.6358327269554138
0.19142590463161469 0.22051800787448883 0.49942368268966675
0.15752793848514557 0.11541631072759628 0.5451130867004395
0.30628064274787903 0.13112445175647736 0.5249843597412109
0.19939713180065155 0.11878989636898041 0.633820116519928
0.21734008193016052 0.16156858205795288 0.5079783201217651
0.27679216861724854 0.185843363404274 0.6335294246673584
0.26929858326911926 0.19810184836387634 0.5843963623046875
0.12542513012886047 0.12074187397956848 0.4911811351776123
0.1947672814130783 0.11578736454248428 0.4706522822380066
0.13633421063423157 0.11530481278896332 0.47952184081077576
0.16352161765098572 0.13818295300006866 0.5488235354423523
0.11357995122671127 0.23567192256450653 0.5498523116111755
0.28859731554985046 0.16527988016605377 0.4982522130012512
0.26671385765075684 0.13369137048721313 0.4503782093524933
0.15826165676116943 0.2152675837278366 0.595746636390686
0.31371769309043884 0.16841085255146027 0.6078690886497498
0.29351091384887695 0.148504376411438 0.6347950100898743
0.2043556272983551 0.1816660612821579 0.6390398740768433
0.19334937632083893 0.1359642744064331 0.5918178558349609
0.12766151130199432 0.14095644652843475 0.5561537742614746
0.26566290855407715 0.1313931941986084 0.6368313431739807
0.15599855780601501 0.16362892091274261 0.5293578505516052
0.1251918077468872 0.2415253221988678 0.6253986358642578
0.23653362691402435 0.22436732053756714 0.5938541293144226
0.16633351147174835 0.1062353178858757 0.612758457660675
0.20087476074695587 0.2321203500032425 0.600669264793396
0.23142044246196747 0.11793750524520874 0.4693169593811035
0.1810370236635208 0.12873515486717224 0.5905190110206604
0.236651211977005 0.13488812744617462 0.5276528596878052
0.248990997672081 0.28562262654304504 0.5116016864776611
0.13241945207118988 0.15915530920028687 0.6383299827575684
0.30922284722328186 0.15923480689525604 0.5068785548210144
0.25497424602508545 0.23941440880298615 0.5335109829902649
0.1849730908870697 0.11421211808919907 0.5134658813476562
0.12560981512069702 0.16148103773593903 0.6318018436431885
0.23552221059799194 0.18972910940647125 0.5432807207107544
0.21064160764217377 0.1678234487771988 0.580058753490448
0.1645655781030655 0.17751914262771606 0.5769844651222229
0.21005477011203766 0.16287237405776978 0.5521924495697021
0.24626049399375916 0.13738732039928436 0.6159720420837402
0.2189767211675644 0.24012090265750885 0.45299121737480164
0.2756332755088806 0.24410183727741241 0.6339359283447266
0.24147279560565948 0.20946930348873138 0.6202289462089539
0.2573230266571045 0.11815858632326126 0.5018616914749146
0.22883382439613342 0.2578566074371338 0.6157656311988831
0.15503595769405365 0.2197917103767395 0.5379204154014587
0.14937050640583038 0.22800837457180023 0.4793337285518646
0.18849976360797882 0.2777317762374878 0.5046698451042175
0.1119423508644104 0.262974351644516 0.5379438996315002
0.24366746842861176 0.2653060853481293 0.5378257036209106
0.30470895767211914 0.14693377912044525 0.5856096148490906
0.25595003366470337 0.14937500655651093 0.49858933687210083
0.23854584991931915 0.239377960562706 0.4954225718975067
0.1699279248714447 0.11973888427019119 0.5727978348731995
0.2435469925403595 0.1389796882867813 0.44476768374443054
0.2327774465084076 0.20489297807216644 0.5220705270767212
0.2575899064540863 0.18870539963245392 0.4930955469608307
0.19430899620056152 0.23579169809818268 0.6136747598648071
0.2613721489906311 0.11435821652412415 0.47567662596702576
0.12476921826601028 0.11163362115621567 0.6443137526512146
0.15719084441661835 0.10870181024074554 0.5647193193435669
0.2862396836280823 0.13117101788520813 0.6108213663101196
0.1802748739719391 0.26861003041267395 0.5372862815856934
0.2261745184659958 0.256185919046402 0.5587156414985657
0.1967526376247406 0.10638663172721863 0.5920731425285339
0.2893337905406952 0.18721088767051697 0.5041131973266602
0.3115376830101013 0.11361344903707504 0.5446768403053284
0.24694311618804932 0.15810033679008484 0.5127967000007629
0.2756332755088806 0.24410183727741241 0.6339359283447266
0.24147279560565948 0.20946930348873138 0.6202289462089539
0.2573230266571045 0.11815858632326126 0.5018616914749146
0.22883382439613342 0.2578566074371338 0.6157656311988831
0.15503595769405365 0.2197917103767395 0.5379204154014587
0.14937050640583038 0.22800837457180023 0.4793337285518646
0.18849976360797882 0.2777317762374878 0.5046698451042175
0.1119423508644104 0.262974351644516 0.5379438996315002
0.24366746842861176 0.2653060853481293 0.5378257036209106
0.30470895767211914 0.14693377912044525 0.5856096148490906
0.16889101266860962 0.12687760591506958 0.5758719444274902
0.19636613130569458 0.13775435090065002 0.48277199268341064
0.21446651220321655 0.20111988484859467 0.45981767773628235
0.1477416604757309 0.19287241995334625 0.47007080912590027
0.18109731376171112 0.1521412432193756 0.48068541288375854
0.24446718394756317 0.24839197099208832 0.542593240737915
0.2675545811653137 0.23575864732265472 0.5860987901687622
0.23424597084522247 0.2359214425086975 0.5475230813026428
0.17860442399978638 0.16259579360485077 0.5681627988815308
0.13029898703098297 0.10773002356290817 0.5087626576423645
0.22802482545375824 0.25748446583747864 0.4743267893791199
0.1643010526895523 0.1359606385231018 0.5294273495674133
0.15752793848514557 0.11541631072759628 0.5451130867004395
0.30628064274787903 0.13112445175647736 0.5249843597412109
0.19939713180065155 0.11878989636898041 0.633820116519928
0.13331608474254608 0.19927754998207092 0.4461587071418762
0.2121153175830841 0.11140494793653488 0.45909515023231506
0.11947645992040634 0.21713243424892426 0.4790489673614502
0.23274704813957214 0.15956148505210876 0.47481769323349
0.2540570795536041 0.17925946414470673 0.5247652530670166
0.16326771676540375 0.2355934977531433 0.6197810173034668
0.23516345024108887 0.11710451543331146 0.5824507474899292
0.114566370844841 0.2597488760948181 0.5284619331359863
0.15691083669662476 0.16761669516563416 0.6430104374885559
0.1946839988231659 0.18512499332427979 0.6245295405387878
0.17441760003566742 0.10596209019422531 0.6440116763114929
0.16328972578048706 0.18979118764400482 0.5275624394416809
0.23743948340415955 0.24714581668376923 0.6143750548362732
0.2606496810913086 0.26595908403396606 0.597041666507721
0.2376779466867447 0.2377513349056244 0.5206314921379089
0.23754078149795532 0.1073223277926445 0.5350802540779114
0.16557402908802032 0.21961160004138947 0.6296703219413757
0.1845470517873764 0.2703671455383301 0.5779637098312378
0.29853495955467224 0.15310528874397278 0.5433896780014038
0.1584046185016632 0.25009486079216003 0.6061500310897827
0.21423180401325226 0.18742044270038605 0.637668788433075
0.19636613130569458 0.13775435090065002 0.48277199268341064
0.12991222739219666 0.2731670141220093 0.480327844619751
0.2226160615682602 0.28993797302246094 0.45550939440727234
0.12059206515550613 0.18166008591651917 0.5194435119628906
0.11031145602464676 0.2511531114578247 0.6006674766540527
0.27732157707214355 0.11636035144329071 0.5668843388557434
0.1456165462732315 0.10483386367559433 0.6248583793640137
0.22060146927833557 0.10655857622623444 0.6085797548294067
0.23633873462677002 0.21919791400432587 0.5685538649559021
0.2678293287754059 0.24136346578598022 0.5880430936813354
0.3056826889514923 0.18591460585594177 0.5939918160438538
0.11679128557443619 0.1400943547487259 0.5310837626457214
0.29719191789627075 0.22492022812366486 0.6398575901985168
0.2320132851600647 0.21199415624141693 0.5475597977638245
0.1726129800081253 0.14700549840927124 0.6258234977722168
0.25263091921806335 0.27526921033859253 0.5433982014656067
0.28128528594970703 0.21439926326274872 0.5569913387298584
0.13720044493675232 0.15491396188735962 0.6299139857292175
0.13286222517490387 0.1591755896806717 0.5821559429168701
0.19786299765110016 0.11752772331237793 0.6421521902084351
0.20849007368087769 0.2643369734287262 0.4535367488861084
0.13141629099845886 0.15437141060829163 0.6086556315422058
0.27053704857826233 0.10953943431377411 0.5191606879234314
0.258497416973114 0.23257549107074738 0.5782610774040222
0.21051836013793945 0.11288802325725555 0.5875256061553955
0.15855741500854492 0.11774946004152298 0.5822758078575134
0.18912355601787567 0.15285451710224152 0.4773150384426117
0.30229437351226807 0.13842956721782684 0.43812742829322815
0.25467419624328613 0.2613070607185364 0.5116537809371948
0.24129144847393036 0.17292749881744385 0.48611098527908325
0.17094306647777557 0.11564552038908005 0.4866545498371124
0.11955041438341141 0.1854429990053177 0.474536657333374
0.13277873396873474 0.25983384251594543 0.5029581785202026
0.19939713180065155 0.11878989636898041 0.633820116519928
0.2577306032180786 0.11311753839254379 0.4904806315898895
0.1228429302573204 0.23527364432811737 0.5294477343559265
0.2114785611629486 0.18684116005897522 0.49235600233078003
0.160359188914299 0.17493528127670288 0.5435402393341064
0.16448745131492615 0.2191992849111557 0.5465072989463806
0.18703678250312805 0.2549927830696106 0.650432825088501
0.2058081179857254 0.15364639461040497 0.4869222044944763
0.22163847088813782 0.23679228127002716 0.6411017775535583
0.16215214133262634 0.19404497742652893 0.4793678820133209
0.2226160615682602 0.28993797302246094 0.45550939440727234
0.12059206515550613 0.18166008591651917 0.5194435119628906
0.11031145602464676 0.2511531114578247 0.6006674766540527
0.27732157707214355 0.11636035144329071 0.5668843388557434
0.1456165462732315 0.10483386367559433 0.6248583793640137
0.22060146927833557 0.10655857622623444 0.6085797548294067
0.23633873462677002 0.21919791400432587 0.5685538649559021
0.2678293287754059 0.24136346578598022 0.5880430936813354
0.3056826889514923 0.18591460585594177 0.5939918160438538
0.11679128557443619 0.1400943547487259 0.5310837626457214
0.29719191789627075 0.22492022812366486 0.6398575901985168
0.2320132851600647 0.21199415624141693 0.5475597977638245
0.1726129800081253 0.14700549840927124 0.6258234977722168
0.25263091921806335 0.27526921033859253 0.5433982014656067
0.23225271701812744 0.26741141080856323 0.6066125631332397
0.25468361377716064 0.2805834710597992 0.5348915457725525
0.11319276690483093 0.19901710748672485 0.4687448740005493
0.19604018330574036 0.25993332266807556 0.5589743852615356
0.20496255159378052 0.21285709738731384 0.4911576509475708
0.18647469580173492 0.2225557118654251 0.6139853596687317
0.3144201636314392 0.127499058842659 0.5993527173995972
0.27434369921684265 0.2048344910144806 0.4629756212234497
0.2041916698217392 0.22509363293647766 0.5164453387260437
0.17660507559776306 0.16231462359428406 0.6291005611419678
0.15163354575634003 0.1076461523771286 0.48623767495155334
0.20593583583831787 0.2246440052986145 0.6433607339859009
0.25468361377716064 0.2805834710597992 0.5348915457725525
0.11319276690483093 0.19901710748672485 0.4687448740005493
0.19604018330574036 0.25993332266807556 0.5589743852615356
0.20496255159378052 0.21285709738731384 0.4911576509475708
0.18647469580173492 0.2225557118654251 0.6139853596687317
0.3144201636314392 0.127499058842659 0.5993527173995972
0.27434369921684265 0.2048344910144806 0.4629756212234497
0.22075149416923523 0.21459344029426575 0.4756704270839691
0.25129008293151855 0.1345338374376297 0.6431518793106079
0.3083256185054779 0.1868324726819992 0.6013020277023315
0.16369925439357758 0.23868943750858307 0.49388888478279114
0.26165127754211426 0.17324580252170563 0.5415473580360413
0.13250228762626648 0.21843117475509644 0.49866387248039246
0.17532427608966827 0.2206631451845169 0.46836864948272705
0.2278076857328415 0.16264477372169495 0.593859851360321
0.206767275929451 0.11350806802511215 0.5235957503318787
0.126655712723732 0.20213837921619415 0.5418379306793213
0.16469326615333557 0.11181487143039703 0.610531747341156
0.23393481969833374 0.2621791958808899 0.6200680136680603
0.25945597887039185 0.1464739888906479 0.6351994872093201
0.25970882177352905 0.24291367828845978 0.5105222463607788
0.2380099594593048 0.13642935454845428 0.5663758516311646
0.2418183535337448 0.15590696036815643 0.5707643628120422
0.29774367809295654 0.15085090696811676 0.48691055178642273
0.2440611571073532 0.1659097522497177 0.5056785941123962
0.23813095688819885 0.16693399846553802 0.5706777572631836
0.14068207144737244 0.12324332445859909 0.5305381417274475
0.11584595590829849 0.25087785720825195 0.5027846693992615
0.16955234110355377 0.26028120517730713 0.5708673000335693
0.22060146927833557 0.10655857622623444 0.6085797548294067
0.23633873462677002 0.21919791400432587 0.5685538649559021
0.2678293287754059 0.24136346578598022 0.5880430936813354
0.3056826889514923 0.18591460585594177 0.5939918160438538
0.23165692389011383 0.27803754806518555 0.6037779450416565
0.2359311878681183 0.12035997211933136 0.5552046895027161
0.12808242440223694 0.14487555623054504 0.4618479907512665
0.13794922828674316 0.24205172061920166 0.648492693901062
0.2965763211250305 0.13274379074573517 0.4446480870246887
0.15458226203918457 0.1050238162279129 0.5819326639175415
0.20688267052173615 0.14638178050518036 0.5267230272293091
0.19428092241287231 0.25648224353790283 0.47075000405311584
0.2816968560218811 0.2149106115102768 0.501133918762207
0.1802069991827011 0.20210617780685425 0.48942261934280396
0.3140195608139038 0.1262875199317932 0.49848484992980957
0.22272183001041412 0.12229498475790024 0.4961594045162201
0.27054086327552795 0.17986774444580078 0.4692879021167755
0.18912355601787567 0.15285451710224152 0.4773150384426117
0.30229437351226807 0.13842956721782684 0.43812742829322815
0.25467419624328613 0.2613070607185364 0.5116537809371948
0.24129144847393036 0.17292749881744385 0.48611098527908325
0.17094306647777557 0.11564552038908005 0.4866545498371124
0.11955041438341141 0.1854429990053177 0.474536657333374
0.13277873396873474 0.25983384251594543 0.5029581785202026
0.27258044481277466 0.1527363359928131 0.5063920617103577
0.206767275929451 0.11350806802511215 0.5235957503318787
0.126655712723732 0.20213837921619415 0.5418379306793213
0.16469326615333557 0.11181487143039703 0.610531747341156
0.2751762568950653 0.20080453157424927 0.5842800736427307
0.2272726446390152 0.12053201347589493 0.5974962115287781
0.239572212100029 0.2000482678413391 0.5296971201896667
0.27180808782577515 0.26900938153266907 0.48405301570892334
0.22997775673866272 0.15013106167316437 0.49677804112434387
0.12661005556583405 0.13775217533111572 0.46119722723960876
0.2684188485145569 0.18612031638622284 0.6313286423683167
0.19892948865890503 0.1165502741932869 0.6210400462150574
0.2931115925312042 0.2691256105899811 0.5650961995124817
0.12783947587013245 0.12587837874889374 0.4579063355922699
0.24518059194087982 0.18364661931991577 0.5494042634963989
0.17847445607185364 0.14010289311408997 0.5754851698875427
0.23540514707565308 0.17111900448799133 0.5805824398994446
0.19193866848945618 0.2791682779788971 0.5071815848350525
0.2651442885398865 0.2599875330924988 0.49694010615348816
0.21617862582206726 0.23276646435260773 0.45744597911834717
0.23482616245746613 0.11695559322834015 0.5169325470924377
0.13308456540107727 0.13160640001296997 0.6075847148895264
0.25232595205307007 0.28201791644096375 0.4633333683013916
0.2697325646877289 0.17884372174739838 0.5679731369018555
0.13812892138957977 0.1189301535487175 0.42953425645828247
0.2976982891559601 0.24064171314239502 0.4895678460597992
0.2179204672574997 0.16012801229953766 0.5749995112419128
0.3004172742366791 0.23433205485343933 0.4764295518398285
0.2208837866783142 0.1524667888879776 0.5749610066413879
0.14785802364349365 0.15451329946517944 0.6035341024398804
0.16699303686618805 0.2779293656349182 0.49730560183525085
0.1584414541721344 0.18618355691432953 0.643386960029602
0.23541592061519623 0.1949831247329712 0.5762408375740051
0.1362764537334442 0.21680893003940582 0.48625418543815613
0.1869427114725113 0.26625463366508484 0.5210952162742615
0.1818930059671402 0.12613855302333832 0.546768069267273
0.2728164792060852 0.25207093358039856 0.6489822864532471
0.23839783668518066 0.22484858334064484 0.5656580924987793
0.16601070761680603 0.10896661877632141 0.4776782989501953
0.19636613130569458 0.13775435090065002 0.48277199268341064
0.22075149416923523 0.21459344029426575 0.4756704270839691
0.25129008293151855 0.1345338374376297 0.6431518793106079
0.3083256185054779 0.1868324726819992 0.6013020277023315
0.22807911038398743 0.10631849616765976 0.6373547315597534
0.12286737561225891 0.1981736421585083 0.5844475030899048
0.15745221078395844 0.19320426881313324 0.45824605226516724
0.14118342101573944 0.22338494658470154 0.5954412221908569
0.2105865478515625 0.1839735507965088 0.471634179353714
0.2684926390647888 0.11493026465177536 0.5678399801254272
0.22926686704158783 0.15110275149345398 0.5562046766281128
0.206767275929451 0.11350806802511215 0.5235957503318787
0.126655712723732 0.20213837921619415 0.5418379306793213
0.16469326615333557 0.11181487143039703 0.610531747341156
0.2751762568950653 0.20080453157424927 0.5842800736427307
0.2272726446390152 0.12053201347589493 0.5974962115287781
0.239572212100029 0.2000482678413391 0.5296971201896667
0.24416008591651917 0.16151612997055054 0.5773387551307678
0.1955663561820984 0.1966107338666916 0.6374614238739014
0.12765264511108398 0.1251755803823471 0.5229865908622742
0.1492309719324112 0.2608497738838196 0.5221148729324341
0.14068207144737244 0.12324332445859909 0.5305381417274475
0.11584595590829849 0.25087785720825195 0.5027846693992615
0.15465378761291504 0.24957498908042908 0.5034338235855103
0.16615214943885803 0.14920268952846527 0.5716447830200195
0.2876286506652832 0.16187059879302979 0.5637266635894775
0.16524305939674377 0.17329563200473785 0.520820140838623
