ply
format ascii 1.0
element vertex 824
property float x
property float y
property float z
end_header
0.46115583181381226 0.23171989619731903 0.4442492723464966
0.5132541060447693 0.11813397705554962 0.4500318765640259
0.49578672647476196 0.18249620497226715 0.5605838298797607
0.37149256467819214 0.17518575489521027 0.5880295634269714
0.47135207056999207 0.13758504390716553 0.49734294414520264
0.44842106103897095 0.18248042464256287 0.5152722597122192
0.49597418308258057 0.20042435824871063 0.42137330770492554
0.5321350693702698 0.2081235945224762 0.5899582505226135
0.46764490008354187 0.12722258269786835 0.5633823275566101
0.5474329590797424 0.2185971438884735 0.5662137269973755
0.553438663482666 0.11507704108953476 0.42399290204048157
0.49090346693992615 0.25231343507766724 0.5079076290130615
0.4952302575111389 0.23725925385951996 0.5033289790153503
0.4267801344394684 0.25490254163742065 0.45291122794151306
0.530067503452301 0.12064046412706375 0.5700325965881348
0.41589775681495667 0.24852149188518524 0.4804999828338623
0.4646914005279541 0.21182553470134735 0.5529828071594238
0.4694907069206238 0.1455419361591339 0.5469340682029724
0.39266321063041687 0.1259663999080658 0.48653003573417664
0.44764596223831177 0.202372744679451 0.433896541595459
0.39085274934768677 0.2456248551607132 0.48733410239219666
0.49125704169273376 0.14570854604244232 0.45981043577194214
0.35248157382011414 0.1750931590795517 0.4101250171661377
0.4413527250289917 0.14088930189609528 0.5997328162193298
0.4947171211242676 0.16766303777694702 0.44643357396125793
0.5167874097824097 0.2069767415523529 0.4157751798629761
0.43295416235923767 0.2223420888185501 0.46740832924842834
0.4694163203239441 0.11552339792251587 0.5110286474227905
0.3805546462535858 0.26322636008262634 0.4837954044342041
0.436579167842865 0.11135725677013397 0.5531044006347656
0.44895434379577637 0.26034465432167053 0.4112001359462738
0.4043290615081787 0.25197842717170715 0.41956469416618347
0.4564823806285858 0.16634514927864075 0.42898866534233093
0.4929543435573578 0.2135872095823288 0.41195061802864075
0.5404102802276611 0.15220172703266144 0.6015483140945435
0.5488701462745667 0.19106513261795044 0.42548924684524536
0.3977086842060089 0.2561761438846588 0.414488285779953
0.48370856046676636 0.13428013026714325 0.5035228729248047
0.5094533562660217 0.25514742732048035 0.46537840366363525
0.4811899662017822 0.2585913836956024 0.5299754738807678
0.5004134178161621 0.20739591121673584 0.4760326147079468
0.46715447306632996 0.17718757688999176 0.5288345813751221
0.35636165738105774 0.2245463728904724 0.5229237675666809
0.38546591997146606 0.22171905636787415 0.4984305202960968
0.47526827454566956 0.20616301894187927 0.5671036243438721
0.38503551483154297 0.14896716177463531 0.5041075944900513
0.4525925815105438 0.11416756361722946 0.4867474436759949
0.3522626757621765 0.20838800072669983 0.5774419903755188
0.45072683691978455 0.10937277972698212 0.5349635481834412
0.48782873153686523 0.22010158002376556 0.45453086495399475
0.38993677496910095 0.1643303781747818 0.5663702487945557
0.47246453166007996 0.17041602730751038 0.5580176115036011
0.5423573851585388 0.24498791992664337 0.44110044836997986
0.5034445524215698 0.11611410230398178 0.5752652883529663
0.45492300391197205 0.11474315077066422 0.550895631313324
0.5114216804504395 0.24360673129558563 0.5891680717468262
0.49865245819091797 0.20361843705177307 0.5560842752456665
0.37224817276000977 0.2459505945444107 0.5630823969841003
0.5448523163795471 0.15177017450332642 0.397693932056427
0.3686673045158386 0.17992067337036133 0.5905311107635498
0.4814858138561249 0.21289676427841187 0.5933523774147034
0.5116326212882996 0.2306445986032486 0.5727031826972961
0.402472585439682 0.1280328333377838 0.5371134877204895
0.3963228166103363 0.12142948061227798 0.42910709977149963
0.4333968162536621 0.20090709626674652 0.5018467307090759
0.4333968162536621 0.20090709626674652 0.5018467307090759
0.3622121810913086 0.14488454163074493 0.5403490662574768
0.3730106055736542 0.21627604961395264 0.4563412368297577
0.553579568862915 0.10938739031553268 0.4699695110321045
0.43452492356300354 0.11935068666934967 0.4321044981479645
0.4694163203239441 0.11552339792251587 0.5110286474227905
0.3805546462535858 0.26322636008262634 0.4837954044342041
0.436579167842865 0.11135725677013397 0.5531044006347656
0.44895434379577637 0.26034465432167053 0.4112001359462738
0.4043290615081787 0.25197842717170715 0.41956469416618347
0.4043290615081787 0.25197842717170715 0.41956469416618347
0.49573928117752075 0.20837165415287018 0.42392590641975403
0.5270223021507263 0.17595385015010834 0.5912824273109436
0.37630292773246765 0.18621590733528137 0.5854321122169495
0.4212523400783539 0.12309790402650833 0.4188571572303772
0.47973334789276123 0.23758815228939056 0.526665985584259
0.5094533562660217 0.25514742732048035 0.46537840366363525
0.4811899662017822 0.2585913836956024 0.5299754738807678
0.5004134178161621 0.20739591121673584 0.4760326147079468
0.46715447306632996 0.17718757688999176 0.5288345813751221
0.35636165738105774 0.2245463728904724 0.5229237675666809
0.38546591997146606 0.22171905636787415 0.4984305202960968
0.47526827454566956 0.20616301894187927 0.5671036243438721
0.38503551483154297 0.14896716177463531 0.5041075944900513
0.4525925815105438 0.11416756361722946 0.4867474436759949
0.5448523163795471 0.15177017450332642 0.397693932056427
0.38503551483154297 0.14896716177463531 0.5041075944900513
0.4525925815105438 0.11416756361722946 0.4867474436759949
0.3522626757621765 0.20838800072669983 0.5774419903755188
0.45072683691978455 0.10937277972698212 0.5349635481834412
0.48782873153686523 0.22010158002376556 0.45453086495399475
0.38993677496910095 0.1643303781747818 0.5663702487945557
0.47246453166007996 0.17041602730751038 0.5580176115036011
0.5423573851585388 0.24498791992664337 0.44110044836997986
0.5034445524215698 0.11611410230398178 0.5752652883529663
0.45492300391197205 0.11474315077066422 0.550895631313324
0.5114216804504395 0.24360673129558563 0.5891680717468262
0.49865245819091797 0.20361843705177307 0.5560842752456665
0.549415111541748 0.10864917933940887 0.4944564402103424
0.46103590726852417 0.15083304047584534 0.5019772052764893
0.45429277420043945 0.10614946484565735 0.5383353233337402
0.5141348242759705 0.14984002709388733 0.5666268467903137
0.5015186071395874 0.2139298915863037 0.5768755078315735
0.5110023617744446 0.24647843837738037 0.513920247554779
0.38230422139167786 0.2488250732421875 0.5393057465553284
0.5395137667655945 0.25539690256118774 0.5520973801612854
0.42762377858161926 0.17495568096637726 0.5420653820037842
0.4855246841907501 0.17374779284000397 0.5455947518348694
0.42017287015914917 0.1879129856824875 0.43343672156333923
0.3931189775466919 0.18592672049999237 0.5558788180351257
0.49213463068008423 0.20126202702522278 0.5279655456542969
0.39822378754615784 0.23354779183864594 0.4936027526855469
0.5321331024169922 0.10419482737779617 0.4827635586261749
0.4063669741153717 0.13775786757469177 0.46761688590049744
0.5446727275848389 0.11241868883371353 0.4571423828601837
0.45084983110427856 0.11445491760969162 0.5162803530693054
0.3786088526248932 0.20162376761436462 0.5904299020767212
0.40334272384643555 0.21764779090881348 0.44564133882522583
0.46715447306632996 0.17718757688999176 0.5288345813751221
0.35636165738105774 0.2245463728904724 0.5229237675666809
0.38546591997146606 0.22171905636787415 0.4984305202960968
0.47526827454566956 0.20616301894187927 0.5671036243438721
0.38503551483154297 0.14896716177463531 0.5041075944900513
0.4525925815105438 0.11416756361722946 0.4867474436759949
0.3522626757621765 0.20838800072669983 0.5774419903755188
0.45072683691978455 0.10937277972698212 0.5349635481834412
0.48782873153686523 0.22010158002376556 0.45453086495399475
0.38993677496910095 0.1643303781747818 0.5663702487945557
0.47246453166007996 0.17041602730751038 0.5580176115036011
0.5423573851585388 0.24498791992664337 0.44110044836997986
0.5034445524215698 0.11611410230398178 0.5752652883529663
0.48726776242256165 0.12714284658432007 0.5634263157844543
0.5272080302238464 0.23309433460235596 0.5659796595573425
0.39990752935409546 0.11913003027439117 0.3997640311717987
0.5295743942260742 0.23753005266189575 0.4191230833530426
0.5556867122650146 0.10509905964136124 0.40389031171798706
0.3561869263648987 0.1579536646604538 0.5993275046348572
0.36148908734321594 0.1994742900133133 0.4322545528411865
0.3660357594490051 0.21608510613441467 0.437785804271698
0.4489254653453827 0.2627263367176056 0.5575822591781616
0.5199277400970459 0.14633572101593018 0.460657000541687
0.47844183444976807 0.1652413010597229 0.41722598671913147
0.5341871380805969 0.23102247714996338 0.5376337766647339
0.42724382877349854 0.15849432349205017 0.5042275190353394
0.5236800909042358 0.12668181955814362 0.5543382167816162
0.38045093417167664 0.10475722700357437 0.6025053262710571
0.448324978351593 0.10995044559240341 0.5519764423370361
0.468949556350708 0.13575761020183563 0.4588744044303894
0.5194398760795593 0.13079701364040375 0.4173300266265869
0.38369056582450867 0.10674860328435898 0.544106662273407
0.3978882431983948 0.2568209171295166 0.46953365206718445
0.4595057964324951 0.14742593467235565 0.4980069398880005
0.47320428490638733 0.20013399422168732 0.5457085967063904
0.499123752117157 0.10687217116355896 0.606590211391449
0.41792261600494385 0.19875289499759674 0.5757060050964355
0.35924309492111206 0.21704311668872833 0.5695085525512695
0.44744694232940674 0.17587292194366455 0.5338774919509888
0.4158943295478821 0.21480049192905426 0.43485909700393677
0.5301863551139832 0.11321689188480377 0.48639804124832153
0.4721637964248657 0.1980522871017456 0.5159522294998169
0.4479798972606659 0.11503280699253082 0.4838218688964844
0.4147854149341583 0.1963818371295929 0.5544247031211853
0.4089048504829407 0.24535278975963593 0.573948860168457
0.37255871295928955 0.16618958115577698 0.5018190145492554
0.47311025857925415 0.2508266866207123 0.4741722047328949
0.3745911717414856 0.1812501847743988 0.41327741742134094
0.37616169452667236 0.13168083131313324 0.5890088677406311
0.4766395688056946 0.15220753848552704 0.5804445743560791
0.37727823853492737 0.11167790740728378 0.44919541478157043
0.45294326543807983 0.263688862323761 0.5996748208999634
0.3790597915649414 0.2642177939414978 0.4575597047805786
0.5553106665611267 0.10948461294174194 0.5104177594184875
0.349822998046875 0.13021013140678406 0.4071160554885864
0.48244407773017883 0.17311270534992218 0.5396527051925659
0.3888075053691864 0.1771571785211563 0.4710615277290344
0.40261924266815186 0.24585576355457306 0.4326930642127991
0.38122349977493286 0.22700750827789307 0.5768924355506897
0.4413299858570099 0.16957712173461914 0.4880724251270294
0.37106528878211975 0.1422402262687683 0.5541272163391113
0.5147057175636292 0.17196199297904968 0.5023840069770813
0.48157861828804016 0.1075512021780014 0.4103778898715973
0.3817826807498932 0.15303020179271698 0.5001792907714844
0.4988972246646881 0.20306314527988434 0.5539810657501221
0.5396274328231812 0.24334076046943665 0.44867217540740967
0.3989584743976593 0.2248050421476364 0.517650842666626
0.4287242293357849 0.15162676572799683 0.4030897617340088
0.37396764755249023 0.1288049817085266 0.5601711869239807
0.376895546913147 0.12479864060878754 0.49497362971305847
0.5460077524185181 0.20135052502155304 0.5468659996986389
0.4479798972606659 0.11503280699253082 0.4838218688964844
0.5308055281639099 0.22646386921405792 0.4963272213935852
0.43233779072761536 0.23442977666854858 0.5318565964698792
0.5165729522705078 0.1467626988887787 0.46144261956214905
0.4348036050796509 0.11775998026132584 0.5293572545051575
0.3571431636810303 0.24815645813941956 0.5635074377059937
0.3586078882217407 0.2344266027212143 0.5331441164016724
0.356114000082016 0.23824292421340942 0.566745400428772
0.41018927097320557 0.17743335664272308 0.5307416915893555
0.514981746673584 0.2142818719148636 0.4090265929698944
0.42867711186408997 0.2152593731880188 0.46166208386421204
0.4195582866668701 0.24113695323467255 0.5606595873832703
0.4293495714664459 0.16862891614437103 0.6003638505935669
0.5178058743476868 0.10474366694688797 0.4973168969154358
0.3832035958766937 0.14450500905513763 0.49774372577667236
0.5299779176712036 0.1570023000240326 0.5626806020736694
0.4849461019039154 0.21066391468048096 0.44521450996398926
0.39577674865722656 0.10821003466844559 0.5576068162918091
0.5314512848854065 0.10754898935556412 0.6036544442176819
0.4267938733100891 0.2423105537891388 0.5316856503486633
0.5092464089393616 0.1799704134464264 0.5838574171066284
0.4769197702407837 0.26082393527030945 0.49156516790390015
0.3510076403617859 0.1366933435201645 0.4217360019683838
0.5025820136070251 0.1364578753709793 0.5278499722480774
0.38777977228164673 0.11262398213148117 0.4222451150417328
0.48782873153686523 0.22010158002376556 0.45453086495399475
0.4953678548336029 0.26265522837638855 0.43736571073532104
0.5014086961746216 0.11445904523134232 0.5854012966156006
0.3567724823951721 0.26292160153388977 0.5251542329788208
0.41383370757102966 0.14669235050678253 0.4469732642173767
0.3802989721298218 0.1052982360124588 0.47585055232048035
0.35009801387786865 0.11779932677745819 0.4599177837371826
0.39423173666000366 0.20445659756660461 0.48548680543899536
0.41639581322669983 0.127348855137825 0.4529757797718048
0.4447777271270752 0.10739506036043167 0.592913031578064
0.43233779072761536 0.23442977666854858 0.5318565964698792
0.44768667221069336 0.26028701663017273 0.5130521655082703
0.4322805106639862 0.24304451048374176 0.5840281248092651
0.5030911564826965 0.13010826706886292 0.5366427898406982
0.4348036050796509 0.11775998026132584 0.5293572545051575
0.48872241377830505 0.1975531280040741 0.4483966529369354
0.3571431636810303 0.24815645813941956 0.5635074377059937
0.3586078882217407 0.2344266027212143 0.5331441164016724
0.356114000082016 0.23824292421340942 0.566745400428772
0.41018927097320557 0.17743335664272308 0.5307416915893555
0.514981746673584 0.2142818719148636 0.4090265929698944
0.42867711186408997 0.2152593731880188 0.46166208386421204
0.4195582866668701 0.24113695323467255 0.5606595873832703
0.4293495714664459 0.16862891614437103 0.6003638505935669
0.5178058743476868 0.10474366694688797 0.4973168969154358
0.3832035958766937 0.14450500905513763 0.49774372577667236
0.5299779176712036 0.1570023000240326 0.5626806020736694
0.48097652196884155 0.2072134017944336 0.5873252153396606
0.44368743896484375 0.2344438135623932 0.5099032521247864
0.3540757894515991 0.20543573796749115 0.5338326096534729
0.384015291929245 0.23068685829639435 0.4464472532272339
0.5321620106697083 0.11784563958644867 0.42679232358932495
0.41155871748924255 0.13617408275604248 0.4885662794113159
0.43275967240333557 0.19799873232841492 0.45596176385879517
0.48904988169670105 0.10628295689821243 0.47471553087234497
0.480884313583374 0.2379564642906189 0.5041581988334656
0.5034694075584412 0.24419401586055756 0.4250446856021881
0.38190755248069763 0.16403840482234955 0.4360187351703644
0.5274452567100525 0.23358719050884247 0.4175718128681183
0.5490077137947083 0.21722128987312317 0.5129251480102539
0.3558797836303711 0.2189064621925354 0.4473647475242615
0.4550822675228119 0.11910693347454071 0.46769046783447266
0.3788033127784729 0.17292653024196625 0.48246824741363525
0.37432223558425903 0.11794163286685944 0.5971652269363403
0.360670804977417 0.18238849937915802 0.570205807685852
0.5531385540962219 0.14239107072353363 0.4616733193397522
0.437029093503952 0.22093868255615234 0.4574916958808899
0.48327893018722534 0.13087983429431915 0.43952953815460205
0.4481728672981262 0.1317741423845291 0.5367655754089355
0.35735493898391724 0.20685352385044098 0.4894114136695862
0.5299779176712036 0.1570023000240326 0.5626806020736694
0.4849461019039154 0.21066391468048096 0.44521450996398926
0.39577674865722656 0.10821003466844559 0.5576068162918091
0.5314512848854065 0.10754898935556412 0.6036544442176819
0.4267938733100891 0.2423105537891388 0.5316856503486633
0.5092464089393616 0.1799704134464264 0.5838574171066284
0.4769197702407837 0.26082393527030945 0.49156516790390015
0.3510076403617859 0.1366933435201645 0.4217360019683838
0.5025820136070251 0.1364578753709793 0.5278499722480774
0.5254650712013245 0.19938978552818298 0.41493138670921326
0.4839879274368286 0.14266934990882874 0.4868397116661072
0.5434156656265259 0.21969343721866608 0.4243454039096832
0.36352288722991943 0.2302345484495163 0.5728500485420227
0.4333968162536621 0.20090709626674652 0.5018467307090759
0.5199277400970459 0.14633572101593018 0.460657000541687
0.4626504182815552 0.19066546857357025 0.536865234375
0.49488309025764465 0.12386481463909149 0.5195441246032715
0.39446279406547546 0.23278892040252686 0.515635073184967
0.5282065272331238 0.1385909616947174 0.4692958891391754
0.4810328483581543 0.11825200170278549 0.4399985074996948
0.43967363238334656 0.12519820034503937 0.5201568007469177
0.4558238089084625 0.19952742755413055 0.48265767097473145
0.44664832949638367 0.20617635548114777 0.4615139663219452
0.40358734130859375 0.24336065351963043 0.5898624062538147
0.37432223558425903 0.11794163286685944 0.5971652269363403
0.360670804977417 0.18238849937915802 0.570205807685852
0.389682799577713 0.11057686060667038 0.4074457883834839
0.437029093503952 0.22093868255615234 0.4574916958808899
0.48327893018722534 0.13087983429431915 0.43952953815460205
0.5294619798660278 0.19824054837226868 0.47900933027267456
0.5299779176712036 0.1570023000240326 0.5626806020736694
0.4849461019039154 0.21066391468048096 0.44521450996398926
0.480272114276886 0.18540924787521362 0.5582867860794067
0.552254319190979 0.1057049036026001 0.5809881687164307
0.5235231518745422 0.16935878992080688 0.4663988947868347
0.5167745351791382 0.12829993665218353 0.41338804364204407
0.5498349070549011 0.1345166116952896 0.5649243593215942
0.5004011392593384 0.12376216053962708 0.42029517889022827
0.513719379901886 0.16600532829761505 0.5310776829719543
0.5089164972305298 0.14812424778938293 0.43095454573631287
0.38540536165237427 0.18708547949790955 0.5818463563919067
0.4941980838775635 0.23819348216056824 0.5891936421394348
0.5175305604934692 0.11049575358629227 0.5950174331665039
0.4811236560344696 0.16959872841835022 0.4889671206474304
0.4266481399536133 0.2009783387184143 0.4666341245174408
0.4642004668712616 0.104249507188797 0.548423707485199
0.44327056407928467 0.25990498065948486 0.47465455532073975
0.3976885974407196 0.23234401643276215 0.424912691116333
0.4054095149040222 0.14358554780483246 0.4184701144695282
0.5230643153190613 0.15287065505981445 0.47717639803886414
0.5045009851455688 0.17937801778316498 0.4557384252548218
0.4414825141429901 0.19068485498428345 0.404274582862854
0.4937061667442322 0.10763702541589737 0.41712409257888794
0.4769076406955719 0.19185303151607513 0.40413010120391846
0.44350025057792664 0.1059156060218811 0.5210559964179993
0.46221300959587097 0.2251976877450943 0.5938170552253723
0.4905838072299957 0.18431136012077332 0.40479573607444763
0.5021198987960815 0.2634105086326599 0.44688814878463745
0.5463689565658569 0.12167808413505554 0.4048033654689789
0.5353636741638184 0.17204166948795319 0.4935692250728607
0.45844215154647827 0.19291739165782928 0.524223804473877
0.48430371284484863 0.16547207534313202 0.46360012888908386
0.5419221520423889 0.10651185363531113 0.49291178584098816
0.48025164008140564 0.20361003279685974 0.5204417705535889
0.5369399785995483 0.1763172596693039 0.4562748074531555
0.43248221278190613 0.11483919620513916 0.41770586371421814
0.36379730701446533 0.15234962105751038 0.5147517323493958
0.41236644983291626 0.19484741985797882 0.4350025951862335
0.547741174697876 0.23598892986774445 0.5156068801879883
0.5208683013916016 0.1888800859451294 0.5698758363723755
0.4946881830692291 0.1681113988161087 0.4599842429161072
0.4730137288570404 0.25614601373672485 0.5907845497131348
0.4485623836517334 0.22975565493106842 0.44314199686050415
0.4797038435935974 0.12935397028923035 0.5702269673347473
0.47798481583595276 0.10917767882347107 0.4053979814052582
0.3519156575202942 0.18909810483455658 0.5011922717094421
0.49824777245521545 0.2483818084001541 0.5442168116569519
0.4595057964324951 0.14742593467235565 0.4980069398880005
0.45294326543807983 0.263688862323761 0.5996748208999634
0.3790597915649414 0.2642177939414978 0.4575597047805786
0.5553106665611267 0.10948461294174194 0.5104177594184875
0.349822998046875 0.13021013140678406 0.4071160554885864
0.48244407773017883 0.17311270534992218 0.5396527051925659
0.3888075053691864 0.1771571785211563 0.4710615277290344
0.40261924266815186 0.24585576355457306 0.4326930642127991
0.38122349977493286 0.22700750827789307 0.5768924355506897
0.4413299858570099 0.16957712173461914 0.4880724251270294
0.37106528878211975 0.1422402262687683 0.5541272163391113
0.5147057175636292 0.17196199297904968 0.5023840069770813
0.48157861828804016 0.1075512021780014 0.4103778898715973
0.3788033127784729 0.17292653024196625 0.48246824741363525
0.37432223558425903 0.11794163286685944 0.5971652269363403
0.360670804977417 0.18238849937915802 0.570205807685852
0.389682799577713 0.11057686060667038 0.4074457883834839
0.4639095962047577 0.13336889445781708 0.5353277921676636
0.5163662433624268 0.130509153008461 0.4043566584587097
0.3554559350013733 0.18478074669837952 0.5354354977607727
0.39549490809440613 0.18089686334133148 0.43307042121887207
0.4908818304538727 0.19123326241970062 0.4349291920661926
0.46427640318870544 0.23137719929218292 0.5072927474975586
0.49793586134910583 0.1359216570854187 0.49974459409713745
0.46967175602912903 0.24308030307292938 0.5573523044586182
0.4881702959537506 0.13211193680763245 0.5085585117340088
0.5294154286384583 0.21290720999240875 0.4687643349170685
0.42567694187164307 0.10894063860177994 0.39358723163604736
0.3788208067417145 0.2641187608242035 0.4854300320148468
0.5302216410636902 0.1454543024301529 0.43115201592445374
0.386150985956192 0.18098869919776917 0.519814133644104
0.46135467290878296 0.11162986606359482 0.5113970637321472
0.38190755248069763 0.16403840482234955 0.4360187351703644
0.5038692355155945 0.2527886927127838 0.43788737058639526
0.524709165096283 0.13387295603752136 0.5448571443557739
0.5111898183822632 0.2202540785074234 0.5116321444511414
0.4789770543575287 0.10873997211456299 0.5891649723052979
0.4539036154747009 0.14952406287193298 0.5146473050117493
0.4699691832065582 0.10531818121671677 0.47191712260246277
0.4167555868625641 0.14290207624435425 0.5639363527297974
0.4479995667934418 0.11249705404043198 0.45702680945396423
0.4403708279132843 0.1738208681344986 0.42998233437538147
0.4241258502006531 0.11691995710134506 0.5562441349029541
0.46539977192878723 0.23879750072956085 0.5841555595397949
0.5348285436630249 0.22919565439224243 0.5031281113624573
0.4131760597229004 0.11644963175058365 0.5266014933586121
0.43075981736183167 0.22187593579292297 0.5759860873222351
0.37812161445617676 0.10582927614450455 0.4533485174179077
0.3522329032421112 0.2568904757499695 0.5803824663162231
0.5091104507446289 0.11903220415115356 0.5457243919372559
0.4690264165401459 0.23057061433792114 0.44112858176231384
0.4737549424171448 0.19483855366706848 0.4681880474090576
0.4620920717716217 0.14900626242160797 0.5732510685920715
0.40575680136680603 0.15771745145320892 0.42354118824005127
0.3731725215911865 0.11367853730916977 0.5633226633071899
0.5364423990249634 0.17142607271671295 0.41706448793411255
0.48499059677124023 0.20108163356781006 0.4088270962238312
0.5163633823394775 0.13247358798980713 0.5232152342796326
0.5423450469970703 0.1334048956632614 0.4972550570964813
0.5102439522743225 0.20401521027088165 0.5685919523239136
0.43747007846832275 0.20141631364822388 0.5401927828788757
0.4356507956981659 0.20454733073711395 0.5403115153312683
0.5039899945259094 0.17828992009162903 0.447687029838562
0.5027977228164673 0.1932099312543869 0.42947113513946533
0.38190755248069763 0.16403840482234955 0.4360187351703644
0.5038692355155945 0.2527886927127838 0.43788737058639526
0.524709165096283 0.13387295603752136 0.5448571443557739
0.5111898183822632 0.2202540785074234 0.5116321444511414
0.4789770543575287 0.10873997211456299 0.5891649723052979
0.4539036154747009 0.14952406287193298 0.5146473050117493
0.4699691832065582 0.10531818121671677 0.47191712260246277
0.4167555868625641 0.14290207624435425 0.5639363527297974
0.4479995667934418 0.11249705404043198 0.45702680945396423
0.3671577572822571 0.18401697278022766 0.4885719120502472
0.37410345673561096 0.1705481857061386 0.48712077736854553
0.40582600235939026 0.1469554305076599 0.44089803099632263
0.3801652491092682 0.25504449009895325 0.42826226353645325
0.4436000883579254 0.18221209943294525 0.5057438015937805
0.3741406798362732 0.22093281149864197 0.4294281303882599
0.533452570438385 0.15321898460388184 0.46331241726875305
0.4641413390636444 0.10615531355142593 0.4370931088924408
0.5293562412261963 0.18799105286598206 0.4049469232559204
0.3560789227485657 0.17700986564159393 0.5169416069984436
0.5099338293075562 0.18799030780792236 0.5237883925437927
0.518469512462616 0.10496383905410767 0.5402524471282959
0.5014859437942505 0.19776391983032227 0.4130426049232483
0.34852153062820435 0.13039276003837585 0.5897670984268188
0.51035076379776 0.15762382745742798 0.44152355194091797
0.49484196305274963 0.17791369557380676 0.43656739592552185
0.5163141489028931 0.14506767690181732 0.5495998859405518
0.49177926778793335 0.2464451640844345 0.550148069858551
0.5449262857437134 0.212372824549675 0.5530766844749451
0.35685741901397705 0.1995340883731842 0.5468387007713318
0.5099595785140991 0.1978689432144165 0.48048996925354004
0.5356916189193726 0.2207426130771637 0.5299630761146545
0.43163785338401794 0.25429677963256836 0.545528769493103
0.4764441251754761 0.11577288806438446 0.49539923667907715
0.40432408452033997 0.24976250529289246 0.47744056582450867
0.3567395508289337 0.15883226692676544 0.5434983372688293
0.3507033586502075 0.21776285767555237 0.5254152417182922
0.4579257667064667 0.18810701370239258 0.42186203598976135
0.47583261132240295 0.10887156426906586 0.5899785161018372
0.3809928894042969 0.1741359382867813 0.5273154377937317
0.5357089042663574 0.22913406789302826 0.5097737312316895
0.49924206733703613 0.25574594736099243 0.5249574780464172
0.37876972556114197 0.10581006109714508 0.5347580909729004
0.509026825428009 0.17938357591629028 0.4827319085597992
0.3665056824684143 0.256682425737381 0.42967894673347473
0.37502801418304443 0.1447647213935852 0.5146884918212891
0.49289920926094055 0.1594633162021637 0.4804759621620178
0.4762820303440094 0.22070327401161194 0.4613264203071594
0.5171186327934265 0.12315694987773895 0.44759806990623474
0.4064060151576996 0.1556624323129654 0.531325101852417
0.5085234045982361 0.1766100972890854 0.5021145343780518
0.5107693672180176 0.2152681201696396 0.521774172782898
0.36572030186653137 0.1347457766532898 0.4857032299041748
0.5249550938606262 0.11027563363313675 0.4856758117675781
0.5440507531166077 0.10438468307256699 0.5563545227050781
0.5131585597991943 0.2295430451631546 0.567130982875824
0.4440248906612396 0.17921027541160583 0.5901035666465759
0.48262712359428406 0.17056728899478912 0.5955270528793335
0.4715401828289032 0.19793643057346344 0.5675584077835083
0.529978334903717 0.13343936204910278 0.4569636583328247
0.4473424553871155 0.11745630204677582 0.5100293159484863
0.4482436776161194 0.13305582106113434 0.4261661469936371
0.4872313439846039 0.1443350613117218 0.4683455526828766
0.4643619954586029 0.2539865970611572 0.5625861287117004
0.4377507269382477 0.2068047970533371 0.5372234582901001
0.41236644983291626 0.19484741985797882 0.4350025951862335
0.5274618864059448 0.23419703543186188 0.48276737332344055
0.4924420118331909 0.1530274748802185 0.49072524905204773
0.5148665308952332 0.10967102646827698 0.4738386571407318
0.5497820377349854 0.20775580406188965 0.5507863759994507
0.38804152607917786 0.22647635638713837 0.4019947350025177
0.47196680307388306 0.1533401906490326 0.5380316376686096
0.44859063625335693 0.25614893436431885 0.5561222434043884
0.5174064636230469 0.1194063276052475 0.4146219491958618
0.4274464547634125 0.14079365134239197 0.4017156660556793
0.5505741834640503 0.20593683421611786 0.5962803363800049
0.3753233253955841 0.10601861774921417 0.41008901596069336
0.5395313501358032 0.18722262978553772 0.4817997217178345
0.5081552863121033 0.21926970779895782 0.5876816511154175
0.4041898548603058 0.20428615808486938 0.4543881118297577
0.34729447960853577 0.1392098367214203 0.4319345951080322
0.4762820303440094 0.22070327401161194 0.4613264203071594
0.5171186327934265 0.12315694987773895 0.44759806990623474
0.4064060151576996 0.1556624323129654 0.531325101852417
0.5085234045982361 0.1766100972890854 0.5021145343780518
0.5107693672180176 0.2152681201696396 0.521774172782898
0.36572030186653137 0.1347457766532898 0.4857032299041748
0.5249550938606262 0.11027563363313675 0.4856758117675781
0.5440507531166077 0.10438468307256699 0.5563545227050781
0.5131585597991943 0.2295430451631546 0.567130982875824
0.4440248906612396 0.17921027541160583 0.5901035666465759
0.48262712359428406 0.17056728899478912 0.5955270528793335
0.4715401828289032 0.19793643057346344 0.5675584077835083
0.529978334903717 0.13343936204910278 0.4569636583328247
0.4473424553871155 0.11745630204677582 0.5100293159484863
0.4482436776161194 0.13305582106113434 0.4261661469936371
0.4872313439846039 0.1443350613117218 0.4683455526828766
0.509026825428009 0.17938357591629028 0.4827319085597992
0.5107693672180176 0.2152681201696396 0.521774172782898
0.36572030186653137 0.1347457766532898 0.4857032299041748
0.5249550938606262 0.11027563363313675 0.4856758117675781
0.5440507531166077 0.10438468307256699 0.5563545227050781
0.5131585597991943 0.2295430451631546 0.567130982875824
0.4440248906612396 0.17921027541160583 0.5901035666465759
0.48262712359428406 0.17056728899478912 0.5955270528793335
0.4715401828289032 0.19793643057346344 0.5675584077835083
0.529978334903717 0.13343936204910278 0.4569636583328247
0.4952583312988281 0.2596531808376312 0.5769150257110596
0.4324161410331726 0.1425345093011856 0.5257768034934998
0.46865028142929077 0.12585283815860748 0.5067183971405029
0.5158408284187317 0.20932573080062866 0.4815731942653656
0.4354054033756256 0.11333682388067245 0.48974844813346863
0.3817790746688843 0.1887400895357132 0.5553170442581177
0.3756505846977234 0.18165747821331024 0.5300245881080627
0.5123410820960999 0.17885258793830872 0.5730177760124207
0.4734358787536621 0.2396819144487381 0.5293862223625183
0.46516481041908264 0.18584024906158447 0.4239835739135742
0.3673537075519562 0.17732268571853638 0.4615740478038788
0.5507689714431763 0.14852285385131836 0.41478362679481506
0.49537694454193115 0.21456851065158844 0.5054534077644348
0.5169066786766052 0.23272325098514557 0.4483044147491455
0.3810439705848694 0.15476015210151672 0.5489663481712341
0.3820664882659912 0.1522064059972763 0.4181731343269348
0.37553396821022034 0.11191411316394806 0.46833035349845886
0.37542465329170227 0.1128678172826767 0.41508474946022034
0.5297936797142029 0.11058010905981064 0.5368360280990601
0.4946024417877197 0.14039833843708038 0.4487171769142151
0.5279651284217834 0.1893390268087387 0.5195907950401306
0.5398977398872375 0.12680655717849731 0.43684104084968567
0.509026825428009 0.17938357591629028 0.4827319085597992
0.5107693672180176 0.2152681201696396 0.521774172782898
0.36572030186653137 0.1347457766532898 0.4857032299041748
0.5249550938606262 0.11027563363313675 0.4856758117675781
0.5440507531166077 0.10438468307256699 0.5563545227050781
0.5131585597991943 0.2295430451631546 0.567130982875824
0.4440248906612396 0.17921027541160583 0.5901035666465759
0.48262712359428406 0.17056728899478912 0.5955270528793335
0.4715401828289032 0.19793643057346344 0.5675584077835083
0.529978334903717 0.13343936204910278 0.4569636583328247
0.4473424553871155 0.11745630204677582 0.5100293159484863
0.4482436776161194 0.13305582106113434 0.4261661469936371
0.4872313439846039 0.1443350613117218 0.4683455526828766
0.4643619954586029 0.2539865970611572 0.5625861287117004
0.4377507269382477 0.2068047970533371 0.5372234582901001
0.48480650782585144 0.19924907386302948 0.47525927424430847
0.538711428642273 0.1377396583557129 0.5184021592140198
0.37314078211784363 0.12079761922359467 0.5748953819274902
0.4876621663570404 0.258135586977005 0.5181944370269775
0.4734358787536621 0.2396819144487381 0.5293862223625183
0.46516481041908264 0.18584024906158447 0.4239835739135742
0.3673537075519562 0.17732268571853638 0.4615740478038788
0.5507689714431763 0.14852285385131836 0.41478362679481506
0.49537694454193115 0.21456851065158844 0.5054534077644348
0.5169066786766052 0.23272325098514557 0.4483044147491455
0.3810439705848694 0.15476015210151672 0.5489663481712341
0.3820664882659912 0.1522064059972763 0.4181731343269348
0.37542465329170227 0.1128678172826767 0.41508474946022034
0.48023518919944763 0.16047537326812744 0.47520923614501953
0.5108157992362976 0.173753023147583 0.44450342655181885
0.4946024417877197 0.14039833843708038 0.4487171769142151
0.5279651284217834 0.1893390268087387 0.5195907950401306
0.461541086435318 0.2570824921131134 0.4192376732826233
0.516278862953186 0.1757269948720932 0.5149191617965698
0.4001608192920685 0.11762761324644089 0.5202946662902832
0.41150566935539246 0.24908269941806793 0.47543057799339294
0.40476080775260925 0.1900606006383896 0.4572772979736328
0.4264538288116455 0.17503100633621216 0.4802071452140808
0.4752086102962494 0.14071688055992126 0.4493093192577362
0.5501848459243774 0.10682392865419388 0.4742300808429718
0.48433101177215576 0.16211910545825958 0.45803865790367126
0.47893789410591125 0.24760109186172485 0.4514369070529938
0.454995334148407 0.2518530488014221 0.5033850073814392
0.5052199363708496 0.17392435669898987 0.47926241159439087
0.4045479893684387 0.23879152536392212 0.5254546999931335
0.3735808730125427 0.19594067335128784 0.5616658329963684
0.46669071912765503 0.23958005011081696 0.4037799537181854
0.3773999810218811 0.15209662914276123 0.4668980836868286
0.5433140993118286 0.1630193591117859 0.4478132724761963
0.5167754292488098 0.15543080866336823 0.5393651127815247
0.5278056263923645 0.16482481360435486 0.5963163375854492
0.4347671866416931 0.10843123495578766 0.448946088552475
0.45097285509109497 0.21269622445106506 0.49780815839767456
0.3860098123550415 0.1532272845506668 0.4498124122619629
0.4449816942214966 0.13316592574119568 0.5613695383071899
0.415728896856308 0.14776889979839325 0.4737410843372345
0.44598087668418884 0.18796217441558838 0.47980016469955444
0.43860703706741333 0.21260413527488708 0.43352892994880676
0.45488613843917847 0.12104694545269012 0.4347566068172455
0.5219103097915649 0.20300184190273285 0.5951647758483887
0.5432528853416443 0.24837638437747955 0.524864137172699
0.45079702138900757 0.1544913947582245 0.5152779817581177
0.545918345451355 0.1480073183774948 0.5725698471069336
0.3713203966617584 0.20479373633861542 0.4894488751888275
0.5049412846565247 0.14806179702281952 0.5434655547142029
0.45436036586761475 0.16479791700839996 0.5115953683853149
0.44225841760635376 0.13810385763645172 0.48086225986480713
0.48454320430755615 0.15202611684799194 0.5225545167922974
0.4252164363861084 0.22688829898834229 0.46185368299484253
0.43995189666748047 0.15100042521953583 0.4425794780254364
0.4071708619594574 0.18886353075504303 0.5804758667945862
0.5183776617050171 0.14206737279891968 0.4064246416091919
0.37631896138191223 0.152048259973526 0.48070666193962097
0.40424057841300964 0.17279130220413208 0.4984022378921509
0.48440617322921753 0.1174379363656044 0.505181610584259
0.5432749390602112 0.16058741509914398 0.44249069690704346
0.5280835032463074 0.1866554319858551 0.5517734885215759
0.3770550787448883 0.22677408158779144 0.5748369693756104
0.3957030177116394 0.2261434644460678 0.4358467161655426
0.41888877749443054 0.2582634687423706 0.5347156524658203
0.5460532903671265 0.17204391956329346 0.47715896368026733
0.4914567768573761 0.15277709066867828 0.43045923113822937
0.3656685948371887 0.22086027264595032 0.5779297351837158
0.3747093081474304 0.10836494714021683 0.4856110215187073
0.47919002175331116 0.10781988501548767 0.450021356344223
0.357954204082489 0.12546996772289276 0.4769827723503113
0.35632357001304626 0.2129058837890625 0.5881791710853577
0.41259273886680603 0.11819816380739212 0.4488818645477295
0.5205047726631165 0.18516826629638672 0.5146731734275818
0.5175343751907349 0.25041624903678894 0.5440581440925598
0.41504210233688354 0.2340841442346573 0.5290932059288025
0.42460718750953674 0.15438956022262573 0.495973140001297
0.3722039759159088 0.14142285287380219 0.521808385848999
0.517623782157898 0.1358160525560379 0.40537020564079285
0.49644845724105835 0.22808462381362915 0.4419258236885071
0.5497304797172546 0.23810288310050964 0.44419243931770325
0.41906318068504333 0.2580004334449768 0.5906682014465332
0.45207318663597107 0.20310065150260925 0.5642701387405396
0.43316227197647095 0.1840144544839859 0.600726306438446
0.3797903060913086 0.11900255084037781 0.5042092204093933
0.3809548020362854 0.14077968895435333 0.4370487332344055
0.4899797737598419 0.2267894744873047 0.4167851209640503
0.479448139667511 0.14471931755542755 0.43923717737197876
0.5211540460586548 0.10446462780237198 0.4024726450443268
0.3932937681674957 0.19228297472000122 0.4938589930534363
0.512641966342926 0.26194608211517334 0.44284555315971375
0.4958444833755493 0.2200671136379242 0.45159757137298584
0.5386940240859985 0.24287214875221252 0.44018179178237915
0.41611379384994507 0.12331908941268921 0.47623440623283386
0.4437636137008667 0.12599113583564758 0.46452516317367554
0.3486054241657257 0.10610590130090714 0.5081620812416077
0.45822644233703613 0.1689295917749405 0.46948739886283875
0.39638933539390564 0.2367566078901291 0.5813270211219788
0.42381909489631653 0.23968878388404846 0.4800975024700165
0.3747093081474304 0.10836494714021683 0.4856110215187073
0.5121933221817017 0.2163451761007309 0.5751241445541382
0.4778144955635071 0.20186813175678253 0.5655618906021118
0.36805856227874756 0.2521303594112396 0.4907585382461548
0.3828599452972412 0.25237101316452026 0.43713730573654175
0.4440780580043793 0.2227616161108017 0.5422524809837341
0.529813826084137 0.19243155419826508 0.5226464867591858
0.5292027592658997 0.20997972786426544 0.4663965702056885
0.380683571100235 0.12879346311092377 0.5807701349258423
0.4207001328468323 0.1516401767730713 0.5726741552352905
0.4094041883945465 0.2075481116771698 0.4382950961589813
0.5189202427864075 0.22259880602359772 0.4613701403141022
0.3811546862125397 0.15617960691452026 0.4328545928001404
0.4727669656276703 0.21529804170131683 0.4247193932533264
0.4369944930076599 0.151108056306839 0.5337184071540833
0.45130252838134766 0.11147527396678925 0.45186519622802734
0.3878552317619324 0.1540154367685318 0.5848312973976135
0.39980557560920715 0.18004608154296875 0.48862457275390625
0.4584776759147644 0.12154854834079742 0.5312129855155945
0.3650982975959778 0.22087866067886353 0.45916372537612915
0.45207318663597107 0.20310065150260925 0.5642701387405396
0.43316227197647095 0.1840144544839859 0.600726306438446
0.3797903060913086 0.11900255084037781 0.5042092204093933
0.3809548020362854 0.14077968895435333 0.4370487332344055
0.4899797737598419 0.2267894744873047 0.4167851209640503
0.479448139667511 0.14471931755542755 0.43923717737197876
0.5211540460586548 0.10446462780237198 0.4024726450443268
0.4848335385322571 0.10842666029930115 0.5886874794960022
0.36387166380882263 0.1086665689945221 0.5434016585350037
0.512641966342926 0.26194608211517334 0.44284555315971375
0.4958444833755493 0.2200671136379242 0.45159757137298584
0.5386940240859985 0.24287214875221252 0.44018179178237915
0.4468502998352051 0.16956600546836853 0.4218544363975525
0.3486054241657257 0.10610590130090714 0.5081620812416077
0.45822644233703613 0.1689295917749405 0.46948739886283875
0.5326348543167114 0.15821200609207153 0.40019968152046204
0.5121933221817017 0.2163451761007309 0.5751241445541382
0.36338531970977783 0.11692927032709122 0.47917333245277405
0.36805856227874756 0.2521303594112396 0.4907585382461548
0.3828599452972412 0.25237101316452026 0.43713730573654175
0.4440780580043793 0.2227616161108017 0.5422524809837341
0.529813826084137 0.19243155419826508 0.5226464867591858
0.533549964427948 0.11061469465494156 0.5940688252449036
0.4082835614681244 0.14308229088783264 0.5041028261184692
0.4207001328468323 0.1516401767730713 0.5726741552352905
0.4793507158756256 0.1483101099729538 0.5747678279876709
0.43747007846832275 0.20141631364822388 0.5401927828788757
0.35913023352622986 0.21340776979923248 0.5389537811279297
0.5231437683105469 0.10800011456012726 0.4549741744995117
0.39713916182518005 0.2427436262369156 0.5137851238250732
0.3908845782279968 0.11619974672794342 0.5382210612297058
0.543761134147644 0.1766110509634018 0.5116822123527527
0.4095207452774048 0.14973802864551544 0.5027480721473694
0.5259581804275513 0.12147945910692215 0.6049904823303223
0.5259549617767334 0.17489604651927948 0.5764491558074951
0.4749203026294708 0.1791348159313202 0.5018927454948425
0.4585103690624237 0.187575563788414 0.5540761351585388
0.506620466709137 0.1602301001548767 0.4320560693740845
0.4742985665798187 0.15806327760219574 0.5448300838470459
0.3594261109828949 0.19405153393745422 0.4521867036819458
0.3924908936023712 0.17369858920574188 0.513184666633606
0.4823153614997864 0.17734059691429138 0.5822641253471375
0.5182092785835266 0.19944654405117035 0.4817275106906891
0.5347619652748108 0.1798100769519806 0.5118448734283447
0.5192256569862366 0.16777846217155457 0.4214971363544464
0.3842809796333313 0.10491198301315308 0.4573790431022644
0.38471555709838867 0.19653460383415222 0.5470632314682007
0.38811856508255005 0.17315877974033356 0.47679588198661804
0.4663230776786804 0.16730529069900513 0.4503892660140991
0.4824865162372589 0.15689554810523987 0.5682330131530762
0.40327441692352295 0.12545523047447205 0.45747119188308716
0.3597910702228546 0.21499942243099213 0.5699718594551086
0.4440809190273285 0.1922455132007599 0.47856733202934265
0.39591124653816223 0.21704357862472534 0.4979514181613922
0.3652239739894867 0.25929272174835205 0.4207262694835663
0.5070422291755676 0.11566801369190216 0.44212716817855835
0.3994472324848175 0.10857240110635757 0.44041013717651367
0.3522818982601166 0.10832071304321289 0.5090011358261108
0.4356507956981659 0.20454733073711395 0.5403115153312683
0.545918345451355 0.1480073183774948 0.5725698471069336
0.3713203966617584 0.20479373633861542 0.4894488751888275
0.5176587104797363 0.23725765943527222 0.47936248779296875
0.5066128969192505 0.23672305047512054 0.4147387146949768
0.46645644307136536 0.19803109765052795 0.46753954887390137
0.4638765752315521 0.1777380108833313 0.45883244276046753
0.5501945614814758 0.23510955274105072 0.4059056341648102
0.370000958442688 0.19923615455627441 0.5174439549446106
0.45436036586761475 0.16479791700839996 0.5115953683853149
0.3675747513771057 0.1172543540596962 0.5826886892318726
0.35331451892852783 0.13076840341091156 0.41159114241600037
0.4169503450393677 0.1260705441236496 0.5131385326385498
0.3650982975959778 0.22087866067886353 0.45916372537612915
0.45207318663597107 0.20310065150260925 0.5642701387405396
0.43316227197647095 0.1840144544839859 0.600726306438446
0.36632290482521057 0.20172721147537231 0.4811464250087738
0.4792834222316742 0.12132138758897781 0.4320363402366638
0.39297550916671753 0.18932925164699554 0.4195321500301361
0.4387246370315552 0.20226196944713593 0.4565962553024292
0.38668960332870483 0.16654060781002045 0.4480968415737152
0.5528247356414795 0.1447407454252243 0.573979914188385
0.4941621422767639 0.1593676209449768 0.4662471115589142
0.36387166380882263 0.1086665689945221 0.5434016585350037
0.512641966342926 0.26194608211517334 0.44284555315971375
0.4958444833755493 0.2200671136379242 0.45159757137298584
0.5386940240859985 0.24287214875221252 0.44018179178237915
0.41611379384994507 0.12331908941268921 0.47623440623283386
0.4437636137008667 0.12599113583564758 0.46452516317367554
0.4891972839832306 0.20114101469516754 0.5875070691108704
0.3624204397201538 0.14689531922340393 0.4850772023200989
0.5289356112480164 0.10432583093643188 0.5154081583023071
0.3980567455291748 0.2571808397769928 0.5047190189361572
0.415728896856308 0.14776889979839325 0.4737410843372345
0.44598087668418884 0.18796217441558838 0.47980016469955444
0.43860703706741333 0.21260413527488708 0.43352892994880676
0.45488613843917847 0.12104694545269012 0.4347566068172455
0.5219103097915649 0.20300184190273285 0.5951647758483887
0.5432528853416443 0.24837638437747955 0.524864137172699
0.45079702138900757 0.1544913947582245 0.5152779817581177
0.545918345451355 0.1480073183774948 0.5725698471069336
0.3713203966617584 0.20479373633861542 0.4894488751888275
0.5176587104797363 0.23725765943527222 0.47936248779296875
0.5066128969192505 0.23672305047512054 0.4147387146949768
0.46645644307136536 0.19803109765052795 0.46753954887390137
0.4638765752315521 0.1777380108833313 0.45883244276046753
0.4638765752315521 0.1777380108833313 0.45883244276046753
0.5501945614814758 0.23510955274105072 0.4059056341648102
0.370000958442688 0.19923615455627441 0.5174439549446106
0.45436036586761475 0.16479791700839996 0.5115953683853149
0.44225841760635376 0.13810385763645172 0.48086225986480713
0.3837325870990753 0.21610836684703827 0.5852286219596863
0.5161321759223938 0.11409282684326172 0.5136155486106873
0.38208630681037903 0.16707591712474823 0.49434149265289307
0.49062830209732056 0.1219739317893982 0.587330162525177
0.38849112391471863 0.264446496963501 0.5947518944740295
0.527545690536499 0.24711118638515472 0.5258039236068726
0.3559474050998688 0.1114092692732811 0.41465726494789124
0.3797903060913086 0.11900255084037781 0.5042092204093933
0.5528247356414795 0.1447407454252243 0.573979914188385
0.4941621422767639 0.1593676209449768 0.4662471115589142
0.36387166380882263 0.1086665689945221 0.5434016585350037
0.48158085346221924 0.14519493281841278 0.49158209562301636
0.36685898900032043 0.17704468965530396 0.5601485371589661
0.379395991563797 0.17561282217502594 0.45574548840522766
0.44598087668418884 0.18796217441558838 0.47980016469955444
0.43860703706741333 0.21260413527488708 0.43352892994880676
0.3713203966617584 0.20479373633861542 0.4894488751888275
0.5026598572731018 0.16337697207927704 0.537976861000061
0.3769739866256714 0.1103292852640152 0.5222811102867126
0.3496180772781372 0.14120236039161682 0.41133061051368713
0.4638765752315521 0.1777380108833313 0.45883244276046753
0.5501945614814758 0.23510955274105072 0.4059056341648102
0.370000958442688 0.19923615455627441 0.5174439549446106
0.45436036586761475 0.16479791700839996 0.5115953683853149
0.3675747513771057 0.1172543540596962 0.5826886892318726
0.35331451892852783 0.13076840341091156 0.41159114241600037
0.4169503450393677 0.1260705441236496 0.5131385326385498
0.3650982975959778 0.22087866067886353 0.45916372537612915
0.45207318663597107 0.20310065150260925 0.5642701387405396
0.43316227197647095 0.1840144544839859 0.600726306438446
0.36632290482521057 0.20172721147537231 0.4811464250087738
0.4792834222316742 0.12132138758897781 0.4320363402366638
0.39297550916671753 0.18932925164699554 0.4195321500301361
0.4387246370315552 0.20226196944713593 0.4565962553024292
0.38668960332870483 0.16654060781002045 0.4480968415737152
0.5528247356414795 0.1447407454252243 0.573979914188385
0.4941621422767639 0.1593676209449768 0.4662471115589142
0.36387166380882263 0.1086665689945221 0.5434016585350037
0.45822644233703613 0.1689295917749405 0.46948739886283875
0.352824866771698 0.25527989864349365 0.5858865976333618
0.5502928495407104 0.23723702132701874 0.4744681417942047
0.4455488622188568 0.20866242051124573 0.45203396677970886
0.5215349197387695 0.11499401181936264 0.4850024878978729
