ply
format ascii 1.0
element vertex 822
property float x
property float y
property float z
end_header
0.2965918183326721 0.13787831366062164 0.47372668981552124
0.26854148507118225 0.1354716271162033 0.4971780776977539
0.22336560487747192 0.20495353639125824 0.5562481880187988
0.11808408051729202 0.14622829854488373 0.45915061235427856
0.2099100798368454 0.16615071892738342 0.5127880573272705
0.17568831145763397 0.19395367801189423 0.5189788341522217
0.26278698444366455 0.17659975588321686 0.5685747265815735
0.22280149161815643 0.23872517049312592 0.5161188840866089
0.287963330745697 0.20571237802505493 0.47848954796791077
0.13172662258148193 0.11772879213094711 0.5519254803657532
0.18919235467910767 0.2708854079246521 0.4877031445503235
0.25708675384521484 0.2141895592212677 0.5966233015060425
0.30679771304130554 0.12327949702739716 0.43710264563560486
0.13900482654571533 0.27471959590911865 0.5737587809562683
0.17801788449287415 0.1383480727672577 0.45410794019699097
0.1797521561384201 0.1605200469493866 0.6291270852088928
0.2211356908082962 0.1444527804851532 0.5033710598945618
0.22268076241016388 0.1117216944694519 0.4725372791290283
0.30458560585975647 0.2790890038013458 0.6020178198814392
0.12507012486457825 0.1198209673166275 0.49158671498298645
0.16299302875995636 0.22063811123371124 0.4784972071647644
0.25141069293022156 0.236902117729187 0.589423418045044
0.2599585950374603 0.21461696922779083 0.6315556764602661
0.17692609131336212 0.260545551776886 0.5748606324195862
0.27606406807899475 0.10855412483215332 0.5888372659683228
0.14070819318294525 0.11637929081916809 0.5120897889137268
0.14661385118961334 0.2516593933105469 0.48406869173049927
0.24940694868564606 0.26839786767959595 0.45494383573532104
0.28214868903160095 0.16790588200092316 0.5350167751312256
0.12358415126800537 0.21372224390506744 0.45300164818763733
0.22408214211463928 0.18206048011779785 0.5818144083023071
0.1742008626461029 0.21091994643211365 0.6014484167098999
0.11959085613489151 0.22522662580013275 0.6095315217971802
0.3089939057826996 0.243573397397995 0.5974556803703308
0.2606363594532013 0.16334329545497894 0.636386513710022
0.21060506999492645 0.2339644432067871 0.4922012984752655
0.28420257568359375 0.18378496170043945 0.4753079414367676
0.16054973006248474 0.14755624532699585 0.4385893642902374
0.2643241584300995 0.17992103099822998 0.6396185159683228
0.1190134733915329 0.16846267879009247 0.4956212043762207
0.1507289707660675 0.24448589980602264 0.5097548365592957
0.17339910566806793 0.10948927700519562 0.5161126852035522
0.2553390860557556 0.22000263631343842 0.5660427808761597
0.29829007387161255 0.2631942629814148 0.5354823470115662
0.1399909257888794 0.17544102668762207 0.46115776896476746
0.2930694818496704 0.155693918466568 0.5610299110412598
0.30040690302848816 0.20895156264305115 0.4510439932346344
0.19730398058891296 0.1484605371952057 0.580996036529541
0.29981082677841187 0.2711202800273895 0.5172660946846008
0.29894107580184937 0.11313247680664062 0.6128638386726379
0.12479883432388306 0.12959396839141846 0.5735505223274231
0.2962961792945862 0.252436101436615 0.494672566652298
0.15266215801239014 0.1933755725622177 0.6257363557815552
0.17869558930397034 0.22801008820533752 0.6188697218894958
0.23712162673473358 0.17694221436977386 0.5782509446144104
0.24730829894542694 0.25113445520401 0.6153272986412048
0.17946910858154297 0.24128657579421997 0.6508583426475525
0.21511507034301758 0.19094006717205048 0.5634647011756897
0.2605862319469452 0.2786562740802765 0.5135548114776611
0.24146249890327454 0.2304309606552124 0.6088443398475647
0.1212877407670021 0.27763062715530396 0.5711861252784729
0.26682934165000916 0.1312028169631958 0.47618743777275085
0.17401137948036194 0.1200748085975647 0.49727147817611694
0.1455659717321396 0.2878652513027191 0.4640641510486603
0.2738156020641327 0.2602834105491638 0.5960859060287476
0.1424519419670105 0.1750214397907257 0.6172245740890503
0.16900312900543213 0.22359126806259155 0.5047861337661743
0.17236705124378204 0.2508954107761383 0.5935521721839905
0.26373201608657837 0.1557713747024536 0.6348980069160461
0.19567348062992096 0.14775249361991882 0.5228014588356018
0.15475694835186005 0.11583367735147476 0.5441003441810608
0.23561248183250427 0.18524204194545746 0.5253901481628418
0.16824908554553986 0.16940481960773468 0.6385669112205505
0.3070088326931 0.2425597608089447 0.5201954245567322
0.21956562995910645 0.17902664840221405 0.47791001200675964
0.18382658064365387 0.16942748427391052 0.5719264149665833
0.1875440925359726 0.22469350695610046 0.561409056186676
0.2619260549545288 0.26629799604415894 0.4847274720668793
0.1849529892206192 0.11387813091278076 0.43026822805404663
0.26270559430122375 0.11215241253376007 0.597278356552124
0.2581591308116913 0.23130545020103455 0.5190335512161255
0.23174674808979034 0.11261051148176193 0.6200920343399048
0.29309871792793274 0.14179815351963043 0.5810379981994629
0.14383353292942047 0.2320871651172638 0.5360703468322754
0.16308966279029846 0.1765918880701065 0.6426489949226379
0.23382119834423065 0.27833765745162964 0.5981076955795288
0.26421332359313965 0.2790423333644867 0.4716862440109253
0.2796211838722229 0.25753873586654663 0.5263998508453369
0.2701202929019928 0.20432664453983307 0.5112485289573669
0.19272828102111816 0.1346733719110489 0.6323163509368896
0.17058798670768738 0.13816851377487183 0.56689453125
0.13275890052318573 0.118561752140522 0.5531777143478394
0.15443147718906403 0.11040951311588287 0.4979906380176544
0.29221031069755554 0.27932414412498474 0.5315252542495728
0.23555909097194672 0.21392270922660828 0.49380797147750854
0.22462908923625946 0.10689930617809296 0.6378585696220398
0.11959085613489151 0.22522662580013275 0.6095315217971802
0.3089939057826996 0.243573397397995 0.5974556803703308
0.2606363594532013 0.16334329545497894 0.636386513710022
0.21060506999492645 0.2339644432067871 0.4922012984752655
0.28420257568359375 0.18378496170043945 0.4753079414367676
0.16054973006248474 0.14755624532699585 0.4385893642902374
0.2643241584300995 0.17992103099822998 0.6396185159683228
0.1190134733915329 0.16846267879009247 0.4956212043762207
0.1507289707660675 0.24448589980602264 0.5097548365592957
0.17339910566806793 0.10948927700519562 0.5161126852035522
0.2553390860557556 0.22000263631343842 0.5660427808761597
0.29829007387161255 0.2631942629814148 0.5354823470115662
0.1399909257888794 0.17544102668762207 0.46115776896476746
0.2798687517642975 0.24544671177864075 0.5020392537117004
0.29563218355178833 0.1445809304714203 0.6081280708312988
0.11911802738904953 0.24115462601184845 0.6542956829071045
0.13351501524448395 0.11999842524528503 0.6158537268638611
0.194977805018425 0.25076112151145935 0.5436537861824036
0.2957800328731537 0.24190670251846313 0.5075309872627258
0.19534088671207428 0.1182985007762909 0.5022179484367371
0.1441483050584793 0.2764046788215637 0.4869628846645355
0.2026984989643097 0.1653129756450653 0.5840774774551392
0.19776564836502075 0.2398526519536972 0.636137843132019
0.18849174678325653 0.1571519672870636 0.5053110718727112
0.21039548516273499 0.23158963024616241 0.6381108164787292
0.16681598126888275 0.14922453463077545 0.5494266748428345
0.28838151693344116 0.2014196366071701 0.5604006052017212
0.15040434896945953 0.2684539258480072 0.501777708530426
0.11959085613489151 0.22522662580013275 0.6095315217971802
0.3089939057826996 0.243573397397995 0.5974556803703308
0.2606363594532013 0.16334329545497894 0.636386513710022
0.21060506999492645 0.2339644432067871 0.4922012984752655
0.28420257568359375 0.18378496170043945 0.4753079414367676
0.16054973006248474 0.14755624532699585 0.4385893642902374
0.2643241584300995 0.17992103099822998 0.6396185159683228
0.1190134733915329 0.16846267879009247 0.4956212043762207
0.1507289707660675 0.24448589980602264 0.5097548365592957
0.17339910566806793 0.10948927700519562 0.5161126852035522
0.2553390860557556 0.22000263631343842 0.5660427808761597
0.29829007387161255 0.2631942629814148 0.5354823470115662
0.1399909257888794 0.17544102668762207 0.46115776896476746
0.21930380165576935 0.18231549859046936 0.4783584177494049
0.2999477982521057 0.1954338401556015 0.5413036942481995
0.14901649951934814 0.11909283697605133 0.6083768606185913
0.3009622097015381 0.26526689529418945 0.5104072093963623
0.11889844387769699 0.27426138520240784 0.5044065713882446
0.29347920417785645 0.19433088600635529 0.6099914312362671
0.14630945026874542 0.27834081649780273 0.5409408211708069
0.21833615005016327 0.174120232462883 0.5040488839149475
0.25829312205314636 0.19088709354400635 0.6331241130828857
0.2319449484348297 0.18081063032150269 0.4722774624824524
0.32076868414878845 0.12633585929870605 0.4997820556163788
0.19122953712940216 0.15341374278068542 0.49072781205177307
0.20287472009658813 0.2600592374801636 0.5931768417358398
0.13349264860153198 0.1094316765666008 0.4955175518989563
0.21623045206069946 0.1272796094417572 0.5624918341636658
0.2854998707771301 0.14800038933753967 0.5646870136260986
0.30031660199165344 0.11079105734825134 0.558721661567688
0.23922547698020935 0.19243124127388 0.48805952072143555
0.2812827229499817 0.2591496407985687 0.4926307499408722
0.30742156505584717 0.25694870948791504 0.4791252315044403
0.18564511835575104 0.25017479062080383 0.4905479848384857
0.21691253781318665 0.18935216963291168 0.5916325449943542
0.1932675689458847 0.22483330965042114 0.4684962332248688
0.1258450299501419 0.15600499510765076 0.5979326367378235
0.11694230139255524 0.27027544379234314 0.5841684937477112
0.3087880313396454 0.12143521755933762 0.46259647607803345
0.24780379235744476 0.2395876795053482 0.6442724466323853
0.12246696650981903 0.22294826805591583 0.493089884519577
0.27943339943885803 0.1667965203523636 0.5028347969055176
0.14360058307647705 0.16047100722789764 0.5975275635719299
0.23353059589862823 0.1739189177751541 0.5316440463066101
0.18783342838287354 0.13599394261837006 0.49224063754081726
0.21488702297210693 0.23146186769008636 0.4567711353302002
0.22848021984100342 0.2757440209388733 0.6209747195243835
0.16441568732261658 0.2031465619802475 0.5417158007621765
0.20818942785263062 0.1976965218782425 0.5032802224159241
0.12479883432388306 0.12959396839141846 0.5735505223274231
0.29255211353302 0.1734653264284134 0.5977681279182434
0.1412070244550705 0.2067478597164154 0.6382394433021545
0.27570176124572754 0.2181769460439682 0.49541234970092773
0.20419764518737793 0.12886294722557068 0.5596500635147095
0.14412902295589447 0.14450912177562714 0.48748698830604553
0.27198922634124756 0.18488532304763794 0.4772692918777466
0.23476088047027588 0.2142137885093689 0.6422841548919678
0.23046210408210754 0.20869986712932587 0.6463910937309265
0.2936227023601532 0.2732486426830292 0.6101962924003601
0.1464080959558487 0.16671720147132874 0.5049223303794861
0.15393298864364624 0.12112971395254135 0.6266667246818542
0.31037500500679016 0.15374530851840973 0.6318707466125488
0.20415060222148895 0.20208866894245148 0.5742990374565125
0.26341482996940613 0.271513968706131 0.5099959969520569
0.29353153705596924 0.28242769837379456 0.5747445821762085
0.2981266975402832 0.15421980619430542 0.5177626013755798
0.11960166692733765 0.1164921298623085 0.49604758620262146
0.3087880313396454 0.12143521755933762 0.46259647607803345
0.24780379235744476 0.2395876795053482 0.6442724466323853
0.12246696650981903 0.22294826805591583 0.493089884519577
0.24648311734199524 0.13535217940807343 0.48075076937675476
0.19533629715442657 0.11697202920913696 0.5415705442428589
0.2947212755680084 0.26171767711639404 0.5266585946083069
0.13694365322589874 0.15702322125434875 0.5716496109962463
0.21630190312862396 0.24312449991703033 0.5152904391288757
0.27552157640457153 0.15128277242183685 0.5261598229408264
0.3105449676513672 0.20561787486076355 0.6477940082550049
0.20818942785263062 0.1976965218782425 0.5032802224159241
0.22906483709812164 0.11499018967151642 0.5838549733161926
0.2226250320672989 0.23762130737304688 0.5480250716209412
0.1753174364566803 0.1965155005455017 0.5468553304672241
0.2962961792945862 0.252436101436615 0.494672566652298
0.1412070244550705 0.2067478597164154 0.6382394433021545
0.27570176124572754 0.2181769460439682 0.49541234970092773
0.20419764518737793 0.12886294722557068 0.5596500635147095
0.14412902295589447 0.14450912177562714 0.48748698830604553
0.27198922634124756 0.18488532304763794 0.4772692918777466
0.23476088047027588 0.2142137885093689 0.6422841548919678
0.15352998673915863 0.11913423985242844 0.4595739543437958
0.1464080959558487 0.16671720147132874 0.5049223303794861
0.15393298864364624 0.12112971395254135 0.6266667246818542
0.31037500500679016 0.15374530851840973 0.6318707466125488
0.162441223859787 0.11324629932641983 0.5834960341453552
0.18448618054389954 0.15802066028118134 0.4757588803768158
0.13975420594215393 0.11271172761917114 0.6186140179634094
0.3087880313396454 0.12143521755933762 0.46259647607803345
0.24780379235744476 0.2395876795053482 0.6442724466323853
0.12246696650981903 0.22294826805591583 0.493089884519577
0.27943339943885803 0.1667965203523636 0.5028347969055176
0.2794334888458252 0.1667964905500412 0.5028349161148071
0.2947212755680084 0.26171767711639404 0.5266585946083069
0.13694365322589874 0.15702322125434875 0.5716496109962463
0.21630190312862396 0.24312449991703033 0.5152904391288757
0.12885747849941254 0.20008283853530884 0.5882095098495483
0.22848021984100342 0.2757440209388733 0.6209747195243835
0.3105449676513672 0.20561787486076355 0.6477940082550049
0.1837533861398697 0.10657095164060593 0.5747054219245911
0.22906483709812164 0.11499018967151642 0.5838549733161926
0.1753174364566803 0.1965155005455017 0.5468553304672241
0.2987458407878876 0.17355969548225403 0.49389323592185974
0.19718675315380096 0.17319293320178986 0.4819152355194092
0.29155927896499634 0.19655700027942657 0.47341224551200867
0.17187677323818207 0.2813606262207031 0.5190150737762451
0.2605862319469452 0.2786562740802765 0.5135548114776611
0.2429775595664978 0.2648157477378845 0.5571180582046509
0.20473667979240417 0.2453918755054474 0.5698161721229553
0.22471101582050323 0.21050837635993958 0.5902142524719238
0.12325986474752426 0.1939609944820404 0.5460627675056458
0.1227089911699295 0.2182832509279251 0.48029449582099915
0.20169848203659058 0.20647534728050232 0.6235187649726868
0.19313116371631622 0.2706584334373474 0.5970553755760193
0.2993626594543457 0.1934485137462616 0.4730550944805145
0.13725537061691284 0.2731725573539734 0.47665631771087646
0.1494542956352234 0.11893294006586075 0.4871017336845398
0.1381838172674179 0.1883481740951538 0.5248569250106812
0.30380886793136597 0.1762348711490631 0.5222377181053162
0.25528842210769653 0.18645241856575012 0.5253009796142578
0.3139379620552063 0.12886831164360046 0.5746367573738098
0.24642162024974823 0.21637387573719025 0.6406713724136353
0.15473854541778564 0.17581047117710114 0.5523725152015686
0.12709952890872955 0.18663956224918365 0.5006275773048401
0.22847628593444824 0.11114916950464249 0.5776174664497375
0.2690494954586029 0.13094785809516907 0.5450878143310547
0.16236285865306854 0.12605252861976624 0.6160853505134583
0.2667507529258728 0.13872922956943512 0.4633522033691406
0.22163400053977966 0.16155579686164856 0.595546543598175
0.23951414227485657 0.2716268002986908 0.5697423219680786
0.3120363652706146 0.11239548772573471 0.4902310371398926
0.19303175806999207 0.12395850569009781 0.5550228953361511
0.1647774577140808 0.13720004260540009 0.5123030543327332
0.22299571335315704 0.12098804861307144 0.6352300643920898
0.26625341176986694 0.23005017638206482 0.6338878273963928
0.15469437837600708 0.14947663247585297 0.563849151134491
0.1474113166332245 0.2771628797054291 0.5777575969696045
0.16554036736488342 0.12178608030080795 0.6218195557594299
0.1412070244550705 0.2067478597164154 0.6382394433021545
0.1284131109714508 0.11903374642133713 0.5272042751312256
0.18202896416187286 0.19515983760356903 0.4708891212940216
0.18265806138515472 0.11314204335212708 0.5202589631080627
0.12399778515100479 0.28460654616355896 0.4601421058177948
0.18886464834213257 0.2005244791507721 0.4780394732952118
0.23124730587005615 0.19403675198554993 0.520178496837616
0.2957770824432373 0.155120849609375 0.5134437084197998
0.30994361639022827 0.12678298354148865 0.511337399482727
0.18398164212703705 0.24191811680793762 0.5911601185798645
0.25080642104148865 0.22941555082798004 0.545279860496521
0.15083906054496765 0.20670735836029053 0.5578247904777527
0.3163924515247345 0.1614534854888916 0.44331368803977966
0.23427040874958038 0.11288779973983765 0.5586848258972168
0.22592657804489136 0.12939929962158203 0.6358178853988647
0.2274276316165924 0.23809120059013367 0.548660397529602
0.2906865179538727 0.24300000071525574 0.6101768016815186
0.2028198391199112 0.13895586133003235 0.5320039391517639
0.2790708839893341 0.13800303637981415 0.5266717076301575
0.12069235742092133 0.1476559191942215 0.546564519405365
0.16738475859165192 0.271149218082428 0.6317070722579956
0.24108144640922546 0.21349649131298065 0.49530914425849915
0.2913990616798401 0.20307603478431702 0.6148450374603271
0.19461773335933685 0.23717939853668213 0.6374961137771606
0.12068728357553482 0.22546568512916565 0.5281764268875122
0.2856755256652832 0.14271046221256256 0.6347416043281555
0.14694689214229584 0.27451223134994507 0.5868676900863647
0.2598910629749298 0.2031836211681366 0.634752631187439
0.2662343978881836 0.21576005220413208 0.5466026067733765
0.15236274898052216 0.22964857518672943 0.4868905544281006
0.1364968866109848 0.21150843799114227 0.6053984761238098
0.2623755931854248 0.23034386336803436 0.6043479442596436
0.2999477982521057 0.1954338401556015 0.5413036942481995
0.2946714162826538 0.19464707374572754 0.551048994064331
0.20233361423015594 0.1454869955778122 0.6018324494361877
0.2429775595664978 0.2648157477378845 0.5571180582046509
0.20473667979240417 0.2453918755054474 0.5698161721229553
0.22471101582050323 0.21050837635993958 0.5902142524719238
0.12325986474752426 0.1939609944820404 0.5460627675056458
0.1227089911699295 0.2182832509279251 0.48029449582099915
0.20169848203659058 0.20647534728050232 0.6235187649726868
0.19313116371631622 0.2706584334373474 0.5970553755760193
0.2993626594543457 0.1934485137462616 0.4730550944805145
0.13725537061691284 0.2731725573539734 0.47665631771087646
0.1494542956352234 0.11893294006586075 0.4871017336845398
0.1381838172674179 0.1883481740951538 0.5248569250106812
0.30380886793136597 0.1762348711490631 0.5222377181053162
0.25935623049736023 0.1637783944606781 0.6287667155265808
0.2965482771396637 0.22489100694656372 0.5903486013412476
0.15834423899650574 0.12708936631679535 0.638659656047821
0.26214393973350525 0.13416460156440735 0.5510811805725098
0.15581707656383514 0.1193055510520935 0.43665459752082825
0.13318230211734772 0.27551642060279846 0.5696229338645935
0.3036867082118988 0.11842472106218338 0.4571332335472107
0.19083815813064575 0.2203812450170517 0.5032520890235901
0.2651740610599518 0.18768903613090515 0.60579913854599
0.24916984140872955 0.21063007414340973 0.44915592670440674
0.14245904982089996 0.2205064743757248 0.61765456199646
0.13971291482448578 0.29065805673599243 0.4631512463092804
0.14705386757850647 0.2408762127161026 0.6087102890014648
0.31539052724838257 0.12273155897855759 0.48443225026130676
0.14800195395946503 0.13909375667572021 0.44297122955322266
0.16379553079605103 0.22852367162704468 0.6258220076560974
0.24260292947292328 0.14015574753284454 0.5544378161430359
0.14901649951934814 0.11909283697605133 0.6083768606185913
0.2957770824432373 0.155120849609375 0.5134437084197998
0.30994361639022827 0.12678298354148865 0.511337399482727
0.18398164212703705 0.24191811680793762 0.5911601185798645
0.25080642104148865 0.22941555082798004 0.545279860496521
0.15083906054496765 0.20670735836029053 0.5578247904777527
0.3163924515247345 0.1614534854888916 0.44331368803977966
0.23427040874958038 0.11288779973983765 0.5586848258972168
0.22592657804489136 0.12939929962158203 0.6358178853988647
0.2274276316165924 0.23809120059013367 0.548660397529602
0.23598496615886688 0.24041464924812317 0.4975048303604126
0.29054802656173706 0.24326251447200775 0.6099199056625366
0.20520617067813873 0.11130120605230331 0.5279160141944885
0.31909283995628357 0.13825169205665588 0.6412392854690552
0.24421018362045288 0.18605110049247742 0.551706850528717
0.1620805561542511 0.25528988242149353 0.5176708698272705
0.14283953607082367 0.27134665846824646 0.4942599833011627
0.1541670262813568 0.1205507218837738 0.5567680597305298
0.2913990616798401 0.20307603478431702 0.6148450374603271
0.19461773335933685 0.23717939853668213 0.6374961137771606
0.12068728357553482 0.22546568512916565 0.5281764268875122
0.2856755256652832 0.14271046221256256 0.6347416043281555
0.14694689214229584 0.27451223134994507 0.5868676900863647
0.2598910629749298 0.2031836211681366 0.634752631187439
0.2662343978881836 0.21576005220413208 0.5466026067733765
0.254825621843338 0.13081267476081848 0.579710841178894
0.152639240026474 0.18722258508205414 0.6216530799865723
0.1364968866109848 0.21150843799114227 0.6053984761238098
0.2623755931854248 0.23034386336803436 0.6043479442596436
0.1594182699918747 0.13748805224895477 0.622883141040802
0.12172488868236542 0.2514767348766327 0.6529195308685303
0.11776801198720932 0.17290030419826508 0.5329561233520508
0.29829007387161255 0.2631942629814148 0.5354823470115662
0.2957770824432373 0.155120849609375 0.5134437084197998
0.25080642104148865 0.22941555082798004 0.545279860496521
0.15083906054496765 0.20670735836029053 0.5578247904777527
0.3163924515247345 0.1614534854888916 0.44331368803977966
0.23427040874958038 0.11288779973983765 0.5586848258972168
0.22592657804489136 0.12939929962158203 0.6358178853988647
0.23598496615886688 0.24041464924812317 0.4975048303604126
0.29054802656173706 0.24326251447200775 0.6099199056625366
0.20520617067813873 0.11130120605230331 0.5279160141944885
0.31909283995628357 0.13825169205665588 0.6412392854690552
0.24421018362045288 0.18605110049247742 0.551706850528717
0.1620805561542511 0.25528988242149353 0.5176708698272705
0.14283953607082367 0.27134665846824646 0.4942599833011627
0.1541670262813568 0.1205507218837738 0.5567680597305298
0.28831785917282104 0.21405871212482452 0.5311880707740784
0.12149535119533539 0.20797966420650482 0.545258641242981
0.19889669120311737 0.11462024599313736 0.6366159319877625
0.24022544920444489 0.15403681993484497 0.5695304274559021
0.1520058810710907 0.10927913337945938 0.5178900361061096
0.16708290576934814 0.19104695320129395 0.5853500366210938
0.2956759035587311 0.20233042538166046 0.6259670853614807
0.19913017749786377 0.19202695786952972 0.5467295050621033
0.3089774549007416 0.22126492857933044 0.5123899579048157
0.1364968866109848 0.21150843799114227 0.6053984761238098
0.2623755931854248 0.23034386336803436 0.6043479442596436
0.1594182699918747 0.13748805224895477 0.622883141040802
0.12172488868236542 0.2514767348766327 0.6529195308685303
0.11776801198720932 0.17290030419826508 0.5329561233520508
0.2504820227622986 0.23390373587608337 0.4995953440666199
0.31896355748176575 0.13309268653392792 0.5198429822921753
0.22202156484127045 0.17913414537906647 0.6325821876525879
0.13062593340873718 0.15108054876327515 0.4388992190361023
0.19313116371631622 0.2706584334373474 0.5970553755760193
0.2993626594543457 0.1934485137462616 0.4730550944805145
0.13725537061691284 0.2731725573539734 0.47665631771087646
0.1494542956352234 0.11893294006586075 0.4871017336845398
0.1381838172674179 0.1883481740951538 0.5248569250106812
0.30380886793136597 0.1762348711490631 0.5222377181053162
0.25528842210769653 0.18645241856575012 0.5253009796142578
0.3139379620552063 0.12886831164360046 0.5746367573738098
0.24642162024974823 0.21637387573719025 0.6406713724136353
0.2801664471626282 0.13334466516971588 0.48944124579429626
0.1582917422056198 0.21616505086421967 0.6113981604576111
0.289153128862381 0.1851147711277008 0.6075635552406311
0.2598083019256592 0.14780168235301971 0.4572223126888275
0.2494969666004181 0.1104176789522171 0.5099917054176331
0.13093137741088867 0.1713295727968216 0.46201297640800476
0.16314250230789185 0.15090663731098175 0.45835885405540466
0.17994099855422974 0.15419669449329376 0.596854567527771
0.29132068157196045 0.19659802317619324 0.5383839011192322
0.2547532618045807 0.21860918402671814 0.5041036605834961
0.16822481155395508 0.2736993730068207 0.5574022531509399
0.20836345851421356 0.21829833090305328 0.5114076137542725
0.19946569204330444 0.1987883597612381 0.50046306848526
0.2700097858905792 0.2380070984363556 0.4802597165107727
0.20165559649467468 0.11102595180273056 0.5619912147521973
0.2591392993927002 0.23942144215106964 0.5277284979820251
0.1345391422510147 0.2706611752510071 0.48363810777664185
0.12044220417737961 0.10443426668643951 0.6353244781494141
0.27209535241127014 0.14335060119628906 0.6339333057403564
0.28245291113853455 0.24195213615894318 0.5831089615821838
0.2631342113018036 0.12677127122879028 0.6205997467041016
0.13691623508930206 0.1575387418270111 0.5722752213478088
0.21930380165576935 0.18231549859046936 0.4783584177494049
0.25528842210769653 0.18645241856575012 0.5253009796142578
0.3139379620552063 0.12886831164360046 0.5746367573738098
0.24642162024974823 0.21637387573719025 0.6406713724136353
0.15473854541778564 0.17581047117710114 0.5523725152015686
0.12709952890872955 0.18663956224918365 0.5006275773048401
0.22847628593444824 0.11114916950464249 0.5776174664497375
0.2690494954586029 0.13094785809516907 0.5450878143310547
0.16236285865306854 0.12605252861976624 0.6160853505134583
0.2667507529258728 0.13872922956943512 0.4633522033691406
0.22163400053977966 0.16155579686164856 0.595546543598175
0.23951414227485657 0.2716268002986908 0.5697423219680786
0.3120363652706146 0.11239548772573471 0.4902310371398926
0.19303175806999207 0.12395850569009781 0.5550228953361511
0.1647774577140808 0.13720004260540009 0.5123030543327332
0.22396770119667053 0.1253012716770172 0.5568146109580994
0.1627088040113449 0.26448383927345276 0.4674558937549591
0.1352241337299347 0.24821776151657104 0.6166089773178101
0.2787497639656067 0.15219292044639587 0.5070446729660034
0.15698586404323578 0.2695472836494446 0.5186553597450256
0.25379058718681335 0.17372563481330872 0.5661947727203369
0.16267506778240204 0.1869979351758957 0.6267439723014832
0.12414541840553284 0.24967294931411743 0.48471617698669434
0.12365946173667908 0.2855490446090698 0.4911332428455353
0.12541280686855316 0.1734226495027542 0.5658261775970459
0.29073747992515564 0.16121423244476318 0.48055097460746765
0.19313257932662964 0.1727922260761261 0.6433143615722656
0.2143087536096573 0.20682917535305023 0.6068748831748962
0.24095278978347778 0.18704155087471008 0.5314934849739075
0.24167244136333466 0.15368683636188507 0.4628926217556
0.2999184727668762 0.1986183077096939 0.6153891086578369
0.23145298659801483 0.16955868899822235 0.5268852114677429
0.21930380165576935 0.18231549859046936 0.4783584177494049
0.23593756556510925 0.1378563493490219 0.5806963443756104
0.11808846145868301 0.16959050297737122 0.5783883929252625
0.1679355353116989 0.11535756289958954 0.5433506965637207
0.14615465700626373 0.27095523476600647 0.5776717066764832
0.31587183475494385 0.11584214121103287 0.5476921796798706
0.24413853883743286 0.179315447807312 0.5033625960350037
0.2683872878551483 0.28727471828460693 0.4893595278263092
0.1251378208398819 0.14826700091362 0.5658733248710632
0.3075658977031708 0.13387362658977509 0.6071837544441223
0.24260292947292328 0.14015574753284454 0.5544378161430359
0.19824856519699097 0.19799259305000305 0.6478488445281982
0.1843252331018448 0.24533319473266602 0.4625166654586792
0.29205843806266785 0.22626258432865143 0.6345971822738647
0.2954624593257904 0.11852411925792694 0.5666393637657166
0.3155995011329651 0.1781434267759323 0.610069215297699
0.1949014961719513 0.26969465613365173 0.6452909111976624
0.22806864976882935 0.11857271194458008 0.5325148105621338
0.24826876819133759 0.1544375866651535 0.5950912833213806
0.30711326003074646 0.19965028762817383 0.44657015800476074
0.20537762343883514 0.1751079261302948 0.6374107599258423
0.25933051109313965 0.14513306319713593 0.5344344973564148
0.3050827980041504 0.1848379224538803 0.5703477263450623
0.2916382849216461 0.2829655110836029 0.49697133898735046
0.24481308460235596 0.12053114920854568 0.5303122997283936
0.15646672248840332 0.10867266356945038 0.5168623924255371
0.31761300563812256 0.1409824788570404 0.5774927735328674
0.28076818585395813 0.1461557000875473 0.6303033828735352
0.22041288018226624 0.14083051681518555 0.44976818561553955
0.2290838062763214 0.1265784204006195 0.5515158176422119
0.19326014816761017 0.18137595057487488 0.5896525382995605
0.28874465823173523 0.11415867507457733 0.5226320624351501
0.2999477982521057 0.1954338401556015 0.5413036942481995
0.14095145463943481 0.2543230354785919 0.6102681756019592
0.13397035002708435 0.2228160947561264 0.54021155834198
0.1532815545797348 0.19914092123508453 0.5819500684738159
0.27377036213874817 0.1325591504573822 0.4915381968021393
0.1716497242450714 0.19521258771419525 0.483358770608902
0.23209358751773834 0.2854175865650177 0.4654969871044159
0.19313256442546844 0.18513129651546478 0.5800333023071289
0.24170714616775513 0.2708042860031128 0.5201136469841003
0.16193081438541412 0.12308007478713989 0.48401281237602234
0.12968066334724426 0.18233604729175568 0.4788641035556793
0.3001788258552551 0.2760814428329468 0.5020125508308411
0.2005525529384613 0.11121894419193268 0.495802640914917
0.15954691171646118 0.16580021381378174 0.6058933734893799
0.2369777113199234 0.239986389875412 0.553737461566925
0.21655331552028656 0.16818222403526306 0.6293566823005676
0.26596376299858093 0.27514195442199707 0.5520359873771667
0.20510123670101166 0.2153949737548828 0.5610289573669434
0.18642663955688477 0.22656986117362976 0.642129123210907
0.17749090492725372 0.2065182477235794 0.5825257301330566
0.1253361850976944 0.15087881684303284 0.4726875126361847
0.16063328087329865 0.17951364815235138 0.5326672792434692
0.15558964014053345 0.26555195450782776 0.6198261976242065
0.22436176240444183 0.18822310864925385 0.4644465148448944
0.22096706926822662 0.16377736628055573 0.6064400672912598
0.20938198268413544 0.1648309826850891 0.6288468837738037
0.1800200641155243 0.2710559666156769 0.6265327334403992
0.20567737519741058 0.2668112814426422 0.5742982625961304
0.30593445897102356 0.19520114362239838 0.626367449760437
0.24553285539150238 0.20248985290527344 0.6253620982170105
0.17198370397090912 0.1859702616930008 0.5094891786575317
0.26512521505355835 0.11876767128705978 0.6234306693077087
0.2226250320672989 0.23762130737304688 0.5480250716209412
0.1917296200990677 0.13001656532287598 0.5580736994743347
0.286842942237854 0.19373057782649994 0.6469929814338684
0.2716173231601715 0.2584730088710785 0.5107198357582092
0.16716599464416504 0.2393997311592102 0.48328542709350586
0.14290107786655426 0.17340129613876343 0.5617996454238892
0.30905941128730774 0.1465260535478592 0.4992573857307434
0.17784254252910614 0.14577044546604156 0.627373456954956
0.2888484001159668 0.17774192988872528 0.6295496821403503
0.17010407149791718 0.18314193189144135 0.5793930292129517
0.20518454909324646 0.20008070766925812 0.6379427909851074
0.12469560652971268 0.11444679647684097 0.528043806552887
0.22941675782203674 0.15568089485168457 0.5339074730873108
0.27320951223373413 0.22521305084228516 0.5283989310264587
0.16289138793945312 0.2545935809612274 0.48217231035232544
0.13097158074378967 0.2742762267589569 0.4581681489944458
0.20836320519447327 0.15051205456256866 0.456906259059906
0.3003188371658325 0.24048496782779694 0.466067373752594
0.28383150696754456 0.17403142154216766 0.5548202991485596
0.23561149835586548 0.12035179138183594 0.6351418495178223
0.14293412864208221 0.14279122650623322 0.4673643112182617
0.21477459371089935 0.2036641240119934 0.5356245636940002
0.29756996035575867 0.23337993025779724 0.49644917249679565
0.17537730932235718 0.1510201245546341 0.6254338622093201
0.2387928068637848 0.11052674055099487 0.4935241937637329
0.14671345055103302 0.15741214156150818 0.4572293162345886
0.23117002844810486 0.2567446827888489 0.48316875100135803
0.18687500059604645 0.21043916046619415 0.44680994749069214
0.15500107407569885 0.14808563888072968 0.5785129070281982
0.21611718833446503 0.2736106812953949 0.5491113662719727
0.26980146765708923 0.255907267332077 0.48229172825813293
0.1350986808538437 0.10859999805688858 0.5975961089134216
0.1753174364566803 0.1965155005455017 0.5468553304672241
0.30380886793136597 0.1762348711490631 0.5222377181053162
0.25528842210769653 0.18645241856575012 0.5253009796142578
0.3139379620552063 0.12886831164360046 0.5746367573738098
0.3139379620552063 0.12886831164360046 0.5746367573738098
0.24642162024974823 0.21637387573719025 0.6406713724136353
0.15473854541778564 0.17581047117710114 0.5523725152015686
0.16236285865306854 0.12605252861976624 0.6160853505134583
0.2667507529258728 0.13872922956943512 0.4633522033691406
0.22163400053977966 0.16155579686164856 0.595546543598175
0.23951414227485657 0.2716268002986908 0.5697423219680786
0.23951414227485657 0.2716268002986908 0.5697423219680786
0.3120363652706146 0.11239548772573471 0.4902310371398926
0.19303175806999207 0.12395850569009781 0.5550228953361511
0.17575526237487793 0.25129446387290955 0.5932190418243408
0.23198151588439941 0.12544691562652588 0.6199178099632263
0.15432842075824738 0.12950269877910614 0.6295524835586548
0.14738276600837708 0.200718492269516 0.5085042119026184
0.19627448916435242 0.26342907547950745 0.5600103735923767
0.30185467004776 0.14277030527591705 0.542538583278656
0.18744885921478271 0.23196692764759064 0.5070818662643433
0.2954624593257904 0.11852411925792694 0.5666393637657166
0.3073435127735138 0.2897273302078247 0.5079699158668518
0.3138180077075958 0.18684819340705872 0.4555107355117798
0.13338595628738403 0.2526658773422241 0.6382696628570557
0.19405055046081543 0.18268418312072754 0.4910911023616791
0.20003366470336914 0.10768643021583557 0.6258280277252197
0.14671345055103302 0.15741214156150818 0.4572293162345886
0.23117002844810486 0.2567446827888489 0.48316875100135803
0.18687500059604645 0.21043916046619415 0.44680994749069214
0.15500107407569885 0.14808563888072968 0.5785129070281982
0.21611718833446503 0.2736106812953949 0.5491113662719727
0.2957770824432373 0.155120849609375 0.5134437084197998
0.1970238983631134 0.14654231071472168 0.6042901873588562
0.294075071811676 0.10866051912307739 0.5880928635597229
0.15883255004882812 0.1796889454126358 0.45019012689590454
0.14450515806674957 0.26102375984191895 0.577168881893158
0.1490459442138672 0.11316283792257309 0.4479728937149048
0.26272323727607727 0.18088999390602112 0.5351817607879639
0.25324520468711853 0.12812288105487823 0.6045666337013245
0.3036019802093506 0.24981191754341125 0.491603821516037
0.19557256996631622 0.1518922746181488 0.5658125877380371
0.218794047832489 0.1438460648059845 0.6219391226768494
0.3005537688732147 0.19761034846305847 0.6356553435325623
0.24443964660167694 0.17480097711086273 0.557783305644989
0.18475984036922455 0.1259404718875885 0.48205292224884033
0.21972714364528656 0.1671943962574005 0.47636276483535767
0.20866234600543976 0.10896549373865128 0.5526182055473328
0.19652654230594635 0.15586046874523163 0.5440913438796997
0.1519971787929535 0.14445555210113525 0.5039445757865906
0.2860231399536133 0.15244466066360474 0.6437075138092041
0.309495747089386 0.18979814648628235 0.5476571917533875
0.29125091433525085 0.24669921398162842 0.606484591960907
0.2536044120788574 0.26595959067344666 0.556574285030365
0.22907182574272156 0.12996834516525269 0.6159656643867493
0.1359826624393463 0.19362816214561462 0.5687716603279114
0.19991633296012878 0.2205774039030075 0.5039710402488708
0.19991633296012878 0.2205774039030075 0.5039710402488708
0.22318178415298462 0.2507105767726898 0.5844758749008179
0.19109492003917694 0.23829376697540283 0.5416958928108215
0.23099666833877563 0.18161335587501526 0.5234602689743042
0.11748191714286804 0.14125627279281616 0.4603840410709381
0.1844509243965149 0.18295219540596008 0.5867329835891724
0.26645609736442566 0.286904901266098 0.4909032881259918
0.12172488868236542 0.2514767348766327 0.6529195308685303
0.1359826624393463 0.19362816214561462 0.5687716603279114
0.19991633296012878 0.2205774039030075 0.5039710402488708
0.22318178415298462 0.2507105767726898 0.5844758749008179
0.19109492003917694 0.23829376697540283 0.5416958928108215
0.23099666833877563 0.18161335587501526 0.5234602689743042
0.11748191714286804 0.14125627279281616 0.4603840410709381
0.1844509243965149 0.18295219540596008 0.5867329835891724
0.26645609736442566 0.286904901266098 0.4909032881259918
0.26381397247314453 0.1906760036945343 0.48243963718414307
0.13737040758132935 0.1706034541130066 0.5536520481109619
0.1897803544998169 0.1814010739326477 0.46577316522598267
0.3096948564052582 0.2128959596157074 0.5915368795394897
0.16656726598739624 0.1472751349210739 0.5211279988288879
0.3086792826652527 0.13999724388122559 0.5556715726852417
0.28945019841194153 0.17279890179634094 0.478848934173584
0.25573644042015076 0.22188912332057953 0.6193115711212158
0.14730007946491241 0.2601349651813507 0.5225387215614319
0.26380565762519836 0.12188062816858292 0.6276481747627258
0.23275165259838104 0.24487635493278503 0.5998253226280212
0.11928900331258774 0.13846582174301147 0.4887346923351288
0.29746371507644653 0.28693509101867676 0.48078328371047974
0.18191871047019958 0.24600861966609955 0.6009806394577026
0.13376861810684204 0.11243973672389984 0.5407639145851135
0.29324665665626526 0.21935513615608215 0.5160306692123413
0.16077657043933868 0.12605252861976624 0.5453535318374634
0.16354553401470184 0.13966427743434906 0.5157017707824707
0.25196459889411926 0.12008419632911682 0.4806000292301178
0.14095145463943481 0.2543230354785919 0.6102681756019592
0.19756974279880524 0.25459709763526917 0.5541138648986816
0.169452965259552 0.16164225339889526 0.6140806674957275
0.12219861894845963 0.1238841637969017 0.5584245324134827
0.1835106611251831 0.26014843583106995 0.5914537310600281
0.23099666833877563 0.18161335587501526 0.5234602689743042
0.11748191714286804 0.14125627279281616 0.4603840410709381
0.1844509243965149 0.18295219540596008 0.5867329835891724
0.26645609736442566 0.286904901266098 0.4909032881259918
0.16216027736663818 0.14222927391529083 0.500615656375885
0.21005089581012726 0.11250968277454376 0.4671262204647064
0.20881853997707367 0.14551256597042084 0.6434197425842285
0.13363485038280487 0.10973850637674332 0.498790442943573
0.28306570649147034 0.11473522335290909 0.4845767617225647
0.19795583188533783 0.22720612585544586 0.6494790315628052
0.29294687509536743 0.10928262025117874 0.6082125902175903
0.3041929304599762 0.1354040652513504 0.5082955360412598
0.27470773458480835 0.25545576214790344 0.5673390030860901
0.1836954802274704 0.15563303232192993 0.5303618907928467
0.2946714162826538 0.19464707374572754 0.551048994064331
0.20233361423015594 0.1454869955778122 0.6018324494361877
0.2429775595664978 0.2648157477378845 0.5571180582046509
0.20473667979240417 0.2453918755054474 0.5698161721229553
0.22471101582050323 0.21050837635993958 0.5902142524719238
0.12325986474752426 0.1939609944820404 0.5460627675056458
0.23275165259838104 0.24487635493278503 0.5998253226280212
0.11928900331258774 0.13846582174301147 0.4887346923351288
0.29746371507644653 0.28693509101867676 0.48078328371047974
0.18191871047019958 0.24600861966609955 0.6009806394577026
0.13376861810684204 0.11243973672389984 0.5407639145851135
0.29324665665626526 0.21935513615608215 0.5160306692123413
0.16077657043933868 0.12605252861976624 0.5453535318374634
0.16354553401470184 0.13966427743434906 0.5157017707824707
0.25196459889411926 0.12008419632911682 0.4806000292301178
0.14095145463943481 0.2543230354785919 0.6102681756019592
0.13397035002708435 0.2228160947561264 0.54021155834198
0.28718677163124084 0.14130647480487823 0.5473798513412476
0.13737040758132935 0.1706034541130066 0.5536520481109619
0.24984434247016907 0.22651433944702148 0.6131526231765747
0.30904421210289 0.1578703075647354 0.5917361974716187
0.22436176240444183 0.24356397986412048 0.6002188324928284
0.30395442247390747 0.2716611921787262 0.4739289879798889
0.20824314653873444 0.12364118546247482 0.548409640789032
0.23209358751773834 0.2854175865650177 0.4654969871044159
0.19313256442546844 0.18513129651546478 0.5800333023071289
0.24170714616775513 0.2708042860031128 0.5201136469841003
0.16193081438541412 0.12308007478713989 0.48401281237602234
0.12968066334724426 0.18233604729175568 0.4788641035556793
0.3001788258552551 0.2760814428329468 0.5020125508308411
0.2005525529384613 0.11121894419193268 0.495802640914917
0.15954691171646118 0.16580021381378174 0.6058933734893799
0.2369777113199234 0.239986389875412 0.553737461566925
0.21655331552028656 0.16818222403526306 0.6293566823005676
0.26596376299858093 0.27514195442199707 0.5520359873771667
0.20510123670101166 0.2153949737548828 0.5610289573669434
0.18642663955688477 0.22656986117362976 0.642129123210907
0.17749090492725372 0.2065182477235794 0.5825257301330566
0.1253361850976944 0.15087881684303284 0.4726875126361847
0.16063328087329865 0.17951364815235138 0.5326672792434692
0.15558964014053345 0.26555195450782776 0.6198261976242065
0.26812073588371277 0.14646866917610168 0.6219443082809448
0.13144241273403168 0.21030782163143158 0.5117754936218262
0.26724502444267273 0.2671627402305603 0.617838978767395
0.27026230096817017 0.17804020643234253 0.6373241543769836
0.20536229014396667 0.14622147381305695 0.5160011649131775
0.11954967677593231 0.10692987591028214 0.5830017328262329
0.1375783085823059 0.16492699086666107 0.569541871547699
0.30905914306640625 0.23614585399627686 0.5882443189620972
0.19795583188533783 0.22720612585544586 0.6494790315628052
0.19303175806999207 0.12395850569009781 0.5550228953361511
0.17575526237487793 0.25129446387290955 0.5932190418243408
0.23198151588439941 0.12544691562652588 0.6199178099632263
0.15432842075824738 0.12950269877910614 0.6295524835586548
0.14738276600837708 0.200718492269516 0.5085042119026184
0.1817930042743683 0.2800826132297516 0.5701925158500671
0.30185467004776 0.14277030527591705 0.542538583278656
0.18768620491027832 0.2316965013742447 0.5072771310806274
0.18004967272281647 0.1990422010421753 0.6479275226593018
0.14575178921222687 0.27847903966903687 0.5698587894439697
0.21663716435432434 0.2813427746295929 0.5186117887496948
0.17064978182315826 0.11249945312738419 0.6086872816085815
0.2065354883670807 0.1451082080602646 0.6296083331108093
0.2299114614725113 0.28289464116096497 0.47323212027549744
0.23117002844810486 0.2567446827888489 0.48316875100135803
0.20613914728164673 0.23397968709468842 0.48114892840385437
0.21611718833446503 0.2736106812953949 0.5491113662719727
0.30036309361457825 0.14832891523838043 0.5845844149589539
0.2205827534198761 0.14939704537391663 0.5056472420692444
0.1527574360370636 0.26169726252555847 0.5664948225021362
0.16628819704055786 0.12063754349946976 0.444930762052536
0.19565346837043762 0.20846858620643616 0.5224049687385559
0.2259836047887802 0.2483934909105301 0.4773457944393158
0.24071462452411652 0.22212927043437958 0.64067542552948
0.20373903214931488 0.16451142728328705 0.5092981457710266
0.22832944989204407 0.2632080316543579 0.615725040435791
0.17786596715450287 0.17315472662448883 0.5882505774497986
0.26996049284935 0.1718256175518036 0.628656268119812
0.22032196819782257 0.254858136177063 0.5413230657577515
0.23430567979812622 0.16691182553768158 0.6451805233955383
0.13981807231903076 0.1194773018360138 0.43743717670440674
0.12219861894845963 0.1238841637969017 0.5584245324134827
0.15631020069122314 0.20629891753196716 0.6270275712013245
0.15851758420467377 0.27531328797340393 0.5801417231559753
0.27944299578666687 0.2591088116168976 0.584831714630127
0.26957741379737854 0.2513748109340668 0.5927286148071289
0.26531296968460083 0.1592974066734314 0.5552284717559814
0.2502670884132385 0.1558656543493271 0.544817328453064
0.16735675930976868 0.2562650442123413 0.4679429531097412
0.22202692925930023 0.2134028822183609 0.5237990021705627
0.2718926668167114 0.1603512167930603 0.5829028487205505
0.24109573662281036 0.26266583800315857 0.4526689648628235
0.17469686269760132 0.1998484581708908 0.4979189336299896
0.2773067355155945 0.2685343325138092 0.5778401494026184
0.1483529955148697 0.1710233837366104 0.5163471698760986
0.25454649329185486 0.21710124611854553 0.5566098093986511
0.1308608502149582 0.1316724568605423 0.5550044775009155
0.2612067461013794 0.13419140875339508 0.6056205630302429
0.15797659754753113 0.16949941217899323 0.44692376255989075
0.2584401071071625 0.13907206058502197 0.45874375104904175
0.20508934557437897 0.198902428150177 0.5117656588554382
0.21515525877475739 0.11907188594341278 0.5046105980873108
0.14495384693145752 0.2526126503944397 0.5592145919799805
0.11874248087406158 0.16900992393493652 0.4573921263217926
0.2870657444000244 0.21718429028987885 0.5195705890655518
0.3120729923248291 0.17836876213550568 0.522574782371521
0.20882871747016907 0.11908725649118423 0.4876335561275482
0.25287261605262756 0.15681125223636627 0.5472339987754822
0.17869578301906586 0.25321730971336365 0.5917451977729797
0.14836719632148743 0.1497868299484253 0.4362424612045288
0.11693521589040756 0.16148623824119568 0.6089398264884949
0.1475919485092163 0.2298269122838974 0.46066248416900635
0.12317982316017151 0.12287823855876923 0.5122177600860596
0.16207242012023926 0.2370586395263672 0.5960159301757812
0.27180302143096924 0.2754887342453003 0.606221616268158
0.16120381653308868 0.1322588473558426 0.4604613780975342
0.2873085141181946 0.19859230518341064 0.5376951098442078
0.2728699743747711 0.27251508831977844 0.5291709899902344
0.1423734724521637 0.23261021077632904 0.617192804813385
0.26270443201065063 0.14292046427726746 0.5870167016983032
0.13454820215702057 0.22155596315860748 0.4914391338825226
0.3036239743232727 0.18690699338912964 0.6447820663452148
0.23275767266750336 0.20250853896141052 0.6318985819816589
0.18518200516700745 0.17298942804336548 0.5160380005836487
0.25594526529312134 0.21755407750606537 0.5565976500511169
0.2677152156829834 0.11426355689764023 0.5796993374824524
0.203708678483963 0.11622737348079681 0.5300288796424866
0.12882068753242493 0.11919966340065002 0.5382052063941956
0.22059570252895355 0.26090916991233826 0.5191717743873596
0.18656083941459656 0.19168877601623535 0.5625742673873901
0.21513575315475464 0.12036686390638351 0.5225510001182556
0.16222603619098663 0.1688164323568344 0.459149569272995
0.19636262953281403 0.19032271206378937 0.6028205752372742
0.12992249429225922 0.16985322535037994 0.45752620697021484
0.2838926315307617 0.2768096923828125 0.4722866714000702
0.24580734968185425 0.2768179476261139 0.5104770064353943
0.1407264918088913 0.2056121677160263 0.5773835778236389
0.2500178813934326 0.2385452836751938 0.6298084259033203
0.20729902386665344 0.2769598960876465 0.6294463276863098
0.2911059558391571 0.15089695155620575 0.6267555952072144
0.16453835368156433 0.19724899530410767 0.6030953526496887
0.2809084951877594 0.20334064960479736 0.48521462082862854
0.18873271346092224 0.2312067747116089 0.5584344267845154
0.2325032651424408 0.23152779042720795 0.6006736159324646
0.17807096242904663 0.22426912188529968 0.5079215168952942
0.25875920057296753 0.18231309950351715 0.5095146298408508
0.30036309361457825 0.14832891523838043 0.5845844149589539
0.2205827534198761 0.14939704537391663 0.5056472420692444
0.3106811046600342 0.23553335666656494 0.48511701822280884
0.23399874567985535 0.23240117728710175 0.4598329961299896
0.239402174949646 0.2134895920753479 0.5376527905464172
0.3042590916156769 0.1545071005821228 0.44882601499557495
0.18235179781913757 0.13853919506072998 0.5438272953033447
0.15986305475234985 0.15186293423175812 0.617125391960144
