ply
format ascii 1.0
element vertex 822
property float x
property float y
property float z
end_header
0.21424753963947296 0.221234992146492 0.5818775296211243
0.23094817996025085 0.18282181024551392 0.49904289841651917
0.24655108153820038 0.25806695222854614 0.46622157096862793
0.3216157853603363 0.236626535654068 0.5290424227714539
0.25114771723747253 0.22960235178470612 0.4555308520793915
0.17109261453151703 0.1924486607313156 0.5045867562294006
0.3156874477863312 0.19521135091781616 0.5665591955184937
0.22969216108322144 0.2506454586982727 0.5754379630088806
0.13897056877613068 0.2010899782180786 0.5785767436027527
0.13403558731079102 0.2597828805446625 0.47726088762283325
0.30967164039611816 0.28127235174179077 0.4705134630203247
0.23699073493480682 0.18457786738872528 0.47108179330825806
0.3260524272918701 0.19141146540641785 0.5329123139381409
0.21344207227230072 0.23871861398220062 0.5907487273216248
0.1473657190799713 0.21927373111248016 0.4980938732624054
0.18375258147716522 0.29594939947128296 0.532116711139679
0.23076528310775757 0.2472952902317047 0.62758868932724
0.30728399753570557 0.20742498338222504 0.5062179565429688
0.2857300937175751 0.17917512357234955 0.5300070643424988
0.21509772539138794 0.13900066912174225 0.5256559252738953
0.15659843385219574 0.18377883732318878 0.6214412450790405
0.21419519186019897 0.22657635807991028 0.6288822293281555
0.12762117385864258 0.21558022499084473 0.4686610996723175
0.22816723585128784 0.147934228181839 0.440561980009079
0.25676026940345764 0.12043726444244385 0.610298216342926
0.26795822381973267 0.13428445160388947 0.545088529586792
0.2845921814441681 0.30568957328796387 0.4732568860054016
0.20152002573013306 0.2445276975631714 0.565891444683075
0.15217408537864685 0.13300210237503052 0.586561918258667
0.12919633090496063 0.2607826292514801 0.6417633891105652
0.18234333395957947 0.14487002789974213 0.4951915144920349
0.1230369284749031 0.16821131110191345 0.5626589059829712
0.15894432365894318 0.28075534105300903 0.48010438680648804
0.20818759500980377 0.12617278099060059 0.5688462257385254
0.2822345197200775 0.13257113099098206 0.5893763303756714
0.28981494903564453 0.24352025985717773 0.6292670965194702
0.2597462832927704 0.11947616189718246 0.508292555809021
0.22834230959415436 0.19807346165180206 0.5739165544509888
0.1665034294128418 0.12323077768087387 0.6264172196388245
0.3053414523601532 0.12209408730268478 0.5729977488517761
0.13036800920963287 0.19540314376354218 0.4849306643009186
0.1340121626853943 0.23981042206287384 0.6281960606575012
0.19755855202674866 0.18240684270858765 0.5611854195594788
0.17360062897205353 0.14626950025558472 0.605575680732727
0.1987323760986328 0.12891043722629547 0.582279622554779
0.31046852469444275 0.2504671514034271 0.5504966378211975
0.22698244452476501 0.19597001373767853 0.456546813249588
0.15447251498699188 0.23930217325687408 0.5528799891471863
0.23660020530223846 0.13022363185882568 0.5193824768066406
0.22794628143310547 0.18821267783641815 0.57197105884552
0.32658103108406067 0.26250147819519043 0.5912311673164368
0.2361154556274414 0.15621444582939148 0.47261378169059753
0.2720962464809418 0.23130223155021667 0.4875276982784271
0.2712497115135193 0.1675097793340683 0.5016359090805054
0.14738556742668152 0.25449278950691223 0.5690892934799194
0.2478121519088745 0.2331242859363556 0.5735496282577515
0.25457391142845154 0.1193375512957573 0.578522801399231
0.2958889603614807 0.1548919528722763 0.6249440908432007
0.2175157517194748 0.2993276119232178 0.5084185004234314
0.28108668327331543 0.2752869427204132 0.6491889357566833
0.31652966141700745 0.21460792422294617 0.5551910400390625
0.17587311565876007 0.31456223130226135 0.497578501701355
0.21414272487163544 0.17437101900577545 0.4904371500015259
0.2954533100128174 0.22359468042850494 0.48924723267555237
0.16643892228603363 0.16420693695545197 0.5615976452827454
0.24509881436824799 0.12289857119321823 0.43727907538414
0.21437136828899384 0.2902381420135498 0.5006601810455322
0.2016151398420334 0.2396724820137024 0.4570193588733673
0.3188900053501129 0.1953858733177185 0.5587166547775269
0.27677223086357117 0.20615698397159576 0.6051702499389648
0.19133475422859192 0.2791646420955658 0.6165610551834106
0.293753981590271 0.20097029209136963 0.6273691058158875
0.1969507783651352 0.28338316082954407 0.46852609515190125
0.21446509659290314 0.2430756688117981 0.5003455281257629
0.14982832968235016 0.22427363693714142 0.6325923204421997
0.15101012587547302 0.16500169038772583 0.5307281613349915
0.21751618385314941 0.2284674346446991 0.5173006057739258
0.12384171038866043 0.1914948672056198 0.5155969858169556
0.16769909858703613 0.26201531291007996 0.5591325163841248
0.31695646047592163 0.12565167248249054 0.6139552593231201
0.18174949288368225 0.27248427271842957 0.4994804263114929
0.15051385760307312 0.13687516748905182 0.6010248064994812
0.2257305234670639 0.2568126618862152 0.5688944458961487
0.17339688539505005 0.2960105240345001 0.46259692311286926
0.2524881362915039 0.2693581283092499 0.4726559519767761
0.15102997422218323 0.1197555810213089 0.5020639300346375
0.32080650329589844 0.2774815559387207 0.5607936978340149
0.20514680445194244 0.17436164617538452 0.5327817797660828
0.29292425513267517 0.21491588652133942 0.6378804445266724
0.21311478316783905 0.1207958459854126 0.5374457240104675
0.18299129605293274 0.16253003478050232 0.45653480291366577
0.23284883797168732 0.22950296103954315 0.6111104488372803
0.27927783131599426 0.23204873502254486 0.5332250595092773
0.16412481665611267 0.19024889171123505 0.6285709738731384
0.3143012523651123 0.173421710729599 0.5219253301620483
0.22247762978076935 0.20128588378429413 0.5784545540809631
0.23827411234378815 0.12796200811862946 0.5054060220718384
0.2749234437942505 0.19997508823871613 0.48166796565055847
0.22845257818698883 0.20153294503688812 0.6202753186225891
0.2188841700553894 0.1419522762298584 0.6060982942581177
0.15780788660049438 0.27662020921707153 0.5302537083625793
0.1446687877178192 0.23260001838207245 0.5211095213890076
0.12680839002132416 0.1383584886789322 0.5343146324157715
0.1767837405204773 0.25062641501426697 0.5309590697288513
0.2691197991371155 0.18723449110984802 0.6454036235809326
0.18201221525669098 0.1456291526556015 0.5990161299705505
0.27447184920310974 0.18578362464904785 0.5563331246376038
0.30507346987724304 0.27970969676971436 0.5265951752662659
0.13745182752609253 0.2670128047466278 0.602022111415863
0.2915275990962982 0.2294994592666626 0.5205493569374084
0.13611459732055664 0.1799525022506714 0.5669545531272888
0.272998183965683 0.22922585904598236 0.5138759613037109
0.32286354899406433 0.24957221746444702 0.6271148324012756
0.177361398935318 0.2920970618724823 0.579921543598175
0.13838094472885132 0.14930729568004608 0.5168253779411316
0.20028558373451233 0.29291099309921265 0.5395954251289368
0.2057836651802063 0.11150878667831421 0.6159583330154419
0.1640637218952179 0.31551504135131836 0.5064416527748108
0.31271010637283325 0.18520180881023407 0.6175796389579773
0.17546336352825165 0.25168681144714355 0.5624508857727051
0.275384783744812 0.12404326349496841 0.5604616403579712
0.2541472315788269 0.14981764554977417 0.44327887892723083
0.30095624923706055 0.2576042711734772 0.539677619934082
0.31301116943359375 0.24282635748386383 0.614018976688385
0.14568999409675598 0.2885637581348419 0.5257923007011414
0.2945268452167511 0.1564968079328537 0.5202139019966125
0.18690016865730286 0.2399408519268036 0.5434747934341431
0.1323041468858719 0.13082490861415863 0.45186981558799744
0.2258245348930359 0.17465201020240784 0.4666067063808441
0.13414272665977478 0.2936387062072754 0.6378681659698486
0.19349297881126404 0.16683253645896912 0.6115408539772034
0.3169860243797302 0.14428190886974335 0.5124337077140808
0.19878239929676056 0.11574438214302063 0.5396668910980225
0.24328453838825226 0.14010488986968994 0.5849320292472839
0.2166283130645752 0.24565984308719635 0.6030949354171753
0.303857684135437 0.21318666636943817 0.5201835036277771
0.24427972733974457 0.1550493687391281 0.6117812991142273
0.2622665464878082 0.20831769704818726 0.6302492022514343
0.3021855056285858 0.2561297118663788 0.6500131487846375
0.18746456503868103 0.12026294320821762 0.477607786655426
0.14358332753181458 0.26583001017570496 0.5088569521903992
0.2094353884458542 0.1593344807624817 0.5881305932998657
0.21293151378631592 0.1725953221321106 0.45021095871925354
0.1641218662261963 0.2607535123825073 0.5434414148330688
0.3227368891239166 0.25561976432800293 0.6077783107757568
0.28820306062698364 0.25835785269737244 0.6091353297233582
0.26118355989456177 0.2946373522281647 0.571931779384613
0.2109382599592209 0.2869958281517029 0.6034735441207886
0.14712558686733246 0.18708041310310364 0.5902076363563538
0.157260924577713 0.11801154911518097 0.5722128748893738
0.20811516046524048 0.2291174679994583 0.532797634601593
0.1878662407398224 0.23793412744998932 0.48858940601348877
0.21561254560947418 0.25676485896110535 0.6176538467407227
0.2321639209985733 0.2792075276374817 0.5100787281990051
0.17927387356758118 0.12407401204109192 0.49130722880363464
0.19848395884037018 0.15820027887821198 0.44129106402397156
0.16802558302879333 0.18837763369083405 0.6441782116889954
0.16429194808006287 0.2127630114555359 0.46119242906570435
0.23616325855255127 0.2632397711277008 0.5980002880096436
0.15491248667240143 0.22258472442626953 0.4544442892074585
0.28792744874954224 0.12321466952562332 0.5667148232460022
0.29655221104621887 0.1377408504486084 0.5664492249488831
0.28508636355400085 0.22680547833442688 0.5563746094703674
0.14587588608264923 0.17445108294487 0.5419686436653137
0.1695343554019928 0.2479328215122223 0.6178187131881714
0.2632378339767456 0.14143626391887665 0.4779840409755707
0.28815510869026184 0.1862097829580307 0.5312629342079163
0.14340858161449432 0.19594092667102814 0.6433834433555603
0.2694146931171417 0.26065701246261597 0.513841450214386
0.2622665464878082 0.20831769704818726 0.6302492022514343
0.16150952875614166 0.12284236401319504 0.5066733956336975
0.15629293024539948 0.2851318120956421 0.4582231640815735
0.2791914641857147 0.237216517329216 0.6209010481834412
0.17839974164962769 0.2643892168998718 0.6346932053565979
0.18957136571407318 0.1587255299091339 0.46046027541160583
0.16183701157569885 0.20298993587493896 0.6292389035224915
0.13638153672218323 0.3107435703277588 0.566723108291626
0.12463565915822983 0.1419045478105545 0.5239743590354919
0.30379873514175415 0.16597923636436462 0.5939041972160339
0.1428053081035614 0.12247800081968307 0.5484023690223694
0.24215026199817657 0.17072232067584991 0.44987496733665466
0.19831888377666473 0.12462782114744186 0.5632150769233704
0.20966088771820068 0.23390696942806244 0.4980352222919464
0.18306846916675568 0.23723363876342773 0.45609357953071594
0.18770264089107513 0.270172119140625 0.59955894947052
0.2147737592458725 0.17242442071437836 0.5443363785743713
0.17966052889823914 0.1997804492712021 0.603934109210968
0.28453561663627625 0.11555258929729462 0.48645371198654175
0.21429550647735596 0.11609575152397156 0.6170129179954529
0.211561918258667 0.12464123219251633 0.44018691778182983
0.1491650938987732 0.2651776671409607 0.48695388436317444
0.2783285081386566 0.26002323627471924 0.5035792589187622
0.3340003788471222 0.24846574664115906 0.5015867948532104
0.1903700977563858 0.19712115824222565 0.5195964574813843
0.26789844036102295 0.3019156754016876 0.48656776547431946
0.18524377048015594 0.16211336851119995 0.4415940046310425
0.31135329604148865 0.13141773641109467 0.513968288898468
0.19752593338489532 0.14749325811862946 0.45900923013687134
0.22890932857990265 0.18259194493293762 0.6259235739707947
0.29302939772605896 0.1354999989271164 0.5868794918060303
0.28493890166282654 0.1209150105714798 0.5019859075546265
0.18375258147716522 0.29594939947128296 0.532116711139679
0.267362117767334 0.26811861991882324 0.5812430381774902
0.29302939772605896 0.1354999989271164 0.5868794918060303
0.28493890166282654 0.1209150105714798 0.5019859075546265
0.12638184428215027 0.15422038733959198 0.5978313684463501
0.21010662615299225 0.28558188676834106 0.657625138759613
0.31904274225234985 0.15988674759864807 0.5116819143295288
0.27147239446640015 0.1973942369222641 0.5673525333404541
0.1483362913131714 0.3074239194393158 0.5685033202171326
0.1724323183298111 0.12573295831680298 0.4566107392311096
0.16128887236118317 0.16949646174907684 0.5807499885559082
0.2608247697353363 0.1335929036140442 0.5475050210952759
0.271162748336792 0.20500361919403076 0.5760776996612549
0.22708867490291595 0.18504251539707184 0.6081551909446716
0.3160359561443329 0.12878134846687317 0.4420795440673828
0.2550753653049469 0.2522921562194824 0.590460479259491
0.2782660126686096 0.11424700915813446 0.5265790820121765
0.24773603677749634 0.12843085825443268 0.4811752438545227
0.21560963988304138 0.17980176210403442 0.4455394744873047
0.27125969529151917 0.20925267040729523 0.5315338373184204
0.17588767409324646 0.16143400967121124 0.4938415288925171
0.15298205614089966 0.29819193482398987 0.4742354154586792
0.23525430262088776 0.14222168922424316 0.5781927704811096
0.2384052276611328 0.30114713311195374 0.472413033246994
0.1984713077545166 0.25549036264419556 0.6254975199699402
0.29519250988960266 0.2746797502040863 0.5500745177268982
0.2935367524623871 0.1437784880399704 0.5616452693939209
0.2935367524623871 0.1437784880399704 0.5616452693939209
0.24760909378528595 0.23054315149784088 0.48875030875205994
0.22776496410369873 0.19917181134223938 0.45822858810424805
0.22776496410369873 0.19917181134223938 0.45822858810424805
0.23443537950515747 0.19062253832817078 0.4657246768474579
0.14738556742668152 0.25449278950691223 0.5690892934799194
0.12638184428215027 0.15422038733959198 0.5978313684463501
0.2812551259994507 0.1352044641971588 0.5193265080451965
0.18427415192127228 0.2667216360569 0.6287260055541992
0.31904274225234985 0.15988674759864807 0.5116819143295288
0.27147239446640015 0.1973942369222641 0.5673525333404541
0.1483362913131714 0.3074239194393158 0.5685033202171326
0.1724323183298111 0.12573295831680298 0.4566107392311096
0.16128887236118317 0.16949646174907684 0.5807499885559082
0.19989097118377686 0.2257520705461502 0.5287709832191467
0.21635091304779053 0.29721876978874207 0.5301887392997742
0.23148395121097565 0.16097921133041382 0.6297921538352966
0.271162748336792 0.20500361919403076 0.5760776996612549
0.22708867490291595 0.18504251539707184 0.6081551909446716
0.3160359561443329 0.12878134846687317 0.4420795440673828
0.2550753653049469 0.2522921562194824 0.590460479259491
0.24773603677749634 0.12843085825443268 0.4811752438545227
0.21560963988304138 0.17980176210403442 0.4455394744873047
0.27125969529151917 0.20925267040729523 0.5315338373184204
0.17588767409324646 0.16143400967121124 0.4938415288925171
0.15298205614089966 0.29819193482398987 0.4742354154586792
0.23525430262088776 0.14222168922424316 0.5781927704811096
0.2384052276611328 0.30114713311195374 0.472413033246994
0.24030505120754242 0.1357445865869522 0.48965150117874146
0.1984713077545166 0.25549036264419556 0.6254975199699402
0.29519250988960266 0.2746797502040863 0.5500745177268982
0.2935367524623871 0.1437784880399704 0.5616452693939209
0.24760909378528595 0.23054315149784088 0.48875030875205994
0.22776496410369873 0.19917181134223938 0.45822858810424805
0.3080604076385498 0.274910032749176 0.49685168266296387
0.23443537950515747 0.19062253832817078 0.4657246768474579
0.3159790337085724 0.275049090385437 0.6404014229774475
0.14738556742668152 0.25449278950691223 0.5690892934799194
0.24613240361213684 0.15413951873779297 0.5803496837615967
0.29298135638237 0.22658099234104156 0.5392544269561768
0.2725733816623688 0.2568407356739044 0.6045300364494324
0.30533769726753235 0.12149756401777267 0.5648376941680908
0.13898663222789764 0.17766740918159485 0.5894975066184998
0.205739825963974 0.13664866983890533 0.5662251114845276
0.20848475396633148 0.144169881939888 0.5959768295288086
0.22437068819999695 0.2595418393611908 0.48918578028678894
0.1625833511352539 0.18311144411563873 0.5303420424461365
0.22797514498233795 0.2605019509792328 0.5954923629760742
0.19874657690525055 0.1517781764268875 0.5394322276115417
0.2147979885339737 0.2008676528930664 0.4633657932281494
0.1844843029975891 0.2509915232658386 0.46171143651008606
0.29548585414886475 0.17511413991451263 0.5813432931900024
0.28506240248680115 0.27878841757774353 0.5844805240631104
0.2025894820690155 0.14986246824264526 0.6095789074897766
0.2322521209716797 0.15870429575443268 0.5552606582641602
0.22254449129104614 0.15110979974269867 0.5488101243972778
0.12601786851882935 0.2197183221578598 0.5948008298873901
0.2087906152009964 0.20850960910320282 0.5153251886367798
0.269450306892395 0.27548280358314514 0.5108194351196289
0.2131233960390091 0.2933439016342163 0.5030838251113892
0.29064616560935974 0.14704710245132446 0.519275426864624
0.313890278339386 0.173868790268898 0.48182475566864014
0.3073108196258545 0.23112833499908447 0.5219704508781433
0.2777194082736969 0.21900036931037903 0.5751261115074158
0.23621101677417755 0.18816928565502167 0.462634801864624
0.3390199840068817 0.2838853895664215 0.4937902092933655
0.1384172886610031 0.24987603724002838 0.4931827485561371
0.2783285081386566 0.26002323627471924 0.5035792589187622
0.3340003788471222 0.24846574664115906 0.5015867948532104
0.26795822381973267 0.13428445160388947 0.545088529586792
0.16128887236118317 0.16949646174907684 0.5807499885559082
0.19989097118377686 0.2257520705461502 0.5287709832191467
0.21635091304779053 0.29721876978874207 0.5301887392997742
0.23148395121097565 0.16097921133041382 0.6297921538352966
0.271162748336792 0.20500361919403076 0.5760776996612549
0.22708867490291595 0.18504251539707184 0.6081551909446716
0.12238097190856934 0.11694405227899551 0.5415804982185364
0.16268423199653625 0.20322637259960175 0.516128420829773
0.2803191542625427 0.24427518248558044 0.46668538451194763
0.17982444167137146 0.13116590678691864 0.491227388381958
0.29854094982147217 0.15402807295322418 0.5018901228904724
0.2259751707315445 0.19829319417476654 0.564113974571228
0.20595447719097137 0.24458706378936768 0.4902634620666504
0.30338382720947266 0.16221190989017487 0.5412943959236145
0.28717878460884094 0.1885090470314026 0.45649197697639465
0.1911344677209854 0.2849479615688324 0.4876420795917511
0.24244485795497894 0.12858101725578308 0.5175095200538635
0.2783936858177185 0.13411545753479004 0.4445084035396576
0.21782642602920532 0.2678300440311432 0.4624865651130676
0.31814953684806824 0.18897636234760284 0.6206929087638855
0.2944510579109192 0.23841674625873566 0.5729113221168518
0.2372734397649765 0.171657994389534 0.5465240478515625
0.22120587527751923 0.28397858142852783 0.6339559555053711
0.15312083065509796 0.1652814745903015 0.4746297597885132
0.25222745537757874 0.30471208691596985 0.504458487033844
0.32013747096061707 0.1578868329524994 0.49563828110694885
0.2645550072193146 0.2427317202091217 0.5811113715171814
0.16304302215576172 0.21040119230747223 0.46775099635124207
0.30658942461013794 0.14657820761203766 0.5957937836647034
0.3251022696495056 0.2130081206560135 0.5864120721817017
0.2797987461090088 0.1183093786239624 0.6171473264694214
0.23616325855255127 0.2632397711277008 0.5980002880096436
0.2088327258825302 0.11113664507865906 0.6187266111373901
0.17353707551956177 0.21941030025482178 0.5151036977767944
0.2222951352596283 0.1623973250389099 0.5554112792015076
0.30607113242149353 0.17906972765922546 0.5266494154930115
0.2316436469554901 0.22574304044246674 0.5787743926048279
0.14016486704349518 0.2503231465816498 0.5380162596702576
0.1318935751914978 0.20088458061218262 0.4846670627593994
0.1416645050048828 0.2183610200881958 0.6416168808937073
0.17290663719177246 0.2833118438720703 0.5024346709251404
0.2037879377603531 0.230968177318573 0.5890227556228638
0.21745674312114716 0.11190462857484818 0.6054736971855164
0.2668408453464508 0.2931760847568512 0.5316359400749207
0.15547281503677368 0.19131271541118622 0.4716094732284546
0.13837942481040955 0.21296489238739014 0.6352714896202087
0.3086678087711334 0.2377498894929886 0.5987489819526672
0.14136172831058502 0.1606511026620865 0.5203653573989868
0.22204798460006714 0.25790107250213623 0.6070699095726013
0.22273260354995728 0.22589603066444397 0.5425091981887817
0.15031731128692627 0.14868967235088348 0.49469780921936035
0.248732328414917 0.1420181542634964 0.525486171245575
0.21683640778064728 0.15667305886745453 0.6339761018753052
0.17173705995082855 0.20680679380893707 0.5557419657707214
0.17813697457313538 0.25800785422325134 0.5696649551391602
0.2717546820640564 0.2568730115890503 0.5590540766716003
0.1650434136390686 0.2923007011413574 0.6182314157485962
0.19437982141971588 0.18657629191875458 0.4645283818244934
0.2891276180744171 0.11801281571388245 0.55557781457901
0.17650039494037628 0.23092438280582428 0.48765820264816284
0.17901179194450378 0.1600918024778366 0.5771876573562622
0.22811442613601685 0.20490851998329163 0.5944095849990845
0.12238097190856934 0.11694405227899551 0.5415804982185364
0.14116095006465912 0.24984298646450043 0.6044321656227112
0.26110267639160156 0.138665109872818 0.6248087882995605
0.2733912169933319 0.13885177671909332 0.6262003779411316
0.15831546485424042 0.22216908633708954 0.4955250024795532
0.1713845133781433 0.2744380235671997 0.6503465175628662
0.23872677981853485 0.16351671516895294 0.5544480085372925
0.3180294632911682 0.24493080377578735 0.5561699271202087
0.31704574823379517 0.1993311047554016 0.5063198804855347
0.2661248445510864 0.27097174525260925 0.5892931818962097
0.2591419517993927 0.15815988183021545 0.4603785276412964
0.29968494176864624 0.21087746322155 0.455546110868454
0.28219929337501526 0.11496544629335403 0.617629885673523
0.24073144793510437 0.19369660317897797 0.5004863739013672
0.15000811219215393 0.206529438495636 0.5393090844154358
0.16771963238716125 0.20056921243667603 0.4864932894706726
0.14275497198104858 0.22326219081878662 0.47071143984794617
0.22068597376346588 0.12722936272621155 0.47628048062324524
0.1679733395576477 0.24625204503536224 0.5453217625617981
0.32183101773262024 0.2015368640422821 0.4988531768321991
0.3065078556537628 0.14700116217136383 0.5014772415161133
0.17134304344654083 0.1408935785293579 0.44016703963279724
0.3146273195743561 0.2522241473197937 0.6160256862640381
0.22014865279197693 0.22867171466350555 0.4928443133831024
0.26857468485832214 0.216944620013237 0.5863208174705505
0.24763938784599304 0.22505038976669312 0.535342812538147
0.20097824931144714 0.16186654567718506 0.6386560797691345
0.2757701575756073 0.28426027297973633 0.6140389442443848
0.1866345852613449 0.2254776507616043 0.5588880181312561
0.19294704496860504 0.1372404545545578 0.5502324104309082
0.22075967490673065 0.11390957236289978 0.5680217146873474
0.26159557700157166 0.22533230483531952 0.46235936880111694
0.15213127434253693 0.29597198963165283 0.5044604539871216
0.19878239929676056 0.11574438214302063 0.5396668910980225
0.26234474778175354 0.1660306453704834 0.4535761773586273
0.22987999022006989 0.2625335156917572 0.6368107199668884
0.32053422927856445 0.19547680020332336 0.5144692659378052
0.23601892590522766 0.24037037789821625 0.567202091217041
0.21055574715137482 0.2196824699640274 0.49199050664901733
0.2977367043495178 0.15532566606998444 0.5916811227798462
0.21339066326618195 0.12265925854444504 0.5620130896568298
0.23277848958969116 0.20675472915172577 0.516495943069458
0.2838517129421234 0.15192823112010956 0.44743913412094116
0.2740364670753479 0.1558670550584793 0.636592447757721
0.18513993918895721 0.1908387541770935 0.515388011932373
0.19980035722255707 0.2621968388557434 0.5750351548194885
0.15158602595329285 0.22283750772476196 0.608572244644165
0.18823008239269257 0.2755797505378723 0.5744484663009644
0.27061620354652405 0.22260160744190216 0.590484082698822
0.19459381699562073 0.14658726751804352 0.5654602646827698
0.17843322455883026 0.17391838133335114 0.5437077283859253
0.18734022974967957 0.1911415308713913 0.5538334846496582
0.2566250264644623 0.27605733275413513 0.5577046871185303
0.15898169577121735 0.3025561273097992 0.565201461315155
0.26440560817718506 0.19932492077350616 0.5525262355804443
0.12669260799884796 0.1723797470331192 0.6020334959030151
0.22672967612743378 0.17396125197410583 0.6195971965789795
0.14514344930648804 0.2954331040382385 0.48496758937835693
0.2969348728656769 0.14686153829097748 0.524779200553894
0.28950902819633484 0.1947830617427826 0.5216150283813477
0.1967148631811142 0.17198054492473602 0.5418587327003479
0.1642349809408188 0.21084997057914734 0.5204077959060669
0.33556458353996277 0.28044503927230835 0.4668310582637787
0.19255805015563965 0.19245047867298126 0.47108426690101624
0.24743282794952393 0.1398223340511322 0.5341687202453613
0.17109261453151703 0.1924486607313156 0.5045867562294006
0.3207789659500122 0.16172994673252106 0.6148203611373901
0.2937729060649872 0.14697599411010742 0.6393173933029175
0.2172904908657074 0.20229437947273254 0.6395819187164307
0.19698230922222137 0.15576070547103882 0.5911082625389099
0.24911433458328247 0.23796923458576202 0.5321725606918335
0.14007635414600372 0.1423114836215973 0.5978897213935852
0.2056078463792801 0.12201329320669174 0.46307888627052307
0.24022826552391052 0.23104222118854523 0.47937554121017456
0.2604650855064392 0.2590065002441406 0.5358012318611145
0.32699549198150635 0.28387948870658875 0.5904852747917175
0.325065553188324 0.2149854153394699 0.4709005355834961
0.24450956284999847 0.3071323037147522 0.48041975498199463
0.13858020305633545 0.2374466061592102 0.5996717810630798
0.16790993511676788 0.22778768837451935 0.552470326423645
0.2567822337150574 0.2813001871109009 0.5519574880599976
0.23775146901607513 0.3000323474407196 0.5594625473022461
0.18445560336112976 0.13464020192623138 0.4676534831523895
0.2521955072879791 0.25262171030044556 0.6552978754043579
0.26050734519958496 0.28538045287132263 0.5604656338691711
0.23764733970165253 0.19132336974143982 0.6425291299819946
0.1270609050989151 0.16582848131656647 0.5430238842964172
0.2145184874534607 0.11913416534662247 0.6356340050697327
0.2779237926006317 0.21298718452453613 0.576880931854248
0.16843998432159424 0.15584023296833038 0.5760864019393921
0.12765158712863922 0.1971515566110611 0.47313934564590454
0.19326113164424896 0.1146235316991806 0.6008965969085693
0.2780032753944397 0.15890023112297058 0.4960464835166931
0.19299142062664032 0.2817632853984833 0.6186302304267883
0.1593170464038849 0.20189839601516724 0.46638885140419006
0.2982715666294098 0.2497556060552597 0.5161378383636475
0.25293809175491333 0.192341148853302 0.477517694234848
0.2166283130645752 0.24565984308719635 0.6030949354171753
0.2891276180744171 0.11801281571388245 0.55557781457901
0.17650039494037628 0.23092438280582428 0.48765820264816284
0.17901179194450378 0.1600918024778366 0.5771876573562622
0.12238097190856934 0.11694405227899551 0.5415804982185364
0.16268423199653625 0.20322637259960175 0.516128420829773
0.2803191542625427 0.24427518248558044 0.46668538451194763
0.17982444167137146 0.13116590678691864 0.491227388381958
0.29854094982147217 0.15402807295322418 0.5018901228904724
0.2259751707315445 0.19829319417476654 0.564113974571228
0.20595447719097137 0.24458706378936768 0.4902634620666504
0.2259751707315445 0.19829319417476654 0.564113974571228
0.20595447719097137 0.24458706378936768 0.4902634620666504
0.30338382720947266 0.16221190989017487 0.5412943959236145
0.28717878460884094 0.1885090470314026 0.45649197697639465
0.1911344677209854 0.2849479615688324 0.4876420795917511
0.24244485795497894 0.12858101725578308 0.5175095200538635
0.2783936858177185 0.13411545753479004 0.4445084035396576
0.21782642602920532 0.2678300440311432 0.4624865651130676
0.31814953684806824 0.18897636234760284 0.6206929087638855
0.2944510579109192 0.23841674625873566 0.5729113221168518
0.2372734397649765 0.171657994389534 0.5465240478515625
0.22120587527751923 0.28397858142852783 0.6339559555053711
0.17492060363292694 0.1717267632484436 0.6327409148216248
0.24400155246257782 0.14142774045467377 0.46748465299606323
0.27918729186058044 0.13196654617786407 0.5955173373222351
0.2593860626220703 0.12229675054550171 0.5522254705429077
0.2408820390701294 0.22603750228881836 0.5764853954315186
0.24686677753925323 0.11391245573759079 0.6019768118858337
0.19912374019622803 0.25652164220809937 0.5858302116394043
0.15317657589912415 0.25412389636039734 0.5289556384086609
0.2532300055027008 0.12409696727991104 0.4730016589164734
0.29070836305618286 0.18169718980789185 0.5470948219299316
0.18823008239269257 0.2755797505378723 0.5744484663009644
0.27061620354652405 0.22260160744190216 0.590484082698822
0.2077741026878357 0.1709279865026474 0.584311842918396
0.21476654708385468 0.20015807449817657 0.5657167434692383
0.2566250264644623 0.27605733275413513 0.5577046871185303
0.15898169577121735 0.3025561273097992 0.565201461315155
0.26440560817718506 0.19932492077350616 0.5525262355804443
0.3187149167060852 0.27362003922462463 0.46489715576171875
0.2714051902294159 0.12370339035987854 0.5614393353462219
0.17801715433597565 0.12188243865966797 0.515362560749054
0.20973214507102966 0.29379409551620483 0.5717530250549316
0.2969348728656769 0.14686153829097748 0.524779200553894
0.21305395662784576 0.28563761711120605 0.5662742257118225
0.28950902819633484 0.1947830617427826 0.5216150283813477
0.1967148631811142 0.17198054492473602 0.5418587327003479
0.33556458353996277 0.28044503927230835 0.4668310582637787
0.27606046199798584 0.10919760167598724 0.6343297362327576
0.19255805015563965 0.19245047867298126 0.47108426690101624
0.24743282794952393 0.1398223340511322 0.5341687202453613
0.2544645667076111 0.2114367038011551 0.553253710269928
0.12297199666500092 0.12630511820316315 0.5962852835655212
0.26476532220840454 0.15979748964309692 0.5029837489128113
0.17693926393985748 0.17512235045433044 0.4525170922279358
0.15764130651950836 0.1170978769659996 0.5588635802268982
0.22380322217941284 0.24295823276042938 0.6131389737129211
0.25620031356811523 0.12967653572559357 0.4483022689819336
0.21032296121120453 0.17876578867435455 0.4725120961666107
0.319181352853775 0.2559698522090912 0.4831462502479553
0.15054787695407867 0.13591516017913818 0.6259059309959412
0.15252995491027832 0.20890511572360992 0.630879819393158
0.32344648241996765 0.19785353541374207 0.4995189309120178
0.15334656834602356 0.12184834480285645 0.5656988620758057
0.19698230922222137 0.15576070547103882 0.5911082625389099
0.24911433458328247 0.23796923458576202 0.5321725606918335
0.14007635414600372 0.1423114836215973 0.5978897213935852
0.2400164157152176 0.27975547313690186 0.48463207483291626
0.19836987555027008 0.22251667082309723 0.5968613624572754
0.24022826552391052 0.23104222118854523 0.47937554121017456
0.17183609306812286 0.14184944331645966 0.594495952129364
0.1654987782239914 0.1849069893360138 0.5187059640884399
0.1573672741651535 0.17629949748516083 0.6041175127029419
0.18100132048130035 0.11537197977304459 0.6004912257194519
0.17228136956691742 0.2754475176334381 0.6451488137245178
0.33446425199508667 0.26520246267318726 0.4931829869747162
0.18602564930915833 0.17188671231269836 0.46178457140922546
0.18789714574813843 0.19732248783111572 0.5623393654823303
0.16086739301681519 0.1902877688407898 0.5196762084960938
0.2488618940114975 0.2811245620250702 0.5826303362846375
0.27549806237220764 0.12528300285339355 0.5937002897262573
0.2587161362171173 0.22059893608093262 0.6062373518943787
0.1679716259241104 0.15541909635066986 0.5764144062995911
0.2330787032842636 0.21528111398220062 0.6140132546424866
0.17963843047618866 0.2910425066947937 0.6200146675109863
0.17219312489032745 0.2808142602443695 0.5424721837043762
0.24194766581058502 0.13764174282550812 0.6369286775588989
0.14854878187179565 0.22750893235206604 0.4696234166622162
0.19102728366851807 0.23757824301719666 0.4932871162891388
0.30965656042099 0.2871662974357605 0.5780275464057922
0.2585805356502533 0.11849904805421829 0.49483153223991394
0.14905697107315063 0.2778731882572174 0.5338946580886841
0.2302648425102234 0.2091904580593109 0.496858149766922
0.17561593651771545 0.20632348954677582 0.5448436737060547
0.19098854064941406 0.2528940737247467 0.5495713949203491
0.26789844036102295 0.3019156754016876 0.48656776547431946
0.1293124556541443 0.14545553922653198 0.49501392245292664
0.19759030640125275 0.12778504192829132 0.4761544466018677
0.13919056951999664 0.13377493619918823 0.4845260679721832
0.17037570476531982 0.16416114568710327 0.549359917640686
0.13689550757408142 0.2814079821109772 0.5535445809364319
0.30045053362846375 0.1688523143529892 0.5032469630241394
0.27209946513175964 0.14066720008850098 0.4558221399784088
0.18274959921836853 0.24931922554969788 0.5969530940055847
0.3207789659500122 0.16172994673252106 0.6148203611373901
0.2937729060649872 0.14697599411010742 0.6393173933029175
0.2172904908657074 0.20229437947273254 0.6395819187164307
0.19698230922222137 0.15576070547103882 0.5911082625389099
0.24911433458328247 0.23796923458576202 0.5321725606918335
0.14007635414600372 0.1423114836215973 0.5978897213935852
0.2400164157152176 0.27975547313690186 0.48463207483291626
0.16503439843654633 0.2858608663082123 0.6183900237083435
0.20091989636421204 0.1867952048778534 0.4712049663066864
0.22712112963199615 0.1448751538991928 0.4970516264438629
0.2750762104988098 0.15643079578876495 0.6220347881317139
0.202089324593544 0.13788573443889618 0.6124045848846436
0.21985997259616852 0.12187719345092773 0.5698733925819397
0.2854127585887909 0.15704797208309174 0.5834577083587646
0.20829756557941437 0.25714167952537537 0.6102939248085022
0.2146754115819931 0.22522835433483124 0.6212562918663025
0.2296433448791504 0.2986806035041809 0.5856788754463196
0.21069657802581787 0.24120886623859406 0.5074730515480042
0.31220129132270813 0.28709328174591064 0.484503835439682
0.20202001929283142 0.26453012228012085 0.5289549827575684
0.2544756531715393 0.14844666421413422 0.4944809675216675
0.32081034779548645 0.14641301333904266 0.5193331837654114
0.1710125207901001 0.14802983403205872 0.5193681716918945
0.12638184428215027 0.15422038733959198 0.5978313684463501
0.202089324593544 0.13788573443889618 0.6124045848846436
0.21985997259616852 0.12187719345092773 0.5698733925819397
0.2854127585887909 0.15704797208309174 0.5834577083587646
0.20829756557941437 0.25714167952537537 0.6102939248085022
0.2146754115819931 0.22522835433483124 0.6212562918663025
0.2296433448791504 0.2986806035041809 0.5856788754463196
0.21069657802581787 0.24120886623859406 0.5074730515480042
0.31220129132270813 0.28709328174591064 0.484503835439682
0.20202001929283142 0.26453012228012085 0.5289549827575684
0.2544756531715393 0.14844666421413422 0.4944809675216675
0.3117412328720093 0.14786756038665771 0.5279356837272644
0.14223597943782806 0.14768382906913757 0.4860909581184387
0.24715545773506165 0.15562652051448822 0.5065094828605652
0.31674280762672424 0.2736349105834961 0.49221545457839966
0.2573417127132416 0.21763592958450317 0.6455770134925842
0.2611757218837738 0.1709388643503189 0.6243308186531067
0.12459681928157806 0.1588171422481537 0.5405948758125305
0.14370197057724 0.13872329890727997 0.4399558901786804
0.1687135249376297 0.15461784601211548 0.5479777455329895
0.16895361244678497 0.14708763360977173 0.5111175775527954
0.271374374628067 0.2609836161136627 0.519464910030365
0.2826484739780426 0.12384705245494843 0.48146864771842957
0.2955568730831146 0.19605740904808044 0.45589110255241394
0.22312386333942413 0.18112172186374664 0.5392463207244873
0.17801645398139954 0.12159007042646408 0.6324978470802307
0.18048633635044098 0.15337763726711273 0.4518992304801941
0.2791045308113098 0.16510909795761108 0.49851107597351074
0.17765076458454132 0.22463072836399078 0.4494434893131256
0.1755346655845642 0.20734459161758423 0.5371698141098022
0.2629580795764923 0.1219293475151062 0.5505110621452332
0.17359647154808044 0.16066212952136993 0.5647027492523193
0.18391641974449158 0.20756487548351288 0.5902760624885559
0.16843998432159424 0.15584023296833038 0.5760864019393921
0.2404249608516693 0.2775387465953827 0.6209253072738647
0.15482528507709503 0.22794891893863678 0.5594322085380554
0.151382714509964 0.28117674589157104 0.4658290445804596
0.13896626234054565 0.3086211681365967 0.5432767271995544
0.17801645398139954 0.12159007042646408 0.6324978470802307
0.18048633635044098 0.15337763726711273 0.4518992304801941
0.29625236988067627 0.1702369898557663 0.5146996974945068
0.18048633635044098 0.15337763726711273 0.4518992304801941
0.2791045308113098 0.16510909795761108 0.49851107597351074
0.17765076458454132 0.22463072836399078 0.4494434893131256
0.30965656042099 0.2871662974357605 0.5780275464057922
0.2585805356502533 0.11849904805421829 0.49483153223991394
0.14905697107315063 0.2778731882572174 0.5338946580886841
0.2302648425102234 0.2091904580593109 0.496858149766922
0.17561593651771545 0.20632348954677582 0.5448436737060547
0.19098854064941406 0.2528940737247467 0.5495713949203491
0.21944791078567505 0.27904945611953735 0.654111921787262
0.2162131667137146 0.17367103695869446 0.4911426901817322
0.19159357249736786 0.2404191792011261 0.4911635220050812
0.27312713861465454 0.24634212255477905 0.4710046350955963
0.2511518895626068 0.2530005872249603 0.6457443237304688
0.18161404132843018 0.22621294856071472 0.48381415009498596
0.27369555830955505 0.30914390087127686 0.46442320942878723
0.1357535570859909 0.2212342470884323 0.5216493606567383
0.13466238975524902 0.29765617847442627 0.601798415184021
0.30315130949020386 0.12389780580997467 0.5146752595901489
0.17601269483566284 0.1625857949256897 0.5321556329727173
0.30172961950302124 0.2453915774822235 0.5958992838859558
0.31920313835144043 0.18106721341609955 0.6012616753578186
0.12331313639879227 0.17612594366073608 0.5316513180732727
0.14973285794258118 0.11835861206054688 0.6359946727752686
0.30030357837677 0.16430136561393738 0.584312379360199
0.2600111663341522 0.235015407204628 0.5698416829109192
0.13646772503852844 0.15395542979240417 0.513899028301239
0.2447906732559204 0.23326635360717773 0.5769800543785095
0.21037894487380981 0.19339333474636078 0.5986232161521912
0.25400102138519287 0.21283932030200958 0.45926669239997864
0.1622333824634552 0.31373775005340576 0.4877530038356781
0.17234595119953156 0.3031480610370636 0.5722423195838928
0.17234595119953156 0.3031480610370636 0.5722423195838928
0.16920898854732513 0.23546665906906128 0.5816358923912048
0.18734852969646454 0.30231425166130066 0.5035471320152283
0.12802940607070923 0.12079468369483948 0.5999069213867188
0.25195759534835815 0.24494123458862305 0.533164918422699
0.15567606687545776 0.1658177375793457 0.49613630771636963
0.3225032389163971 0.14368759095668793 0.5511417984962463
0.3225032389163971 0.14368759095668793 0.5511417984962463
0.23807324469089508 0.14218343794345856 0.5953410863876343
0.29002583026885986 0.1376655399799347 0.576221227645874
0.18480196595191956 0.14798976480960846 0.4924432039260864
0.33080437779426575 0.2586061358451843 0.5503451228141785
0.31322574615478516 0.1946907490491867 0.5771310925483704
0.2793252170085907 0.21808089315891266 0.566676914691925
0.2995854914188385 0.2402784824371338 0.5936512351036072
0.2678820788860321 0.2520761787891388 0.5536046624183655
0.2995854914188385 0.2402784824371338 0.5936512351036072
0.2678820788860321 0.2520761787891388 0.5536046624183655
0.2678820788860321 0.2520761787891388 0.5536046624183655
0.19010965526103973 0.1889103800058365 0.5686404705047607
0.13008975982666016 0.1236649602651596 0.5118051171302795
0.26873257756233215 0.2765178680419922 0.48180705308914185
0.17093701660633087 0.16061383485794067 0.5310438275337219
0.2803191542625427 0.24427518248558044 0.46668538451194763
0.15764130651950836 0.1170978769659996 0.5588635802268982
0.22380322217941284 0.24295823276042938 0.6131389737129211
0.25620031356811523 0.12967653572559357 0.4483022689819336
0.25620031356811523 0.12967653572559357 0.4483022689819336
0.21032296121120453 0.17876578867435455 0.4725120961666107
0.2662142813205719 0.21635109186172485 0.6344246864318848
0.16307829320430756 0.2933095395565033 0.5577389001846313
0.251510351896286 0.26585906744003296 0.5874230861663818
0.2823576033115387 0.26121535897254944 0.5495972633361816
0.22805283963680267 0.1709853559732437 0.5296046137809753
0.2924226224422455 0.17851324379444122 0.5380668044090271
0.17368094623088837 0.1535593867301941 0.5938539505004883
0.15052135288715363 0.1351281851530075 0.4630994498729706
0.2132408320903778 0.1252250224351883 0.6120107769966125
0.21097084879875183 0.15651442110538483 0.6240639090538025
0.17438659071922302 0.24253670871257782 0.5028833150863647
0.26093581318855286 0.29933884739875793 0.5360519886016846
0.1466693878173828 0.1310010403394699 0.43976348638534546
0.21192209422588348 0.20182286202907562 0.4779967963695526
0.14667443931102753 0.1846446841955185 0.6179025769233704
0.1778794378042221 0.2829943001270294 0.6507422924041748
0.32443737983703613 0.18301594257354736 0.5092359781265259
0.29646754264831543 0.1442023664712906 0.5832217931747437
0.17409466207027435 0.2556574046611786 0.6349996328353882
0.31780874729156494 0.2416744977235794 0.5380612015724182
0.3191775381565094 0.1762654185295105 0.5762357711791992
0.30030357837677 0.16430136561393738 0.584312379360199
0.2600111663341522 0.235015407204628 0.5698416829109192
0.28215649724006653 0.21818940341472626 0.5369939804077148
0.2497350424528122 0.2411372810602188 0.6299020648002625
0.21256136894226074 0.12545430660247803 0.5355245471000671
0.15317657589912415 0.25412389636039734 0.5289556384086609
0.15567606687545776 0.1658177375793457 0.49613630771636963
0.3225032389163971 0.14368759095668793 0.5511417984962463
0.23807324469089508 0.14218343794345856 0.5953410863876343
0.29002583026885986 0.1376655399799347 0.576221227645874
0.18480196595191956 0.14798976480960846 0.4924432039260864
0.33080437779426575 0.2586061358451843 0.5503451228141785
0.31322574615478516 0.1946907490491867 0.5771310925483704
0.2793252170085907 0.21808089315891266 0.566676914691925
0.2995854914188385 0.2402784824371338 0.5936512351036072
0.2678820788860321 0.2520761787891388 0.5536046624183655
0.19010965526103973 0.1889103800058365 0.5686404705047607
0.13008975982666016 0.1236649602651596 0.5118051171302795
0.26873257756233215 0.2765178680419922 0.48180705308914185
0.17093701660633087 0.16061383485794067 0.5310438275337219
0.15879710018634796 0.13465917110443115 0.545875608921051
0.309425950050354 0.13046708703041077 0.5297726988792419
0.1957700550556183 0.1322248876094818 0.6311701536178589
0.22948426008224487 0.18066401779651642 0.5116327404975891
0.2886784076690674 0.18780551850795746 0.6389997601509094
0.2887231111526489 0.2036779522895813 0.5902084708213806
0.1293124556541443 0.14545553922653198 0.49501392245292664
0.14033377170562744 0.18937340378761292 0.576313316822052
0.1576678603887558 0.23351368308067322 0.44996726512908936
0.26253175735473633 0.1355801820755005 0.6382209658622742
0.16876399517059326 0.1939479559659958 0.5308759212493896
0.15256613492965698 0.28222694993019104 0.6253462433815002
0.265064537525177 0.2385328710079193 0.5992962718009949
0.16037286818027496 0.11718127131462097 0.6088516116142273
0.23126059770584106 0.25536370277404785 0.6045666933059692
0.23446905612945557 0.12742483615875244 0.4745185077190399
0.18341898918151855 0.14925965666770935 0.589274525642395
0.2703428864479065 0.2006470263004303 0.5265296101570129
0.2544645667076111 0.2114367038011551 0.553253710269928
0.12297199666500092 0.12630511820316315 0.5962852835655212
0.26476532220840454 0.15979748964309692 0.5029837489128113
0.17693926393985748 0.17512235045433044 0.4525170922279358
0.15764130651950836 0.1170978769659996 0.5588635802268982
0.22380322217941284 0.24295823276042938 0.6131389737129211
0.25620031356811523 0.12967653572559357 0.4483022689819336
0.25604918599128723 0.12953484058380127 0.4484018087387085
0.22316418588161469 0.2978824973106384 0.4884001910686493
0.2001163512468338 0.2627599239349365 0.5514219403266907
0.2662142813205719 0.21635109186172485 0.6344246864318848
0.15993280708789825 0.2869075536727905 0.6359876394271851
0.21889641880989075 0.2491445690393448 0.5041595697402954
0.15879710018634796 0.13465917110443115 0.545875608921051
0.309425950050354 0.13046708703041077 0.5297726988792419
0.1957700550556183 0.1322248876094818 0.6311701536178589
0.22948426008224487 0.18066401779651642 0.5116327404975891
0.2886784076690674 0.18780551850795746 0.6389997601509094
0.2887231111526489 0.2036779522895813 0.5902084708213806
0.1293124556541443 0.14545553922653198 0.49501392245292664
0.19759030640125275 0.12778504192829132 0.4761544466018677
0.13919056951999664 0.13377493619918823 0.4845260679721832
0.17037570476531982 0.16416114568710327 0.549359917640686
0.13689550757408142 0.2814079821109772 0.5535445809364319
0.30045053362846375 0.1688523143529892 0.5032469630241394
0.27209946513175964 0.14066720008850098 0.4558221399784088
0.18274959921836853 0.24931922554969788 0.5969530940055847
0.3207789659500122 0.16172994673252106 0.6148203611373901
0.2937729060649872 0.14697599411010742 0.6393173933029175
0.2172904908657074 0.20229437947273254 0.6395819187164307
0.19698230922222137 0.15576070547103882 0.5911082625389099
0.13523375988006592 0.17531324923038483 0.5553620457649231
0.26253175735473633 0.1355801820755005 0.6382209658622742
0.16876399517059326 0.1939479559659958 0.5308759212493896
0.15256613492965698 0.28222694993019104 0.6253462433815002
0.265064537525177 0.2385328710079193 0.5992962718009949
0.16037286818027496 0.11718127131462097 0.6088516116142273
0.23126059770584106 0.25536370277404785 0.6045666933059692
0.23446905612945557 0.12742483615875244 0.4745185077190399
0.18341898918151855 0.14925965666770935 0.589274525642395
0.24186493456363678 0.14718343317508698 0.5306746959686279
0.29957011342048645 0.29585784673690796 0.5202218890190125
0.14058130979537964 0.1942865401506424 0.6343165636062622
0.31881800293922424 0.15814535319805145 0.5120061635971069
0.2899889647960663 0.24975277483463287 0.5404440760612488
0.18633106350898743 0.12747077643871307 0.5166110992431641
0.13425172865390778 0.19864077866077423 0.6278667449951172
0.2546999156475067 0.2057432383298874 0.5474687814712524
0.22263477742671967 0.18768292665481567 0.5815774202346802
0.17977358400821686 0.20800712704658508 0.5772740840911865
0.22172798216342926 0.18313373625278473 0.554232656955719
0.24701450765132904 0.1467849463224411 0.6168340444564819
0.2540483772754669 0.2625841200351715 0.4601481258869171
0.3074527382850647 0.2436697781085968 0.6424787044525146
0.26336321234703064 0.22159898281097412 0.6248180866241455
0.2591598927974701 0.12467464804649353 0.5058963894844055
0.26726579666137695 0.27209731936454773 0.6223485469818115
0.18140552937984467 0.25557583570480347 0.5411368012428284
0.1757650226354599 0.26547545194625854 0.4849291443824768
0.23092803359031677 0.3054870367050171 0.5109049677848816
0.13896626234054565 0.3086211681365967 0.5432767271995544
0.2871096432209015 0.27759310603141785 0.5455034375190735
0.3081890642642975 0.14482486248016357 0.5906591415405273
0.26476532220840454 0.15979748964309692 0.5029837489128113
0.2734944820404053 0.25559675693511963 0.5021185874938965
0.17123471200466156 0.13940109312534332 0.5720109343528748
0.2504761517047882 0.15056496858596802 0.4506531357765198
0.2568049132823944 0.22253012657165527 0.5270559787750244
0.2764364778995514 0.2000131458044052 0.49840986728668213
0.22468842566013336 0.2601291537284851 0.6171960234642029
0.26269903779029846 0.11948978900909424 0.4804590940475464
0.12097474187612534 0.13430148363113403 0.637640118598938
0.1551835983991623 0.12365993857383728 0.5638853311538696
0.28440552949905396 0.13214638829231262 0.613844633102417
0.22058816254138947 0.2980278432369232 0.5426236987113953
0.26581063866615295 0.2734012007713318 0.5653209090232849
