ply
format ascii 1.0
element vertex 822
property float x
property float y
property float z
end_header
0.23342491686344147 0.2067209929227829 0.6231353878974915
0.1901373565196991 0.3266999125480652 0.4683624804019928
0.277810662984848 0.1480497568845749 0.5430072546005249
0.19860631227493286 0.2125130593776703 0.5731202363967896
0.22151866555213928 0.2737257480621338 0.545100748538971
0.2564370334148407 0.14717553555965424 0.478203684091568
0.16033366322517395 0.29539889097213745 0.5140172243118286
0.16914966702461243 0.23859669268131256 0.6354867815971375
0.14569802582263947 0.21754232048988342 0.47788405418395996
0.12526214122772217 0.17993542551994324 0.6296882033348083
0.33724111318588257 0.25581875443458557 0.539661169052124
0.31152188777923584 0.1569608449935913 0.5943399667739868
0.18277420103549957 0.30368897318840027 0.4673132002353668
0.1551159918308258 0.17500008642673492 0.4536118507385254
0.2952169179916382 0.1679888814687729 0.5438825488090515
0.20946267247200012 0.1698618084192276 0.5167521238327026
0.22071035206317902 0.2734643816947937 0.4742467701435089
0.18775597214698792 0.2989143431186676 0.4835817515850067
0.15620489418506622 0.288799911737442 0.5610710382461548
0.17296768724918365 0.1750548779964447 0.5265133380889893
0.1572386920452118 0.20154380798339844 0.5028560757637024
0.1606106013059616 0.13530483841896057 0.6119413375854492
0.22268950939178467 0.2525351047515869 0.5617024302482605
0.3251081705093384 0.18152867257595062 0.5002806782722473
0.1591905951499939 0.28173398971557617 0.5797669291496277
0.22151866555213928 0.2737257480621338 0.545100748538971
0.24908535182476044 0.14765524864196777 0.536253809928894
0.1570560336112976 0.1808832287788391 0.6188173890113831
0.24052736163139343 0.1876382976770401 0.5513408184051514
0.3100411295890808 0.26438409090042114 0.6010782122612
0.15644225478172302 0.15917375683784485 0.45752114057540894
0.15020380914211273 0.27923068404197693 0.4995695650577545
0.3026159405708313 0.1536562442779541 0.592629075050354
0.2845592200756073 0.11412550508975983 0.5692692995071411
0.19718825817108154 0.12333158403635025 0.5188361406326294
0.1984790712594986 0.2889550030231476 0.6449195742607117
0.23009255528450012 0.1252191960811615 0.5251848101615906
0.22197814285755157 0.216867133975029 0.6024506092071533
0.14439712464809418 0.17741398513317108 0.4625045955181122
0.19640913605690002 0.24429813027381897 0.6295765042304993
0.17857351899147034 0.26127752661705017 0.5340370535850525
0.3042316734790802 0.2592809498310089 0.6077817678451538
0.2943975031375885 0.25594013929367065 0.5577690601348877
0.25001320242881775 0.20493599772453308 0.6155522465705872
0.23424918949604034 0.17922572791576385 0.5323326587677002
0.212325319647789 0.312290757894516 0.5214104056358337
0.15085740387439728 0.23163290321826935 0.484557181596756
0.14453431963920593 0.18762177228927612 0.5272348523139954
0.17795364558696747 0.13504473865032196 0.5931872725486755
0.2800273299217224 0.1322937309741974 0.4586840271949768
0.2799125611782074 0.17239893972873688 0.6159356236457825
0.23058287799358368 0.1318407505750656 0.5815402865409851
0.15747205913066864 0.3246127665042877 0.4621220827102661
0.1709759384393692 0.2665807604789734 0.5779844522476196
0.18662984669208527 0.18651419878005981 0.5137699246406555
0.32259467244148254 0.21464791893959045 0.46086356043815613
0.2756764590740204 0.1954525113105774 0.5380389094352722
0.2956788241863251 0.22240795195102692 0.6515823006629944
0.23164592683315277 0.2756118178367615 0.4692012667655945
0.14672672748565674 0.26532742381095886 0.4836585819721222
0.15181002020835876 0.14865991473197937 0.4709601402282715
0.20906305313110352 0.13651224970817566 0.5375733375549316
0.2562459409236908 0.2066717892885208 0.6220430135726929
0.3077196776866913 0.2435871809720993 0.48246580362319946
0.23040321469306946 0.24155321717262268 0.5511478185653687
0.1637481153011322 0.3032424747943878 0.5299244523048401
0.2938513159751892 0.11523322016000748 0.49577927589416504
0.3145633041858673 0.17344947159290314 0.5792282223701477
0.34217891097068787 0.2546933889389038 0.5433687567710876
0.1609964370727539 0.27950504422187805 0.4741992950439453
0.1896079182624817 0.2608133554458618 0.4817432761192322
0.30790984630584717 0.20471520721912384 0.5151047110557556
0.29458215832710266 0.20581179857254028 0.5893623232841492
0.16001944243907928 0.2855985164642334 0.47211822867393494
0.25548645853996277 0.26862552762031555 0.5592537522315979
0.19418463110923767 0.2860412001609802 0.5741574764251709
0.17401748895645142 0.22629214823246002 0.5403662323951721
0.3160193860530853 0.11420264840126038 0.5785191059112549
0.2805992662906647 0.303693562746048 0.5213158130645752
0.2756701707839966 0.20280414819717407 0.5139573216438293
0.1796966791152954 0.23931638896465302 0.6380565166473389
0.25327494740486145 0.23563088476657867 0.5816525220870972
0.16900500655174255 0.1970120370388031 0.5990239381790161
0.26507803797721863 0.2287103682756424 0.48339518904685974
0.17795364558696747 0.13504473865032196 0.5931872725486755
0.2800273299217224 0.1322937309741974 0.4586840271949768
0.18112415075302124 0.2319006770849228 0.5614505410194397
0.17265503108501434 0.2786621153354645 0.45790788531303406
0.1967199742794037 0.12710924446582794 0.5300743579864502
0.319726824760437 0.13564667105674744 0.483419269323349
0.19450028240680695 0.12054087221622467 0.5449414253234863
0.2600409686565399 0.29070013761520386 0.535359799861908
0.3035474717617035 0.2773468494415283 0.5627706050872803
0.15262185037136078 0.16344165802001953 0.5612390637397766
0.1808091700077057 0.21449171006679535 0.5573099851608276
0.1597263365983963 0.24966765940189362 0.5158944129943848
0.2432117462158203 0.22614255547523499 0.5744513273239136
0.25726577639579773 0.2458280324935913 0.6488429307937622
0.19668301939964294 0.14457570016384125 0.5799553990364075
0.17332889139652252 0.23523445427417755 0.47663938999176025
0.3049633204936981 0.1849246323108673 0.49116986989974976
0.2181042730808258 0.2622637152671814 0.6513165235519409
0.1775842159986496 0.24311932921409607 0.5044196248054504
0.2763858437538147 0.19778874516487122 0.4644622206687927
0.27734869718551636 0.15015965700149536 0.4615481495857239
0.27989739179611206 0.2860572040081024 0.5692793130874634
0.17925012111663818 0.17163757979869843 0.6381305456161499
0.13275621831417084 0.18920853734016418 0.5205593705177307
0.1656583845615387 0.19538173079490662 0.4538573622703552
0.1639212816953659 0.27960383892059326 0.49669092893600464
0.32255834341049194 0.15363706648349762 0.4676368534564972
0.21233680844306946 0.22602201998233795 0.5358293652534485
0.2118731588125229 0.13608819246292114 0.5548991560935974
0.15244725346565247 0.18832378089427948 0.6254303455352783
0.3008684515953064 0.13070344924926758 0.5602192282676697
0.2099374532699585 0.30443474650382996 0.5920699834823608
0.2075326293706894 0.16981804370880127 0.5049157738685608
0.31471309065818787 0.1556420475244522 0.6481502056121826
0.23711448907852173 0.11318489164113998 0.6394335031509399
0.1901373565196991 0.3266999125480652 0.4683624804019928
0.277810662984848 0.1480497568845749 0.5430072546005249
0.19860631227493286 0.2125130593776703 0.5731202363967896
0.3037373721599579 0.26588472723960876 0.46923381090164185
0.27367714047431946 0.16321587562561035 0.5187696218490601
0.23422954976558685 0.25834086537361145 0.48956742882728577
0.16914966702461243 0.23859669268131256 0.6354867815971375
0.15935152769088745 0.18448631465435028 0.44662052392959595
0.16755835711956024 0.20519033074378967 0.48073965311050415
0.17435847222805023 0.2895609140396118 0.4916078746318817
0.24544543027877808 0.2640880048274994 0.5258051156997681
0.21845437586307526 0.13867343962192535 0.5516260266304016
0.2874128222465515 0.19412125647068024 0.552737832069397
0.23465396463871002 0.12575900554656982 0.5821599960327148
0.21611379086971283 0.23603439331054688 0.47295787930488586
0.1840253621339798 0.16584739089012146 0.568712055683136
0.1830195039510727 0.15691830217838287 0.6006497740745544
0.2631908655166626 0.17514416575431824 0.6282368302345276
0.2999611794948578 0.25861337780952454 0.5544849634170532
0.20398291945457458 0.19752657413482666 0.5309172868728638
0.3252830505371094 0.22116290032863617 0.5256568789482117
0.275953084230423 0.14322884380817413 0.46547555923461914
0.17521122097969055 0.32534995675086975 0.4970351755619049
0.3157075047492981 0.2867441773414612 0.5073357224464417
0.1924254596233368 0.24874505400657654 0.5846318006515503
0.21756401658058167 0.2543424665927887 0.4565276801586151
0.23691372573375702 0.22523455321788788 0.4834297001361847
0.2468271553516388 0.1162995994091034 0.5762858390808105
0.26407676935195923 0.2957795560359955 0.5803515911102295
0.30932292342185974 0.12080445885658264 0.46680596470832825
0.2432987242937088 0.2859260141849518 0.472834974527359
0.13990147411823273 0.16054509580135345 0.5185810327529907
0.15726356208324432 0.14295659959316254 0.48227348923683167
0.3016349971294403 0.2391333431005478 0.49415600299835205
0.2828807830810547 0.2771803140640259 0.46837055683135986
0.18871115148067474 0.25547030568122864 0.5444533228874207
0.1978578418493271 0.26165714859962463 0.6403597593307495
0.19020968675613403 0.17041683197021484 0.4731403887271881
0.23566612601280212 0.2742215096950531 0.5364221930503845
0.19224537909030914 0.16293737292289734 0.582490086555481
0.3293875455856323 0.25043943524360657 0.6497019529342651
0.25999951362609863 0.12011309713125229 0.5121830701828003
0.20973989367485046 0.2581154704093933 0.5296937227249146
0.3173300623893738 0.129330113530159 0.5461645722389221
0.30363795161247253 0.1840331107378006 0.5616924166679382
0.28258684277534485 0.21335545182228088 0.6280644536018372
0.21422161161899567 0.2607307732105255 0.6474073529243469
0.17432068288326263 0.2791523337364197 0.5959417819976807
0.2516264021396637 0.2701813578605652 0.5770165920257568
0.16112172603607178 0.16743451356887817 0.555995762348175
0.19389022886753082 0.27806127071380615 0.645807147026062
0.2598273456096649 0.19232632219791412 0.5914168953895569
0.16772054135799408 0.3012641966342926 0.6360078454017639
0.18948589265346527 0.2648460865020752 0.4874365031719208
0.18776823580265045 0.13367688655853271 0.6192609667778015
0.1392490714788437 0.14969949424266815 0.6106897592544556
0.2018360197544098 0.23934900760650635 0.6181507706642151
0.34077581763267517 0.25342869758605957 0.5191559195518494
0.21125958859920502 0.15359282493591309 0.5048491954803467
0.23261865973472595 0.1843729466199875 0.5879935622215271
0.20950177311897278 0.27235305309295654 0.6322593688964844
0.15319307148456573 0.29866039752960205 0.5387238264083862
0.25733694434165955 0.2553310990333557 0.4901352822780609
0.1773989498615265 0.1448332518339157 0.44268378615379333
0.18910735845565796 0.20503409206867218 0.5263359546661377
0.19951608777046204 0.20611561834812164 0.5147576928138733
0.3003230392932892 0.29465991258621216 0.5676473379135132
0.2634490132331848 0.15678229928016663 0.6393857002258301
0.24223579466342926 0.1809636950492859 0.6197660565376282
0.17084170877933502 0.2424389272928238 0.4673449993133545
0.21756401658058167 0.2543424665927887 0.4565276801586151
0.23691372573375702 0.22523455321788788 0.4834297001361847
0.2468271553516388 0.1162995994091034 0.5762858390808105
0.26407676935195923 0.2957795560359955 0.5803515911102295
0.30932292342185974 0.12080445885658264 0.46680596470832825
0.20683608949184418 0.3013690114021301 0.48600736260414124
0.13990147411823273 0.16054509580135345 0.5185810327529907
0.15726356208324432 0.14295659959316254 0.48227348923683167
0.3016349971294403 0.2391333431005478 0.49415600299835205
0.2828807830810547 0.2771803140640259 0.46837055683135986
0.18871115148067474 0.25547030568122864 0.5444533228874207
0.1978578418493271 0.26165714859962463 0.6403597593307495
0.19020968675613403 0.17041683197021484 0.4731403887271881
0.23566612601280212 0.2742215096950531 0.5364221930503845
0.19224537909030914 0.16293737292289734 0.582490086555481
0.3293875455856323 0.25043943524360657 0.6497019529342651
0.25999951362609863 0.12011309713125229 0.5121830701828003
0.20973989367485046 0.2581154704093933 0.5296937227249146
0.20073208212852478 0.2161104381084442 0.6360695958137512
0.1709759384393692 0.2665807604789734 0.5779844522476196
0.18662984669208527 0.18651419878005981 0.5137699246406555
0.15313903987407684 0.1722477525472641 0.6330395340919495
0.3164502680301666 0.21786941587924957 0.47363173961639404
0.28631630539894104 0.2099657505750656 0.46444717049598694
0.29018262028694153 0.20064383745193481 0.6307328939437866
0.2446516901254654 0.22493669390678406 0.5564694404602051
0.16524852812290192 0.13679058849811554 0.5006858110427856
0.24317389726638794 0.21176166832447052 0.627875566482544
0.17799341678619385 0.1682211309671402 0.5697763562202454
0.2634376585483551 0.19355930387973785 0.5206713676452637
0.1671789139509201 0.16626456379890442 0.5174180269241333
0.15483376383781433 0.15629148483276367 0.5904747843742371
0.1864764541387558 0.13687092065811157 0.6033190488815308
0.16281868517398834 0.25523555278778076 0.6365475058555603
0.295148104429245 0.15141092240810394 0.5659765005111694
0.15426525473594666 0.28459128737449646 0.5711057782173157
0.15725693106651306 0.16110028326511383 0.5912843346595764
0.25936904549598694 0.12417503446340561 0.4628705382347107
0.248517245054245 0.2709672451019287 0.5147693753242493
0.2522692084312439 0.2573346197605133 0.5969759225845337
0.17972508072853088 0.24512508511543274 0.624413251876831
0.16772161424160004 0.31553369760513306 0.5550267100334167
0.32457491755485535 0.17146283388137817 0.6061094403266907
0.1840253621339798 0.16584739089012146 0.568712055683136
0.1830195039510727 0.15691830217838287 0.6006497740745544
0.2631908655166626 0.17514416575431824 0.6282368302345276
0.2999611794948578 0.25861337780952454 0.5544849634170532
0.20398291945457458 0.19752657413482666 0.5309172868728638
0.3252830505371094 0.22116290032863617 0.5256568789482117
0.275953084230423 0.14322884380817413 0.46547555923461914
0.3236616253852844 0.2051142007112503 0.6161582469940186
0.1796966791152954 0.23931638896465302 0.6380565166473389
0.25327494740486145 0.23563088476657867 0.5816525220870972
0.16900500655174255 0.1970120370388031 0.5990239381790161
0.26507803797721863 0.2287103682756424 0.48339518904685974
0.17795364558696747 0.13504473865032196 0.5931872725486755
0.2800273299217224 0.1322937309741974 0.4586840271949768
0.14488157629966736 0.23741959035396576 0.560356855392456
0.2420022338628769 0.18083849549293518 0.582535445690155
0.25006282329559326 0.12020489573478699 0.4725034236907959
0.17252995073795319 0.18855613470077515 0.5672010779380798
0.3218194246292114 0.26451724767684937 0.48197561502456665
0.2018301784992218 0.18318182229995728 0.48683473467826843
0.2771485447883606 0.18478578329086304 0.5284746885299683
0.20361217856407166 0.13755860924720764 0.5713183283805847
0.21825739741325378 0.2803557813167572 0.5691604018211365
0.2690373659133911 0.22522424161434174 0.45290663838386536
0.18507736921310425 0.18252341449260712 0.6271272897720337
0.19608470797538757 0.13151881098747253 0.5159037113189697
0.3025427758693695 0.20338158309459686 0.495654433965683
0.18015794456005096 0.16252370178699493 0.5499365329742432
0.3090962767601013 0.13009192049503326 0.5792914032936096
0.31923431158065796 0.2693556249141693 0.6034342646598816
0.19668301939964294 0.14457570016384125 0.5799553990364075
0.17332889139652252 0.23523445427417755 0.47663938999176025
0.3049633204936981 0.1849246323108673 0.49116986989974976
0.2181042730808258 0.2622637152671814 0.6513165235519409
0.1775842159986496 0.24311932921409607 0.5044196248054504
0.2763858437538147 0.19778874516487122 0.4644622206687927
0.27734869718551636 0.15015965700149536 0.4615481495857239
0.27989739179611206 0.2860572040081024 0.5692793130874634
0.17925012111663818 0.17163757979869843 0.6381305456161499
0.2236964851617813 0.2084071785211563 0.5856188535690308
0.15527655184268951 0.17801159620285034 0.5442508459091187
0.22712565958499908 0.17021916806697845 0.46346256136894226
0.2070050984621048 0.17087700963020325 0.5541412234306335
0.18554829061031342 0.26996910572052 0.5525153279304504
0.25864797830581665 0.15466295182704926 0.5978122353553772
0.13748419284820557 0.1263875514268875 0.5189812183380127
0.14112384617328644 0.24017873406410217 0.5243053436279297
0.27165570855140686 0.1670183539390564 0.572799026966095
0.22262832522392273 0.11972875893115997 0.5729883909225464
0.15877379477024078 0.3156873285770416 0.470706582069397
0.19910100102424622 0.22994005680084229 0.4878864586353302
0.2085854411125183 0.21987122297286987 0.4843849241733551
0.19335997104644775 0.13550248742103577 0.5190883278846741
0.3392510414123535 0.28506550192832947 0.5113524794578552
0.3284026086330414 0.18015331029891968 0.5250314474105835
0.1777086704969406 0.19013048708438873 0.521783709526062
0.13369667530059814 0.2106141448020935 0.4955619275569916
0.15733030438423157 0.1498190313577652 0.5638332962989807
0.17081183195114136 0.24603833258152008 0.5324641466140747
0.27701500058174133 0.16092385351657867 0.4502343237400055
0.2545550763607025 0.1135530099272728 0.6072658896446228
0.16592556238174438 0.32127198576927185 0.5700830221176147
0.1756536215543747 0.20208314061164856 0.5440881252288818
0.2238401174545288 0.2813724875450134 0.4646070599555969
0.24181509017944336 0.2966008484363556 0.5112401843070984
0.19117683172225952 0.28965792059898376 0.6105758547782898
0.17564533650875092 0.14819467067718506 0.4559374451637268
0.16146427392959595 0.16991746425628662 0.6277808547019958
0.3476548194885254 0.2681838572025299 0.48173195123672485
0.32188987731933594 0.29730653762817383 0.49877452850341797
0.14452002942562103 0.18941548466682434 0.6232417821884155
0.23680785298347473 0.11434990912675858 0.6405932307243347
0.2468271553516388 0.1162995994091034 0.5762858390808105
0.26407676935195923 0.2957795560359955 0.5803515911102295
0.30932292342185974 0.12080445885658264 0.46680596470832825
0.2432987242937088 0.2859260141849518 0.472834974527359
0.13990147411823273 0.16054509580135345 0.5185810327529907
0.15726356208324432 0.14295659959316254 0.48227348923683167
0.3016349971294403 0.2391333431005478 0.49415600299835205
0.2828807830810547 0.2771803140640259 0.46837055683135986
0.18871115148067474 0.25547030568122864 0.5444533228874207
0.1978578418493271 0.26165714859962463 0.6403597593307495
0.19020968675613403 0.17041683197021484 0.4731403887271881
0.19020968675613403 0.17041683197021484 0.4731403887271881
0.23566612601280212 0.2742215096950531 0.5364221930503845
0.19224537909030914 0.16293737292289734 0.582490086555481
0.3293875455856323 0.25043943524360657 0.6497019529342651
0.25999951362609863 0.12011309713125229 0.5121830701828003
0.20973989367485046 0.2581154704093933 0.5296937227249146
0.3173300623893738 0.129330113530159 0.5461645722389221
0.30363795161247253 0.1840331107378006 0.5616924166679382
0.28258684277534485 0.21335545182228088 0.6280644536018372
0.14464238286018372 0.24390341341495514 0.6203130483627319
0.1924373209476471 0.2470981776714325 0.6282853484153748
0.21422161161899567 0.2607307732105255 0.6474073529243469
0.17432068288326263 0.2791523337364197 0.5959417819976807
0.2516264021396637 0.2701813578605652 0.5770165920257568
0.16112172603607178 0.16743451356887817 0.555995762348175
0.19389022886753082 0.27806127071380615 0.645807147026062
0.2598273456096649 0.19232632219791412 0.5914168953895569
0.16772054135799408 0.3012641966342926 0.6360078454017639
0.2971982955932617 0.13195407390594482 0.44400855898857117
0.27180829644203186 0.14725656807422638 0.5801824927330017
0.22204707562923431 0.1491222381591797 0.5149064660072327
0.2598273456096649 0.19232632219791412 0.5914168953895569
0.16772054135799408 0.3012641966342926 0.6360078454017639
0.2971982955932617 0.13195407390594482 0.44400855898857117
0.27180829644203186 0.14725656807422638 0.5801824927330017
0.2996785342693329 0.15400010347366333 0.5209025144577026
0.1796966791152954 0.23931638896465302 0.6380565166473389
0.25327494740486145 0.23563088476657867 0.5816525220870972
0.16900500655174255 0.1970120370388031 0.5990239381790161
0.26507803797721863 0.2287103682756424 0.48339518904685974
0.17795364558696747 0.13504473865032196 0.5931872725486755
0.2800273299217224 0.1322937309741974 0.4586840271949768
0.2799125611782074 0.17239893972873688 0.6159356236457825
0.23058287799358368 0.1318407505750656 0.5815402865409851
0.15747205913066864 0.3246127665042877 0.4621220827102661
0.1709759384393692 0.2665807604789734 0.5779844522476196
0.18662984669208527 0.18651419878005981 0.5137699246406555
0.32259467244148254 0.21464791893959045 0.46086356043815613
0.2756764590740204 0.1954525113105774 0.5380389094352722
0.2956788241863251 0.22240795195102692 0.6515823006629944
0.23164592683315277 0.2756118178367615 0.4692012667655945
0.14672672748565674 0.26532742381095886 0.4836585819721222
0.18550217151641846 0.19480688869953156 0.5265862941741943
0.2931169271469116 0.14214329421520233 0.4641322195529938
0.1686038374900818 0.20017671585083008 0.4562356173992157
0.16941143572330475 0.2950701117515564 0.554262638092041
0.2311936765909195 0.12971347570419312 0.5685497522354126
0.17371071875095367 0.1945616453886032 0.46086224913597107
0.19667866826057434 0.2571399211883545 0.5260509848594666
0.2221645563840866 0.23487983644008636 0.5806995630264282
0.29896077513694763 0.2343837022781372 0.4757697284221649
0.1774265468120575 0.24513836205005646 0.5487377047538757
0.27180829644203186 0.14725656807422638 0.5801824927330017
0.25327494740486145 0.23563088476657867 0.5816525220870972
0.16900500655174255 0.1970120370388031 0.5990239381790161
0.26507803797721863 0.2287103682756424 0.48339518904685974
0.17795364558696747 0.13504473865032196 0.5931872725486755
0.2800273299217224 0.1322937309741974 0.4586840271949768
0.2799125611782074 0.17239893972873688 0.6159356236457825
0.21175098419189453 0.2557944357395172 0.5276364684104919
0.2660522162914276 0.13898633420467377 0.48253342509269714
0.33015865087509155 0.27597469091415405 0.5988104939460754
0.30326029658317566 0.1396510899066925 0.47204074263572693
0.23113030195236206 0.12182052433490753 0.5718241930007935
0.32018905878067017 0.2687411308288574 0.564156174659729
0.23192423582077026 0.14621824026107788 0.6144008636474609
0.3144197165966034 0.2835710346698761 0.5759305357933044
0.279329776763916 0.24225324392318726 0.5352978706359863
0.29765069484710693 0.14091593027114868 0.46532443165779114
0.2483040690422058 0.12716086208820343 0.526658833026886
0.14311392605304718 0.15808546543121338 0.5625280737876892
0.20321549475193024 0.26809126138687134 0.46240317821502686
0.20577287673950195 0.2784951627254486 0.5628025531768799
0.16939909756183624 0.2197815477848053 0.5678862929344177
0.29220694303512573 0.2634052038192749 0.5164793729782104
0.20042912662029266 0.19509592652320862 0.5885761976242065
0.2661544680595398 0.2656114399433136 0.5634828209877014
0.26358500123023987 0.16337831318378448 0.48554879426956177
0.1714886724948883 0.1398857831954956 0.6288235187530518
0.18935340642929077 0.17484696209430695 0.4914650619029999
0.3061220049858093 0.1329672783613205 0.48881006240844727
0.26659706234931946 0.27328401803970337 0.5900861620903015
0.29659926891326904 0.2695986032485962 0.6141824126243591
0.29892855882644653 0.18088968098163605 0.45147180557250977
0.2996785342693329 0.15400010347366333 0.5209025144577026
0.1796966791152954 0.23931638896465302 0.6380565166473389
0.25327494740486145 0.23563088476657867 0.5816525220870972
0.16900500655174255 0.1970120370388031 0.5990239381790161
0.26507803797721863 0.2287103682756424 0.48339518904685974
0.17795364558696747 0.13504473865032196 0.5931872725486755
0.15527655184268951 0.17801159620285034 0.5442508459091187
0.34357669949531555 0.2650996446609497 0.46050482988357544
0.19989587366580963 0.1795777827501297 0.5595020651817322
0.3059442937374115 0.17844685912132263 0.5447396636009216
0.17074696719646454 0.17616236209869385 0.5783492922782898
0.17839083075523376 0.15161743760108948 0.5966770052909851
0.17160780727863312 0.26116442680358887 0.5529947280883789
0.27798643708229065 0.14130158722400665 0.6444212198257446
0.22500981390476227 0.24666719138622284 0.522752583026886
0.19704453647136688 0.21525201201438904 0.48305174708366394
0.2618354856967926 0.23043259978294373 0.5567100644111633
0.22383669018745422 0.19209617376327515 0.4520339071750641
0.3196569085121155 0.16757617890834808 0.505445659160614
0.15740901231765747 0.14387072622776031 0.4474993646144867
0.18609724938869476 0.20594072341918945 0.5306850671768188
0.2998182773590088 0.24724875390529633 0.5339928865432739
0.31104576587677 0.28867846727371216 0.5394212603569031
0.25735872983932495 0.2318338006734848 0.5434998869895935
0.27799808979034424 0.23469741642475128 0.5673646926879883
0.29804643988609314 0.2012084275484085 0.508678674697876
0.2575376331806183 0.13162769377231598 0.6228802800178528
0.20679250359535217 0.1397283524274826 0.5566741228103638
0.17564533650875092 0.14819467067718506 0.4559374451637268
0.2968119978904724 0.2391241490840912 0.6296975612640381
0.31919971108436584 0.28372204303741455 0.509431004524231
0.13273516297340393 0.18283884227275848 0.5706501603126526
0.23342491686344147 0.2067209929227829 0.6231353878974915
0.23422954976558685 0.25834086537361145 0.48956742882728577
0.16914966702461243 0.23859669268131256 0.6354867815971375
0.15935152769088745 0.18448631465435028 0.44662052392959595
0.16755835711956024 0.20519033074378967 0.48073965311050415
0.17435847222805023 0.2895609140396118 0.4916078746318817
0.24544543027877808 0.2640880048274994 0.5258051156997681
0.21845437586307526 0.13867343962192535 0.5516260266304016
0.2874128222465515 0.19412125647068024 0.552737832069397
0.18277420103549957 0.30368897318840027 0.4673132002353668
0.2777080535888672 0.24782738089561462 0.5600757598876953
0.19936040043830872 0.2795504629611969 0.6329447627067566
0.17302465438842773 0.1756501942873001 0.4873586893081665
0.2546728253364563 0.1481499820947647 0.4881942868232727
0.3400593101978302 0.28763261437416077 0.5164127349853516
0.20620007812976837 0.23075303435325623 0.5463737845420837
0.2490508258342743 0.22641664743423462 0.6093608140945435
0.17564533650875092 0.14819467067718506 0.4559374451637268
0.16146427392959595 0.16991746425628662 0.6277808547019958
0.3476548194885254 0.2681838572025299 0.48173195123672485
0.15106554329395294 0.1704723834991455 0.4481157660484314
0.14412103593349457 0.13864289224147797 0.6132911443710327
0.26631197333335876 0.27004221081733704 0.5273741483688354
0.24426119029521942 0.16157272458076477 0.6420759558677673
0.18470732867717743 0.20726966857910156 0.5586151480674744
0.21986886858940125 0.14358821511268616 0.5269703269004822
0.2125624567270279 0.2597031891345978 0.45839744806289673
0.29717808961868286 0.16843469440937042 0.48886799812316895
0.3398331105709076 0.25961172580718994 0.5283761620521545
0.2100658416748047 0.25107574462890625 0.464080274105072
0.21832624077796936 0.15121077001094818 0.5160962343215942
0.29974058270454407 0.20971491932868958 0.5834059715270996
0.1619781255722046 0.14963290095329285 0.4488880932331085
0.28706181049346924 0.2540397644042969 0.5195645689964294
0.21586234867572784 0.2221551388502121 0.503474235534668
0.3048733174800873 0.2617662250995636 0.5025961995124817
0.2713407278060913 0.252638041973114 0.4883292615413666
0.2896031439304352 0.231906920671463 0.49245700240135193
0.13224323093891144 0.1582833081483841 0.47938093543052673
0.21981996297836304 0.136077880859375 0.5215101838111877
0.15001419186592102 0.14381398260593414 0.5196232795715332
0.29754093289375305 0.11199032515287399 0.5573192238807678
0.1956775039434433 0.18347439169883728 0.5750670433044434
0.1622917652130127 0.1431524157524109 0.4652527868747711
0.17346526682376862 0.25736671686172485 0.5962036848068237
0.2367299646139145 0.3134346902370453 0.48696473240852356
0.3059709370136261 0.2752721309661865 0.6128920912742615
0.21558986604213715 0.23927563428878784 0.541606068611145
0.32478177547454834 0.15706409513950348 0.48438188433647156
0.2156786173582077 0.14784857630729675 0.5074634552001953
0.29974058270454407 0.20971491932868958 0.5834059715270996
0.22488510608673096 0.2881503403186798 0.6244427561759949
0.18467757105827332 0.13551826775074005 0.4829941689968109
0.2649036645889282 0.22993962466716766 0.5347887873649597
0.2310333251953125 0.2551170885562897 0.5908323526382446
0.22925953567028046 0.21569490432739258 0.5300583839416504
0.28550830483436584 0.2855197489261627 0.5059276223182678
0.2485456019639969 0.1426515281200409 0.47708848118782043
0.17656834423542023 0.12550222873687744 0.5921657085418701
0.13500860333442688 0.23187214136123657 0.6395518183708191
0.2071133852005005 0.19558966159820557 0.5836655497550964
0.19802212715148926 0.30551856756210327 0.6072273850440979
0.14448507130146027 0.23528259992599487 0.6264918446540833
0.26089805364608765 0.17642167210578918 0.5381556749343872
0.19118979573249817 0.23785284161567688 0.5264905691146851
0.2778690457344055 0.24486373364925385 0.5120930075645447
0.3312514126300812 0.2817036807537079 0.6611678600311279
0.17521122097969055 0.32534995675086975 0.4970351755619049
0.3157075047492981 0.2867441773414612 0.5073357224464417
0.34015601873397827 0.2824220061302185 0.5077021718025208
0.24904419481754303 0.21686951816082 0.5734781622886658
0.17034485936164856 0.2738986909389496 0.5079500675201416
0.16384369134902954 0.2940683960914612 0.4797990322113037
0.23645009100437164 0.1643800586462021 0.6370767951011658
0.21665817499160767 0.2982501983642578 0.4969979524612427
0.25962498784065247 0.120428167283535 0.6319018602371216
0.19966264069080353 0.1745309680700302 0.48083800077438354
0.16972553730010986 0.12810489535331726 0.6015617847442627
0.3262065649032593 0.2834562063217163 0.541828453540802
0.12875966727733612 0.1486615091562271 0.4883512258529663
0.20544371008872986 0.19537648558616638 0.5671037435531616
0.2179172784090042 0.2368726283311844 0.5563451647758484
0.33099016547203064 0.21329738199710846 0.4919498860836029
0.18680180609226227 0.28997400403022766 0.490259051322937
0.21158166229724884 0.3000596761703491 0.5840911865234375
0.2856896221637726 0.2484007626771927 0.5139897465705872
0.280077189207077 0.22596141695976257 0.546143651008606
0.211748868227005 0.21509552001953125 0.4566788077354431
0.15974067151546478 0.1691748946905136 0.5494656562805176
0.22242024540901184 0.19888991117477417 0.6176544427871704
0.24623806774616241 0.20262949168682098 0.5652725696563721
0.12578719854354858 0.18361365795135498 0.5824704170227051
0.15063190460205078 0.2849021852016449 0.492696613073349
0.2114831656217575 0.21324972808361053 0.6369919180870056
0.15201477706432343 0.2048918753862381 0.5180991888046265
0.15827716886997223 0.28130966424942017 0.592998206615448
0.3157075047492981 0.2867441773414612 0.5073357224464417
0.18338415026664734 0.19267010688781738 0.5568100214004517
0.16809436678886414 0.1732218712568283 0.4913255274295807
0.2901856303215027 0.24993014335632324 0.5023523569107056
0.19011543691158295 0.12509971857070923 0.5157879590988159
0.22330988943576813 0.15728145837783813 0.5573111176490784
0.2965787947177887 0.19814905524253845 0.6213417649269104
0.25058621168136597 0.2772473692893982 0.6186120510101318
0.24670258164405823 0.22029869258403778 0.5239207148551941
0.20531250536441803 0.25373098254203796 0.47027432918548584
0.3016296625137329 0.2769726514816284 0.6409509181976318
0.32387271523475647 0.15815451741218567 0.5341393351554871
0.24315956234931946 0.13705241680145264 0.47018179297447205
0.1423604041337967 0.14439623057842255 0.4595136344432831
0.30800873041152954 0.23312260210514069 0.5315561890602112
0.32242611050605774 0.23498539626598358 0.5753482580184937
0.2433810532093048 0.30038097500801086 0.49957945942878723
0.2973734140396118 0.13296885788440704 0.47581014037132263
0.18467757105827332 0.13551826775074005 0.4829941689968109
0.15827716886997223 0.28130966424942017 0.592998206615448
0.22925953567028046 0.21569490432739258 0.5300583839416504
0.28550830483436584 0.2855197489261627 0.5059276223182678
0.2485456019639969 0.1426515281200409 0.47708848118782043
0.17656834423542023 0.12550222873687744 0.5921657085418701
0.20449069142341614 0.15905407071113586 0.5936573147773743
0.22736211121082306 0.26754701137542725 0.46166232228279114
0.24330194294452667 0.16685231029987335 0.5856672525405884
0.24202501773834229 0.125137597322464 0.5646918416023254
0.15732166171073914 0.23996329307556152 0.5617502331733704
0.3455142080783844 0.28869950771331787 0.4718168079853058
0.2856569290161133 0.22842486202716827 0.4604390859603882
0.17219001054763794 0.15918326377868652 0.4632037281990051
0.27824878692626953 0.1247805655002594 0.6003353595733643
0.16972553730010986 0.12810489535331726 0.6015617847442627
0.3262065649032593 0.2834562063217163 0.541828453540802
0.12875966727733612 0.1486615091562271 0.4883512258529663
0.20544371008872986 0.19537648558616638 0.5671037435531616
0.2179172784090042 0.2368726283311844 0.5563451647758484
0.33099016547203064 0.21329738199710846 0.4919498860836029
0.18680180609226227 0.28997400403022766 0.490259051322937
0.21158166229724884 0.3000596761703491 0.5840911865234375
0.2856896221637726 0.2484007626771927 0.5139897465705872
0.3235488831996918 0.26536378264427185 0.4866787791252136
0.31509944796562195 0.13253524899482727 0.5665006637573242
0.22742773592472076 0.18530766665935516 0.5491765141487122
0.30405092239379883 0.12726059556007385 0.6177987456321716
0.15612220764160156 0.1957361102104187 0.5414737462997437
0.20072829723358154 0.18915262818336487 0.5520769357681274
0.14020659029483795 0.23539496958255768 0.5446209907531738
0.29927945137023926 0.2091784030199051 0.4913419485092163
0.15877984464168549 0.23613137006759644 0.6280945539474487
0.27076098322868347 0.19513902068138123 0.46793168783187866
0.2285545915365219 0.24420158565044403 0.4938723146915436
0.19752605259418488 0.1304207295179367 0.5581802129745483
0.32500264048576355 0.25327980518341064 0.5242059826850891
0.25797757506370544 0.258215069770813 0.5057717561721802
0.2612988352775574 0.28062522411346436 0.5597297549247742
0.17911531031131744 0.30837762355804443 0.5576270222663879
0.2881457507610321 0.2330489307641983 0.5565775632858276
0.13802532851696014 0.22723837196826935 0.542676568031311
0.26863351464271545 0.14035508036613464 0.45021021366119385
0.274065762758255 0.14982903003692627 0.6146783828735352
0.12855392694473267 0.1826477348804474 0.5143898129463196
0.21707776188850403 0.30197155475616455 0.6418838500976562
0.3157075047492981 0.2867441773414612 0.5073357224464417
0.16972553730010986 0.12810489535331726 0.6015617847442627
0.3262065649032593 0.2834562063217163 0.541828453540802
0.12875966727733612 0.1486615091562271 0.4883512258529663
0.20544371008872986 0.19537648558616638 0.5671037435531616
0.2179172784090042 0.2368726283311844 0.5563451647758484
0.33099016547203064 0.21329738199710846 0.4919498860836029
0.18680180609226227 0.28997400403022766 0.490259051322937
0.21158166229724884 0.3000596761703491 0.5840911865234375
0.2856896221637726 0.2484007626771927 0.5139897465705872
0.280077189207077 0.22596141695976257 0.546143651008606
0.211748868227005 0.21509552001953125 0.4566788077354431
0.15974067151546478 0.1691748946905136 0.5494656562805176
0.22242024540901184 0.19888991117477417 0.6176544427871704
0.24623806774616241 0.20262949168682098 0.5652725696563721
0.12578719854354858 0.18361365795135498 0.5824704170227051
0.15063190460205078 0.2849021852016449 0.492696613073349
0.2114831656217575 0.21324972808361053 0.6369919180870056
0.15201477706432343 0.2048918753862381 0.5180991888046265
0.15827716886997223 0.28130966424942017 0.592998206615448
0.22925953567028046 0.21569490432739258 0.5300583839416504
0.28550830483436584 0.2855197489261627 0.5059276223182678
0.2485456019639969 0.1426515281200409 0.47708848118782043
0.17656834423542023 0.12550222873687744 0.5921657085418701
0.20449069142341614 0.15905407071113586 0.5936573147773743
0.22736211121082306 0.26754701137542725 0.46166232228279114
0.24330194294452667 0.16685231029987335 0.5856672525405884
0.3069670498371124 0.1749439388513565 0.6332194209098816
0.19974085688591003 0.28983908891677856 0.6156121492385864
0.25242525339126587 0.2618584632873535 0.5837493538856506
0.2280912846326828 0.1296505630016327 0.48382773995399475
0.15308181941509247 0.2911163568496704 0.5475229620933533
0.2700231671333313 0.169093519449234 0.6402460932731628
0.16972553730010986 0.12810489535331726 0.6015617847442627
0.19717220962047577 0.18783985078334808 0.544474720954895
0.1481156200170517 0.13141992688179016 0.45898520946502686
0.12846040725708008 0.15785318613052368 0.451075941324234
0.17403419315814972 0.1587199568748474 0.5803773403167725
0.1523035168647766 0.2802733778953552 0.6023367047309875
0.316575288772583 0.12908115983009338 0.6055697202682495
0.31805652379989624 0.12934044003486633 0.6025933623313904
0.3283690810203552 0.2584865987300873 0.4910699725151062
0.2258116602897644 0.23964931070804596 0.6481322646141052
0.15562722086906433 0.32083553075790405 0.4861645996570587
0.14958606660366058 0.15412196516990662 0.48142319917678833
0.2915065884590149 0.2159016877412796 0.4746795892715454
0.3013918697834015 0.17699676752090454 0.5331789255142212
0.19319000840187073 0.24516546726226807 0.5278397798538208
0.24938401579856873 0.12517762184143066 0.5594133138656616
0.3175097703933716 0.21188724040985107 0.5403299331665039
0.2707426846027374 0.14489808678627014 0.549949586391449
0.13500860333442688 0.23187214136123657 0.6395518183708191
0.1834508180618286 0.11965233087539673 0.5414959788322449
0.27216485142707825 0.3024827539920807 0.47763246297836304
0.20708100497722626 0.27081793546676636 0.4651089012622833
0.24122834205627441 0.12228334695100784 0.46734321117401123
0.14520692825317383 0.21762165427207947 0.4999498426914215
0.18676955997943878 0.17546048760414124 0.45632216334342957
0.2077980637550354 0.23359419405460358 0.5431086421012878
0.26898878812789917 0.15394064784049988 0.46349528431892395
0.22683419287204742 0.2601618468761444 0.5241349339485168
0.2835032641887665 0.1840623915195465 0.5836668610572815
0.17830602824687958 0.2605713903903961 0.5580494999885559
0.300832062959671 0.1827254593372345 0.5523384809494019
0.17034485936164856 0.2738986909389496 0.5079500675201416
0.14841358363628387 0.2775643467903137 0.48938074707984924
0.23672889173030853 0.2170659452676773 0.4576537013053894
0.20353402197360992 0.19795987010002136 0.5423567891120911
0.2057999074459076 0.15182256698608398 0.4861087501049042
0.2566412091255188 0.20239140093326569 0.5212407112121582
0.1326313465833664 0.16421496868133545 0.4645558297634125
0.3139030635356903 0.1257382482290268 0.5036230683326721
0.23540270328521729 0.21119283139705658 0.6150765419006348
0.22231332957744598 0.186021625995636 0.5758688449859619
0.21948634088039398 0.1958322525024414 0.5904600024223328
0.2413344830274582 0.2576180100440979 0.5082751512527466
0.300574392080307 0.1676197350025177 0.510069727897644
0.29209277033805847 0.2015850991010666 0.6053797602653503
0.23364639282226562 0.24004706740379333 0.6421967148780823
0.13899388909339905 0.1519588828086853 0.5596092343330383
0.28320854902267456 0.17806415259838104 0.5702533721923828
0.32707831263542175 0.2544252276420593 0.548602819442749
0.3250572979450226 0.1700313538312912 0.5735170245170593
0.1788240671157837 0.222274050116539 0.6313952803611755
0.17471660673618317 0.2957264482975006 0.5910707116127014
0.2851529121398926 0.16301199793815613 0.492038369178772
0.1854400634765625 0.16844616830348969 0.4535832703113556
0.17199626564979553 0.19707374274730682 0.4531713128089905
0.19034674763679504 0.24028649926185608 0.5518047213554382
0.3040180504322052 0.27802973985671997 0.4903206527233124
0.311983585357666 0.22344334423542023 0.6391761302947998
0.23780104517936707 0.1317039579153061 0.6285739541053772
0.30208250880241394 0.17126904428005219 0.5449899435043335
0.2702399492263794 0.23406752943992615 0.5329897999763489
0.1686633676290512 0.2887619435787201 0.5882831811904907
0.12902462482452393 0.14542895555496216 0.5030574202537537
0.20679250359535217 0.1397283524274826 0.5566741228103638
0.21483205258846283 0.2988617718219757 0.5683028101921082
0.18203891813755035 0.11867313832044601 0.6398021578788757
0.21253497898578644 0.2676902115345001 0.49998757243156433
0.2476026564836502 0.20158030092716217 0.5496545433998108
0.15076664090156555 0.2029120922088623 0.6102705597877502
0.31490978598594666 0.19543462991714478 0.5832695960998535
0.3188158869743347 0.2766226530075073 0.4941837191581726
0.25608232617378235 0.153349369764328 0.5670143961906433
0.18612870573997498 0.23855912685394287 0.6075499057769775
0.1468134969472885 0.23846442997455597 0.6102275848388672
0.21923649311065674 0.29856839776039124 0.6106706261634827
0.26639077067375183 0.2620687186717987 0.5043964385986328
0.19810882210731506 0.3055376410484314 0.507686972618103
0.13320153951644897 0.13861602544784546 0.4895952641963959
0.316449910402298 0.19785481691360474 0.502487301826477
0.22724619507789612 0.29845917224884033 0.5058490037918091
0.22101478278636932 0.2940179109573364 0.6163791418075562
0.321122407913208 0.13963353633880615 0.44826164841651917
0.2846393585205078 0.18852943181991577 0.595943808555603
0.1530771106481552 0.2553916275501251 0.614427924156189
0.2423616200685501 0.12822377681732178 0.609667956829071
0.14372475445270538 0.26213395595550537 0.4914109706878662
0.19855444133281708 0.187430277466774 0.5358642935752869
0.31652477383613586 0.2893586754798889 0.6072627902030945
0.20621462166309357 0.2736241817474365 0.5811696648597717
0.3230225145816803 0.2083723545074463 0.6242201924324036
0.22651039063930511 0.11972752958536148 0.5889082551002502
0.15510089695453644 0.14598068594932556 0.4494483768939972
0.18609704077243805 0.16254110634326935 0.5757771134376526
0.18773123621940613 0.15802133083343506 0.5275033712387085
0.22823311388492584 0.14373290538787842 0.5507749319076538
0.17564533650875092 0.14819467067718506 0.4559374451637268
0.21390707790851593 0.2878062427043915 0.6398980021476746
0.23196440935134888 0.13862887024879456 0.44359028339385986
0.24086324870586395 0.3166193962097168 0.5059831142425537
0.23360572755336761 0.244403675198555 0.6039014458656311
0.15487977862358093 0.2628890872001648 0.5255647897720337
0.3364240825176239 0.23049728572368622 0.46079835295677185
0.21070925891399384 0.23781543970108032 0.5562753677368164
0.29393109679222107 0.24238425493240356 0.6388406157493591
0.33931630849838257 0.287172794342041 0.512603223323822
0.24232852458953857 0.1281909942626953 0.5861935019493103
0.3253016173839569 0.2523757815361023 0.5801085233688354
0.21346333622932434 0.20735710859298706 0.5906738638877869
0.163022980093956 0.2965591251850128 0.6349714994430542
0.3062554895877838 0.14883136749267578 0.58635014295578
0.3045395612716675 0.13967692852020264 0.6109725832939148
0.19451284408569336 0.2574242651462555 0.6121245622634888
0.16719618439674377 0.21541441977024078 0.6274532079696655
0.3021765351295471 0.25146082043647766 0.5986675024032593
0.253835529088974 0.20932017266750336 0.5762841701507568
0.27018702030181885 0.21110035479068756 0.5941588878631592
0.2815600335597992 0.24569889903068542 0.6394771337509155
0.1288396716117859 0.18568071722984314 0.6376708745956421
0.3118041753768921 0.20054315030574799 0.5517129898071289
0.1958123743534088 0.17265251278877258 0.5491408705711365
0.2492472529411316 0.27578508853912354 0.4837547838687897
0.20083735883235931 0.23102016746997833 0.5885628461837769
0.13533103466033936 0.20579007267951965 0.44676899909973145
0.2185376137495041 0.2826084494590759 0.46490249037742615
0.1796095371246338 0.2261597067117691 0.5488350987434387
0.1516435146331787 0.1810419261455536 0.4572466015815735
0.26867833733558655 0.2866007685661316 0.5363723039627075
0.2179172784090042 0.2368726283311844 0.5563451647758484
0.22925953567028046 0.21569490432739258 0.5300583839416504
0.28550830483436584 0.2855197489261627 0.5059276223182678
0.2485456019639969 0.1426515281200409 0.47708848118782043
0.17656834423542023 0.12550222873687744 0.5921657085418701
0.20449069142341614 0.15905407071113586 0.5936573147773743
0.22736211121082306 0.26754701137542725 0.46166232228279114
0.3154805898666382 0.2519915699958801 0.630420982837677
0.335099995136261 0.27348965406417847 0.46161961555480957
0.2107137143611908 0.20183099806308746 0.5630683898925781
0.24262668192386627 0.15643349289894104 0.5966829657554626
0.25738459825515747 0.23558828234672546 0.536892294883728
0.1980837732553482 0.24492581188678741 0.5921977758407593
0.18282361328601837 0.1887957602739334 0.6060379147529602
0.2494097501039505 0.1611887365579605 0.5060945153236389
0.3353615999221802 0.26455146074295044 0.5829218626022339
0.19176876544952393 0.2513916790485382 0.48402896523475647
0.13986630737781525 0.12240910530090332 0.6260934472084045
0.17648658156394958 0.21660950779914856 0.45203354954719543
0.21197886765003204 0.2532890737056732 0.5440868139266968
0.3149541914463043 0.16514894366264343 0.4889232814311981
0.26821067929267883 0.14556533098220825 0.5855318307876587
0.2533009350299835 0.2055889070034027 0.521679699420929
0.28013816475868225 0.25766313076019287 0.5199721455574036
0.18482020497322083 0.1419919729232788 0.5608443021774292
0.2209732085466385 0.27585405111312866 0.6501520276069641
0.325935423374176 0.18955689668655396 0.5348043441772461
0.17181308567523956 0.30070894956588745 0.5621439814567566
0.2815571427345276 0.16560351848602295 0.5220566391944885
0.23068633675575256 0.17552471160888672 0.4551878273487091
0.1480875313282013 0.24771657586097717 0.470573365688324
0.1542920619249344 0.3263077437877655 0.5078227519989014
0.32142922282218933 0.27367666363716125 0.49564406275749207
0.2695482671260834 0.20473597943782806 0.5529093742370605
0.3154805898666382 0.2519915699958801 0.630420982837677
0.335099995136261 0.27348965406417847 0.46161961555480957
0.2107137143611908 0.20183099806308746 0.5630683898925781
0.22326651215553284 0.172318696975708 0.5499316453933716
0.1643580049276352 0.2791520655155182 0.4899129271507263
0.28918173909187317 0.19156628847122192 0.4939441978931427
0.2225998193025589 0.287859708070755 0.6564223766326904
0.22320698201656342 0.15570545196533203 0.5151219964027405
0.15825586020946503 0.19676512479782104 0.5624317526817322
0.2190064936876297 0.20812977850437164 0.6162912249565125
0.2060788869857788 0.2593657672405243 0.49545055627822876
0.16835202276706696 0.18592911958694458 0.5014863610267639
0.22595307230949402 0.18304355442523956 0.6280540823936462
0.29995280504226685 0.15645919740200043 0.4834427535533905
0.28866925835609436 0.207351416349411 0.6475163698196411
0.20867091417312622 0.2342817187309265 0.5412936210632324
0.31138524413108826 0.1559845209121704 0.6014508605003357
0.2830972969532013 0.2509348690509796 0.6002072691917419
0.24703408777713776 0.1927908957004547 0.5092442035675049
0.2585694193840027 0.20097598433494568 0.5486741065979004
0.28251075744628906 0.2662027180194855 0.6512861847877502
0.1974421590566635 0.28378814458847046 0.493921160697937
0.16019676625728607 0.2408021092414856 0.6108701825141907
0.27797913551330566 0.28218573331832886 0.4925604462623596
0.1501377522945404 0.22169888019561768 0.5998912453651428
0.20481115579605103 0.1256432980298996 0.5507809519767761
0.15864157676696777 0.2990620732307434 0.5077455043792725
0.19661502540111542 0.23518896102905273 0.5966396927833557
0.13113205134868622 0.1270923763513565 0.5457871556282043
0.24877695739269257 0.1532355546951294 0.4543531537055969
0.18467757105827332 0.13551826775074005 0.4829941689968109
0.19802212715148926 0.30551856756210327 0.6072273850440979
0.14448507130146027 0.23528259992599487 0.6264918446540833
0.2999943196773529 0.2608489394187927 0.5638105273246765
0.2967190742492676 0.1420583575963974 0.4459643065929413
0.30953148007392883 0.13011522591114044 0.4990522563457489
0.13195376098155975 0.12927024066448212 0.6336058378219604
