ply
format ascii 1.0
element vertex 823
property float x
property float y
property float z
end_header
0.21950727701187134 0.1524149775505066 0.6357392072677612
0.21730901300907135 0.26611292362213135 0.5133190751075745
0.20543211698532104 0.2465444654226303 0.4736650884151459
0.3221888840198517 0.134834885597229 0.5462291836738586
0.23565703630447388 0.3168822228908539 0.5506265163421631
0.2157360017299652 0.24910175800323486 0.49183738231658936
0.31011074781417847 0.2928200662136078 0.5501000285148621
0.301884263753891 0.24209173023700714 0.6211015582084656
0.24852755665779114 0.2677026689052582 0.6345902681350708
0.17290551960468292 0.1677657663822174 0.5380663871765137
0.16463616490364075 0.2660965025424957 0.6302617192268372
0.13679447770118713 0.14019225537776947 0.638850212097168
0.2521645128726959 0.19695718586444855 0.5495968461036682
0.2550039291381836 0.1538742184638977 0.545960545539856
0.30718711018562317 0.24815142154693604 0.5702144503593445
0.3453907072544098 0.23557314276695251 0.49294543266296387
0.2626207768917084 0.2057127058506012 0.4960472285747528
0.2974103093147278 0.2818171977996826 0.573602020740509
0.311120867729187 0.15146897733211517 0.481541246175766
0.2959337532520294 0.21662107110023499 0.591322124004364
0.33483052253723145 0.2851456105709076 0.5971089005470276
0.31746137142181396 0.2267817109823227 0.4867481291294098
0.20866729319095612 0.13264791667461395 0.5021694898605347
0.2382303774356842 0.2464228868484497 0.5737444162368774
0.1853717416524887 0.19079284369945526 0.46435853838920593
0.33932510018348694 0.2890888452529907 0.48109886050224304
0.2037528157234192 0.20592287182807922 0.4712771773338318
0.25857868790626526 0.27926480770111084 0.5603199601173401
0.24719423055648804 0.23805496096611023 0.6083347201347351
0.2633155286312103 0.2947182357311249 0.5679035186767578
0.18446236848831177 0.2595266103744507 0.6342150568962097
0.25067368149757385 0.19776973128318787 0.4568560719490051
0.18535985052585602 0.25238969922065735 0.6097826957702637
0.3193567991256714 0.25914597511291504 0.4744349718093872
0.2771945297718048 0.2521389424800873 0.5991422533988953
0.2776516377925873 0.13767188787460327 0.556743860244751
0.21458080410957336 0.24193426966667175 0.5558489561080933
0.20783522725105286 0.16875076293945312 0.6255886554718018
0.2855621874332428 0.24623960256576538 0.49830177426338196
0.28500428795814514 0.22718434035778046 0.48458942770957947
0.26497000455856323 0.2539474368095398 0.5760341286659241
0.1723664104938507 0.14098070561885834 0.493600070476532
0.29850494861602783 0.11632505804300308 0.6321185231208801
0.22023449838161469 0.19979436695575714 0.5725865364074707
0.18428105115890503 0.2823239862918854 0.5357493162155151
0.18191875517368317 0.2403331995010376 0.5505979061126709
0.24767640233039856 0.3263901472091675 0.4742283821105957
0.18936359882354736 0.18441878259181976 0.5483315587043762
0.2951990067958832 0.29841119050979614 0.4820197820663452
0.3149872422218323 0.28474685549736023 0.5906757116317749
0.29814040660858154 0.17300842702388763 0.5420050621032715
0.2904208302497864 0.19707095623016357 0.6363873481750488
0.23068130016326904 0.32197993993759155 0.540026843547821
0.20349383354187012 0.17183873057365417 0.5774330496788025
0.1565174013376236 0.19335611164569855 0.622967004776001
0.32299456000328064 0.19161972403526306 0.45795658230781555
0.16708576679229736 0.18579663336277008 0.49593600630760193
0.16133250296115875 0.2907893657684326 0.5796809196472168
0.19524091482162476 0.2696608603000641 0.627979576587677
0.2905786335468292 0.14459431171417236 0.6272149085998535
0.23376275599002838 0.22357308864593506 0.6203077435493469
0.2057785838842392 0.15664485096931458 0.565561830997467
0.2328963577747345 0.3053022027015686 0.473564088344574
0.24758197367191315 0.21436873078346252 0.5612976551055908
0.16471154987812042 0.23329849541187286 0.4671652019023895
0.29602980613708496 0.15986382961273193 0.4808453619480133
0.16520191729068756 0.18265798687934875 0.6392250657081604
0.1803591549396515 0.13733845949172974 0.5416993498802185
0.2927354872226715 0.20015868544578552 0.5943793058395386
0.27669623494148254 0.12124601751565933 0.5689369440078735
0.30324456095695496 0.1155603900551796 0.6148101687431335
0.22260504961013794 0.2805694341659546 0.513359010219574
0.18086504936218262 0.1785646677017212 0.5700513124465942
0.31001392006874084 0.14749807119369507 0.5361582636833191
0.23654380440711975 0.2307809442281723 0.5669714212417603
0.168653666973114 0.2109629064798355 0.46166953444480896
0.2499953657388687 0.2109617292881012 0.5828832387924194
0.23407955467700958 0.1222207173705101 0.617262601852417
0.33317863941192627 0.25374677777290344 0.5662527084350586
0.32656702399253845 0.29167845845222473 0.5635542273521423
0.28109678626060486 0.15953102707862854 0.6262618899345398
0.22558121383190155 0.28372088074684143 0.529117226600647
0.3052707314491272 0.15071353316307068 0.5298582315444946
0.25887274742126465 0.17006030678749084 0.6312080025672913
0.21021512150764465 0.14161808788776398 0.5354459881782532
0.22850418090820312 0.31205078959465027 0.5875157713890076
0.2731664776802063 0.14772018790245056 0.5383288860321045
0.2898502051830292 0.1654943823814392 0.5507361888885498
0.18340346217155457 0.20391203463077545 0.455204039812088
0.19659152626991272 0.2876042425632477 0.5297009944915771
0.15054461359977722 0.23274603486061096 0.5770635008811951
0.3393591642379761 0.2587670683860779 0.614251971244812
0.34483540058135986 0.271787166595459 0.5664277672767639
0.17484547197818756 0.22325974702835083 0.4880419373512268
0.17290551960468292 0.1677657663822174 0.5380663871765137
0.16463616490364075 0.2660965025424957 0.6302617192268372
0.13679447770118713 0.14019225537776947 0.638850212097168
0.2521645128726959 0.19695718586444855 0.5495968461036682
0.25229018926620483 0.29668980836868286 0.5231924057006836
0.18812188506126404 0.2128037065267563 0.5245869159698486
0.18829089403152466 0.27075257897377014 0.5618295669555664
0.24235907196998596 0.2731245756149292 0.4912172257900238
0.2745320498943329 0.21166017651557922 0.6278919577598572
0.20645710825920105 0.25404301285743713 0.6293459534645081
0.25398167967796326 0.21151281893253326 0.6374609470367432
0.22777779400348663 0.17959125339984894 0.6104692220687866
0.20114994049072266 0.209981769323349 0.529990553855896
0.21717627346515656 0.3075565993785858 0.6550214290618896
0.21756500005722046 0.29675960540771484 0.5360165238380432
0.14655530452728271 0.14246705174446106 0.5918259620666504
0.21528738737106323 0.1584424376487732 0.49460190534591675
0.27921009063720703 0.23227320611476898 0.5742098689079285
0.2795841693878174 0.24011488258838654 0.4693033695220947
0.14594243466854095 0.20848184823989868 0.5459761619567871
0.21843668818473816 0.12925687432289124 0.4848860204219818
0.3124378025531769 0.1335689276456833 0.4779905676841736
0.16694363951683044 0.3315061628818512 0.6113059520721436
0.22370798885822296 0.15289802849292755 0.48610904812812805
0.2781023681163788 0.2328263223171234 0.4810228645801544
0.1674569696187973 0.1699722558259964 0.5436640381813049
0.16974301636219025 0.27253615856170654 0.6181569695472717
0.1571231484413147 0.27763399481773376 0.5617459416389465
0.29686060547828674 0.2825280427932739 0.5977161526679993
0.30238771438598633 0.2645474672317505 0.65921950340271
0.284658282995224 0.24602477252483368 0.48920032382011414
0.19867926836013794 0.2014874368906021 0.48107582330703735
0.2189025580883026 0.15777719020843506 0.5635846853256226
0.16677814722061157 0.18528157472610474 0.4627171456813812
0.2820538282394409 0.23958992958068848 0.521720290184021
0.22757969796657562 0.29255515336990356 0.6491542458534241
0.2874692380428314 0.2904595732688904 0.5842876434326172
0.1942984163761139 0.16117976605892181 0.5428923964500427
0.15569283068180084 0.29508310556411743 0.6343525648117065
0.2805890440940857 0.12583555281162262 0.5158078074455261
0.3344201147556305 0.21150267124176025 0.5431228280067444
0.16862018406391144 0.2634662389755249 0.5342475175857544
0.2740064263343811 0.14039070904254913 0.5300804376602173
0.22502093017101288 0.22473275661468506 0.5188677310943604
0.3502924144268036 0.29203367233276367 0.5824195742607117
0.28275683522224426 0.12063288688659668 0.4945882558822632
0.27110791206359863 0.12521670758724213 0.4699167013168335
0.28318601846694946 0.12413346767425537 0.4678517282009125
0.18845094740390778 0.27956095337867737 0.46529069542884827
0.23335176706314087 0.14164651930332184 0.6174193620681763
0.17060542106628418 0.3384624719619751 0.5043100118637085
0.17392022907733917 0.29948630928993225 0.5529018640518188
0.31453782320022583 0.17605005204677582 0.5344247817993164
0.20181779563426971 0.14371290802955627 0.48706546425819397
0.21218407154083252 0.16187246143817902 0.5186211466789246
0.23246604204177856 0.1381872296333313 0.4688790738582611
0.1696925312280655 0.25995394587516785 0.5361676216125488
0.21742723882198334 0.14246301352977753 0.62962806224823
0.3016974925994873 0.14593981206417084 0.5767539739608765
0.2148662507534027 0.19883251190185547 0.6315857172012329
0.22048543393611908 0.22008758783340454 0.5291504263877869
0.2246861755847931 0.12336018681526184 0.5120532512664795
0.32662710547447205 0.1586516797542572 0.5525791645050049
0.23733273148536682 0.26365625858306885 0.4567553400993347
0.24664306640625 0.21606335043907166 0.6451215147972107
0.1651192307472229 0.20165018737316132 0.5926946997642517
0.24765491485595703 0.3154642879962921 0.590357780456543
0.21956974267959595 0.31727707386016846 0.5830191373825073
0.31450873613357544 0.2210507094860077 0.5174360871315002
0.19488368928432465 0.1840762346982956 0.5086670517921448
0.2663325071334839 0.18397246301174164 0.46500518918037415
0.16012804210186005 0.21150211989879608 0.4764939844608307
0.3265995979309082 0.25303414463996887 0.621056318283081
0.17740221321582794 0.26884129643440247 0.6372060179710388
0.21078942716121674 0.15782038867473602 0.5138897895812988
0.17880943417549133 0.16368767619132996 0.5394697189331055
0.22005192935466766 0.3228723704814911 0.547225296497345
0.1821264773607254 0.1731327772140503 0.4489342272281647
0.19844549894332886 0.23895196616649628 0.5859783291816711
0.27785220742225647 0.23825617134571075 0.6310672760009766
0.17584995925426483 0.25044575333595276 0.5336270928382874
0.1724444180727005 0.26260894536972046 0.4680444002151489
0.1586735099554062 0.1647844910621643 0.4471915066242218
0.20256264507770538 0.17165762186050415 0.5830402970314026
0.18434470891952515 0.1764058619737625 0.45042675733566284
0.17594608664512634 0.1401243358850479 0.5351297855377197
0.26263564825057983 0.16473087668418884 0.45703908801078796
0.18424327671527863 0.23520009219646454 0.486309677362442
0.1456146091222763 0.1945861428976059 0.5545406937599182
0.31955042481422424 0.13954243063926697 0.5660244226455688
0.2536414563655853 0.2951611876487732 0.6129586100578308
0.28320837020874023 0.12930463254451752 0.5005775690078735
0.28560590744018555 0.30019620060920715 0.5663909316062927
0.32806774973869324 0.15854491293430328 0.45608341693878174
0.2635968029499054 0.2651941478252411 0.5992579460144043
0.23733273148536682 0.26365625858306885 0.4567553400993347
0.24664306640625 0.21606335043907166 0.6451215147972107
0.1651192307472229 0.20165018737316132 0.5926946997642517
0.24765491485595703 0.3154642879962921 0.590357780456543
0.21956974267959595 0.31727707386016846 0.5830191373825073
0.31450873613357544 0.2210507094860077 0.5174360871315002
0.1786385327577591 0.1738748699426651 0.4728153645992279
0.27423444390296936 0.12395387142896652 0.47545215487480164
0.2663325071334839 0.18397246301174164 0.46500518918037415
0.16012804210186005 0.21150211989879608 0.4764939844608307
0.3265995979309082 0.25303414463996887 0.621056318283081
0.17740221321582794 0.26884129643440247 0.6372060179710388
0.21078942716121674 0.15782038867473602 0.5138897895812988
0.17880943417549133 0.16368767619132996 0.5394697189331055
0.22005192935466766 0.3228723704814911 0.547225296497345
0.1821264773607254 0.1731327772140503 0.4489342272281647
0.3058522343635559 0.17195405066013336 0.5818622708320618
0.3248543441295624 0.26157963275909424 0.5193504691123962
0.22313278913497925 0.20627616345882416 0.5082201361656189
0.18381671607494354 0.1753184199333191 0.4637658894062042
0.17594608664512634 0.1401243358850479 0.5351297855377197
0.26263564825057983 0.16473087668418884 0.45703908801078796
0.18424327671527863 0.23520009219646454 0.486309677362442
0.1456146091222763 0.1945861428976059 0.5545406937599182
0.31955042481422424 0.13954243063926697 0.5660244226455688
0.2536414563655853 0.2951611876487732 0.6129586100578308
0.28320837020874023 0.12930463254451752 0.5005775690078735
0.14132462441921234 0.2051749974489212 0.4799844026565552
0.2863207161426544 0.217313751578331 0.6316361427307129
0.32806774973869324 0.15854491293430328 0.45608341693878174
0.2684127688407898 0.24926841259002686 0.6475709080696106
0.1558569371700287 0.18022581934928894 0.5189463496208191
0.16476771235466003 0.17899271845817566 0.6095990538597107
0.30028480291366577 0.1415124386548996 0.4864354431629181
0.19867926836013794 0.2014874368906021 0.48107582330703735
0.2189025580883026 0.15777719020843506 0.5635846853256226
0.16677814722061157 0.18528157472610474 0.4627171456813812
0.2820538282394409 0.23958992958068848 0.521720290184021
0.22757969796657562 0.29255515336990356 0.6491542458534241
0.2874692380428314 0.2904595732688904 0.5842876434326172
0.1942984163761139 0.16117976605892181 0.5428923964500427
0.15569283068180084 0.29508310556411743 0.6343525648117065
0.2805890440940857 0.12583555281162262 0.5158078074455261
0.3344201147556305 0.21150267124176025 0.5431228280067444
0.16862018406391144 0.2634662389755249 0.5342475175857544
0.2740064263343811 0.14039070904254913 0.5300804376602173
0.22502093017101288 0.22473275661468506 0.5188677310943604
0.3502924144268036 0.29203367233276367 0.5824195742607117
0.28275683522224426 0.12063288688659668 0.4945882558822632
0.18601107597351074 0.25221502780914307 0.6344993114471436
0.33795443177223206 0.2213648408651352 0.6287738680839539
0.2900557518005371 0.26333916187286377 0.5726712942123413
0.1968003809452057 0.1673346608877182 0.6351110935211182
0.2139793336391449 0.17837946116924286 0.5025075674057007
0.33252501487731934 0.244733527302742 0.4832523465156555
0.3123941719532013 0.14028792083263397 0.5676858425140381
0.24281050264835358 0.1520301252603531 0.5465998649597168
0.1394532471895218 0.19029118120670319 0.44528183341026306
0.24422971904277802 0.265901654958725 0.611327052116394
0.23684322834014893 0.1162847951054573 0.6374713778495789
0.2950553894042969 0.21435624361038208 0.5315148234367371
0.23833876848220825 0.177460178732872 0.6461431384086609
0.2924252450466156 0.17533764243125916 0.5285758972167969
0.33483052253723145 0.2851456105709076 0.5971089005470276
0.1818883717060089 0.17571324110031128 0.5024620294570923
0.14426012337207794 0.16261866688728333 0.5439640283584595
0.14641523361206055 0.16944073140621185 0.4996858239173889
0.2576957643032074 0.2252146601676941 0.4763967990875244
0.23067191243171692 0.28245672583580017 0.5993893146514893
0.2765258252620697 0.14291124045848846 0.5393578410148621
0.16201241314411163 0.15751777589321136 0.555266797542572
0.16964027285575867 0.15546397864818573 0.5992618799209595
0.28049159049987793 0.3001467287540436 0.561277449131012
0.17895427346229553 0.26384302973747253 0.5822995901107788
0.18789702653884888 0.22210972011089325 0.5900400876998901
0.21209745109081268 0.16314175724983215 0.6430523991584778
0.2742043137550354 0.2867932915687561 0.5259258151054382
0.2583771049976349 0.21969828009605408 0.5965865254402161
0.24682170152664185 0.2474600225687027 0.5509461760520935
0.18601107597351074 0.25221502780914307 0.6344993114471436
0.3278025686740875 0.30568310618400574 0.4989466965198517
0.33795443177223206 0.2213648408651352 0.6287738680839539
0.2900557518005371 0.26333916187286377 0.5726712942123413
0.1968003809452057 0.1673346608877182 0.6351110935211182
0.2139793336391449 0.17837946116924286 0.5025075674057007
0.33252501487731934 0.244733527302742 0.4832523465156555
0.3123941719532013 0.14028792083263397 0.5676858425140381
0.24281050264835358 0.1520301252603531 0.5465998649597168
0.1394532471895218 0.19029118120670319 0.44528183341026306
0.24422971904277802 0.265901654958725 0.611327052116394
0.23684322834014893 0.1162847951054573 0.6374713778495789
0.2950553894042969 0.21435624361038208 0.5315148234367371
0.15878047049045563 0.23660370707511902 0.6132000684738159
0.2912762761116028 0.14846426248550415 0.5675138235092163
0.25807493925094604 0.1648857742547989 0.6263253092765808
0.32559874653816223 0.2014874964952469 0.6488759517669678
0.1794406622648239 0.12859119474887848 0.5981311202049255
0.26756227016448975 0.21898144483566284 0.5749716758728027
0.24211709201335907 0.2595856189727783 0.636326789855957
0.32967066764831543 0.2281474769115448 0.5418874621391296
0.2624931037425995 0.19734130799770355 0.6398240327835083
0.3224976360797882 0.2716761827468872 0.4954609274864197
0.18794119358062744 0.27882206439971924 0.6411623358726501
0.19020195305347443 0.13296501338481903 0.5704467296600342
0.2799055576324463 0.16724707186222076 0.5712688565254211
0.1703689843416214 0.14403748512268066 0.565565824508667
0.3213389813899994 0.13171736896038055 0.5387973189353943
0.29902565479278564 0.13041329383850098 0.6003714203834534
0.3039402961730957 0.2739373445510864 0.5880111455917358
0.20731335878372192 0.12376909703016281 0.6085471510887146
0.3230896294116974 0.2076534926891327 0.6494216918945312
0.25707244873046875 0.2727588713169098 0.5009185671806335
0.2520849406719208 0.23640888929367065 0.5261991620063782
0.165286123752594 0.15243187546730042 0.6140295267105103
0.17037589848041534 0.33443528413772583 0.48557838797569275
0.21701136231422424 0.27594226598739624 0.5667809247970581
0.25087323784828186 0.24941204488277435 0.5495592951774597
0.26997649669647217 0.19368000328540802 0.5921823978424072
0.2221813201904297 0.2338038682937622 0.5991775393486023
0.33050820231437683 0.2591080665588379 0.5635244250297546
0.22241385281085968 0.19757793843746185 0.6046580076217651
0.3530668318271637 0.2905181050300598 0.5310582518577576
0.18475909531116486 0.33339616656303406 0.4740354120731354
0.26133400201797485 0.19983425736427307 0.46442073583602905
0.31446021795272827 0.1629478633403778 0.49645519256591797
0.2068144977092743 0.1607169657945633 0.6104569435119629
0.26935216784477234 0.12953168153762817 0.5967773795127869
0.3267979919910431 0.23033107817173004 0.538723886013031
0.3175394833087921 0.2956255376338959 0.6271896958351135
0.16826650500297546 0.1795123815536499 0.4911486506462097
0.19016198813915253 0.2719581723213196 0.47866877913475037
0.236501082777977 0.1572125107049942 0.44595640897750854
0.13837692141532898 0.18983641266822815 0.45269128680229187
0.1611163467168808 0.18430182337760925 0.47053271532058716
0.19804109632968903 0.2720625102519989 0.5585001707077026
0.32375404238700867 0.21407322585582733 0.5454069375991821
0.2027588039636612 0.1355394572019577 0.475083589553833
0.1533181071281433 0.201515793800354 0.5450119376182556
0.2872338891029358 0.12020253390073776 0.44199880957603455
0.23849870264530182 0.28225117921829224 0.5034488439559937
0.1640695482492447 0.22369824349880219 0.5748227834701538
0.28045162558555603 0.17856428027153015 0.6423587799072266
0.2583930492401123 0.14881618320941925 0.621418297290802
0.1779327690601349 0.25614088773727417 0.49265751242637634
0.18250440061092377 0.18585266172885895 0.5944900512695312
0.2531832456588745 0.23202741146087646 0.6490002870559692
0.3030461072921753 0.2520969808101654 0.46396875381469727
0.16024845838546753 0.17285014688968658 0.597987711429596
0.2777925729751587 0.24452465772628784 0.5678005814552307
0.3350050449371338 0.2695907950401306 0.46989333629608154
0.17864161729812622 0.1464346945285797 0.5051259994506836
0.21013659238815308 0.16227008402347565 0.5748204588890076
0.32312247157096863 0.2940148115158081 0.5942679643630981
0.18508750200271606 0.21511909365653992 0.4975995421409607
0.14922496676445007 0.20934534072875977 0.5208511352539062
0.22475628554821014 0.24616114795207977 0.6389736533164978
0.23558248579502106 0.27603664994239807 0.5026409029960632
0.19268906116485596 0.2909315526485443 0.5298354625701904
0.1722109615802765 0.21314184367656708 0.5950589776039124
0.25679895281791687 0.30847156047821045 0.612113356590271
0.23733273148536682 0.26365625858306885 0.4567553400993347
0.24664306640625 0.21606335043907166 0.6451215147972107
0.23812541365623474 0.27268359065055847 0.5849090814590454
0.24636195600032806 0.2993679940700531 0.6132643222808838
0.20307178795337677 0.25627487897872925 0.5824413895606995
0.2114977240562439 0.2484332025051117 0.48188701272010803
0.27655330300331116 0.23615126311779022 0.5114381909370422
0.15562449395656586 0.22899113595485687 0.5418888330459595
0.1771305799484253 0.3118443787097931 0.5281026363372803
0.21073873341083527 0.2797713279724121 0.5943356156349182
0.268721342086792 0.14656423032283783 0.4888237714767456
0.3515441417694092 0.25601086020469666 0.4726350009441376
0.18343138694763184 0.18866464495658875 0.466026246547699
0.3266265392303467 0.22373604774475098 0.586979329586029
0.23332254588603973 0.23909175395965576 0.6021947264671326
0.17584764957427979 0.30168718099594116 0.6540418267250061
0.2580510079860687 0.1366005539894104 0.4780086278915405
0.24259930849075317 0.1657349169254303 0.5100762844085693
0.32974928617477417 0.29132553935050964 0.5676171779632568
0.2855657637119293 0.303932249546051 0.5705267190933228
0.24983271956443787 0.13266350328922272 0.4856016933917999
0.19168530404567719 0.3080762028694153 0.4779813289642334
0.19648168981075287 0.28263112902641296 0.5240309834480286
0.3371088206768036 0.20619100332260132 0.47332170605659485
0.15042564272880554 0.14394651353359222 0.4661979079246521
0.18103289604187012 0.28770288825035095 0.6190250515937805
0.1686074584722519 0.1895296573638916 0.6090314388275146
0.250238299369812 0.3214680850505829 0.4954412877559662
0.20455524325370789 0.13797536492347717 0.5160213708877563
0.24317333102226257 0.2592540979385376 0.6499088406562805
0.26329341530799866 0.23893511295318604 0.608130931854248
0.2551402747631073 0.31446585059165955 0.5732917785644531
0.274718701839447 0.11687535792589188 0.5991309881210327
0.3117176592350006 0.2017596960067749 0.6150433421134949
0.28021305799484253 0.17192834615707397 0.6481165885925293
0.17359276115894318 0.2599413990974426 0.6351847648620605
0.32224348187446594 0.2714877724647522 0.5421530604362488
0.354475200176239 0.26996150612831116 0.5013870000839233
0.2172674685716629 0.18824516236782074 0.5234631896018982
0.32515406608581543 0.21515944600105286 0.5113590955734253
0.2991354763507843 0.25426024198532104 0.6247996687889099
0.3175394833087921 0.2956255376338959 0.6271896958351135
0.28255322575569153 0.17185097932815552 0.6196587681770325
0.2200290411710739 0.17892149090766907 0.5773935914039612
0.2274647057056427 0.24424482882022858 0.5593212842941284
0.18600045144557953 0.32798248529434204 0.5627850890159607
0.1621607542037964 0.16228961944580078 0.5973800420761108
0.31518158316612244 0.27618923783302307 0.4946824908256531
0.23859776556491852 0.1336423009634018 0.6440743803977966
0.2498885989189148 0.29764577746391296 0.525503396987915
0.34679245948791504 0.2601437270641327 0.549979031085968
0.33685895800590515 0.24207349121570587 0.46672746539115906
0.31123432517051697 0.1529088020324707 0.5327284932136536
0.1799216866493225 0.20544421672821045 0.4946736693382263
0.2577822804450989 0.24131830036640167 0.49527478218078613
0.1857605129480362 0.17291909456253052 0.4615462124347687
0.3065783381462097 0.11986986547708511 0.5120918154716492
0.32029426097869873 0.20440839231014252 0.5804958939552307
0.3092004954814911 0.13066929578781128 0.5095993876457214
0.2931816279888153 0.12277190387248993 0.6011583805084229
0.24624259769916534 0.21085745096206665 0.6480928659439087
0.24684368073940277 0.24227173626422882 0.5160075426101685
0.20900219678878784 0.19432759284973145 0.46598511934280396
0.2781023681163788 0.2328263223171234 0.4810228645801544
0.2189025580883026 0.15777719020843506 0.5635846853256226
0.16677814722061157 0.18528157472610474 0.4627171456813812
0.2820538282394409 0.23958992958068848 0.521720290184021
0.22757969796657562 0.29255515336990356 0.6491542458534241
0.2874692380428314 0.2904595732688904 0.5842876434326172
0.1942984163761139 0.16117976605892181 0.5428923964500427
0.15569283068180084 0.29508310556411743 0.6343525648117065
0.2805890440940857 0.12583555281162262 0.5158078074455261
0.3344201147556305 0.21150267124176025 0.5431228280067444
0.16862018406391144 0.2634662389755249 0.5342475175857544
0.2740064263343811 0.14039070904254913 0.5300804376602173
0.22502093017101288 0.22473275661468506 0.5188677310943604
0.3502924144268036 0.29203367233276367 0.5824195742607117
0.28275683522224426 0.12063288688659668 0.4945882558822632
0.27110791206359863 0.12521670758724213 0.4699167013168335
0.28318601846694946 0.12413346767425537 0.4678517282009125
0.18845094740390778 0.27956095337867737 0.46529069542884827
0.23335176706314087 0.14164651930332184 0.6174193620681763
0.17060542106628418 0.3384624719619751 0.5043100118637085
0.17392022907733917 0.29948630928993225 0.5529018640518188
0.31453782320022583 0.17605005204677582 0.5344247817993164
0.20181779563426971 0.14371290802955627 0.48706546425819397
0.21218407154083252 0.16187246143817902 0.5186211466789246
0.23246604204177856 0.1381872296333313 0.4688790738582611
0.1696925312280655 0.25995394587516785 0.5361676216125488
0.17437899112701416 0.21039879322052002 0.5716767311096191
0.27008897066116333 0.1997169405221939 0.6333982944488525
0.16170646250247955 0.19179701805114746 0.5926454067230225
0.16669577360153198 0.18075747787952423 0.45569369196891785
0.2596007287502289 0.1659320890903473 0.524948239326477
0.2503020763397217 0.17267321050167084 0.47643429040908813
0.23892396688461304 0.13417290151119232 0.47360169887542725
0.28021305799484253 0.17192834615707397 0.6481165885925293
0.17359276115894318 0.2599413990974426 0.6351847648620605
0.21125788986682892 0.21500693261623383 0.5634478330612183
0.2786756157875061 0.13530434668064117 0.5967127084732056
0.24986885488033295 0.1547059416770935 0.4987208843231201
0.1755588799715042 0.27491235733032227 0.5436649918556213
0.2548552453517914 0.22780387103557587 0.4567396342754364
0.16476771235466003 0.17899271845817566 0.6095990538597107
0.30028480291366577 0.1415124386548996 0.4864354431629181
0.19867926836013794 0.2014874368906021 0.48107582330703735
0.2189025580883026 0.15777719020843506 0.5635846853256226
0.16677814722061157 0.18528157472610474 0.4627171456813812
0.2820538282394409 0.23958992958068848 0.521720290184021
0.22757969796657562 0.29255515336990356 0.6491542458534241
0.2874692380428314 0.2904595732688904 0.5842876434326172
0.1942984163761139 0.16117976605892181 0.5428923964500427
0.15569283068180084 0.29508310556411743 0.6343525648117065
0.2805890440940857 0.12583555281162262 0.5158078074455261
0.3344201147556305 0.21150267124176025 0.5431228280067444
0.35271626710891724 0.2831869125366211 0.4906643331050873
0.26768866181373596 0.19075347483158112 0.6493967175483704
0.17778533697128296 0.16864913702011108 0.47912541031837463
0.1529480367898941 0.26258164644241333 0.5832305550575256
0.20067496597766876 0.256744384765625 0.5235050320625305
0.25712862610816956 0.18848411738872528 0.4991338849067688
0.2547411620616913 0.23743928968906403 0.6381211280822754
0.21819265186786652 0.163109689950943 0.46442165970802307
0.2874656319618225 0.2744315564632416 0.6120831370353699
0.2718699872493744 0.23856905102729797 0.5843130946159363
0.3236037790775299 0.2856391370296478 0.6550037264823914
0.2642722725868225 0.1801186352968216 0.621195912361145
0.20821790397167206 0.1205729991197586 0.6173185110092163
0.24317333102226257 0.2592540979385376 0.6499088406562805
0.2750095725059509 0.1736699938774109 0.5429385900497437
0.3089236617088318 0.13200825452804565 0.48819008469581604
0.28110823035240173 0.12327069789171219 0.5399166941642761
0.19878534972667694 0.18339286744594574 0.5697644352912903
0.17332132160663605 0.25771400332450867 0.5152323246002197
0.2647700905799866 0.23554976284503937 0.48507386445999146
0.30945056676864624 0.15892137587070465 0.44946661591529846
0.28183549642562866 0.11320286244153976 0.6398594975471497
0.1686866730451584 0.2909907400608063 0.5326524972915649
0.23401117324829102 0.15817809104919434 0.5604037046432495
0.20626473426818848 0.32885313034057617 0.4851915240287781
0.19552963972091675 0.2611103653907776 0.47532957792282104
0.1652238517999649 0.24971164762973785 0.49279576539993286
0.163674458861351 0.18893828988075256 0.5631083846092224
0.1629801094532013 0.17335207760334015 0.5389462113380432
0.24983137845993042 0.24623197317123413 0.5315841436386108
0.32208436727523804 0.2338985949754715 0.6090118288993835
0.2910139560699463 0.16540895402431488 0.6438475251197815
0.23698373138904572 0.2866727113723755 0.47325149178504944
0.17137862741947174 0.16504010558128357 0.5247206091880798
0.17774537205696106 0.23808765411376953 0.5202329158782959
0.24253590404987335 0.2770748734474182 0.5945844650268555
0.2524906098842621 0.2515679597854614 0.5335121750831604
0.16210469603538513 0.16365696489810944 0.508169949054718
0.29378363490104675 0.2531816065311432 0.4711553454399109
0.2423706203699112 0.2699044346809387 0.5619946718215942
0.26260775327682495 0.26114943623542786 0.49860382080078125
0.1971272975206375 0.1849132478237152 0.4775872826576233
0.21826833486557007 0.3153892755508423 0.6271231174468994
0.21391882002353668 0.28117331862449646 0.6140505075454712
0.21096660196781158 0.2396906614303589 0.5874297618865967
0.2863207161426544 0.217313751578331 0.6316361427307129
0.1611219346523285 0.1407344937324524 0.4952283203601837
0.25135350227355957 0.20907065272331238 0.5334212183952332
0.16346871852874756 0.22521810233592987 0.4654309153556824
0.24899454414844513 0.20892053842544556 0.5095453858375549
0.27266448736190796 0.29839685559272766 0.5270264148712158
0.17934057116508484 0.21687208116054535 0.5641119480133057
0.27392828464508057 0.22004061937332153 0.47383514046669006
0.144431471824646 0.1955665498971939 0.5583644509315491
0.20972196757793427 0.21750499308109283 0.5399777293205261
0.2642722725868225 0.1801186352968216 0.621195912361145
0.13736176490783691 0.1907712072134018 0.6114739179611206
0.22607968747615814 0.14793890714645386 0.4941697120666504
0.2889101803302765 0.2702227234840393 0.46287935972213745
0.29682639241218567 0.28762286901474 0.6411080956459045
0.2685661315917969 0.2966148555278778 0.4780674874782562
0.26438388228416443 0.2831491231918335 0.5535012483596802
0.3042500913143158 0.2772245407104492 0.5842509865760803
0.2916707396507263 0.11624099314212799 0.5804282426834106
0.32583552598953247 0.14728206396102905 0.5455421209335327
0.22903287410736084 0.14576052129268646 0.55926913022995
0.3024734556674957 0.1933162808418274 0.562564492225647
0.15402325987815857 0.2259790599346161 0.6090259552001953
0.16948510706424713 0.20451708137989044 0.5077470541000366
0.30617374181747437 0.20863041281700134 0.5898637771606445
0.16374456882476807 0.324903666973114 0.558905303478241
0.2595939338207245 0.11571799963712692 0.6343075037002563
0.25145450234413147 0.13589341938495636 0.4923282861709595
0.2554478645324707 0.14411590993404388 0.544655442237854
0.23506268858909607 0.1526166796684265 0.533535361289978
0.3005985617637634 0.22933396697044373 0.5497148633003235
0.32806774973869324 0.15854491293430328 0.45608341693878174
0.2684127688407898 0.24926841259002686 0.6475709080696106
0.24041882157325745 0.2789277136325836 0.5653977394104004
0.24482731521129608 0.1278788298368454 0.5952136516571045
0.17169077694416046 0.28676897287368774 0.596544086933136
0.27552157640457153 0.13261042535305023 0.5525646805763245
0.3528781831264496 0.3022051751613617 0.5021719336509705
0.21367411315441132 0.2236175835132599 0.5362715125083923
0.2589029371738434 0.27640971541404724 0.6212884187698364
0.1957220882177353 0.307344913482666 0.5161387324333191
0.2531275153160095 0.2882309556007385 0.5096777677536011
0.3311505913734436 0.2963816523551941 0.5661218166351318
0.23082385957241058 0.1805097460746765 0.5974922180175781
0.22607968747615814 0.14793890714645386 0.4941697120666504
0.15567469596862793 0.20282308757305145 0.4802042841911316
0.22840408980846405 0.29267165064811707 0.5572126507759094
0.2144550085067749 0.20805126428604126 0.6060178279876709
0.2144268900156021 0.1572752147912979 0.5648701786994934
0.15024308860301971 0.26331692934036255 0.5582639575004578
0.3042500913143158 0.2772245407104492 0.5842509865760803
0.17774537205696106 0.23808765411376953 0.5202329158782959
0.24253590404987335 0.2770748734474182 0.5945844650268555
0.2524906098842621 0.2515679597854614 0.5335121750831604
0.16210469603538513 0.16365696489810944 0.508169949054718
0.29378363490104675 0.2531816065311432 0.4711553454399109
0.2423706203699112 0.2699044346809387 0.5619946718215942
0.26260775327682495 0.26114943623542786 0.49860382080078125
0.25884491205215454 0.20414239168167114 0.47175508737564087
0.21826833486557007 0.3153892755508423 0.6271231174468994
0.16875268518924713 0.29168274998664856 0.612420916557312
0.3005985617637634 0.22933396697044373 0.5497148633003235
0.2526920735836029 0.17600993812084198 0.5926554203033447
0.2956698536872864 0.17872652411460876 0.6443888545036316
0.32910966873168945 0.21469746530056 0.5165101885795593
0.2942236065864563 0.21309317648410797 0.5579596757888794
0.3136054277420044 0.21970286965370178 0.48353713750839233
0.17979469895362854 0.1424928456544876 0.6007097959518433
0.2787628173828125 0.2284102886915207 0.6047704219818115
0.21963539719581604 0.29344090819358826 0.5100605487823486
0.26944005489349365 0.14145436882972717 0.5956056118011475
0.3104884624481201 0.2941506803035736 0.6160886287689209
0.22517657279968262 0.13633453845977783 0.5589557886123657
0.1669776737689972 0.31574133038520813 0.5753501057624817
0.2576533257961273 0.1746325045824051 0.49061471223831177
0.3157236576080322 0.2565740942955017 0.52436763048172
0.16220033168792725 0.31794264912605286 0.6190929412841797
0.15574420988559723 0.18924112617969513 0.5061222314834595
0.30236467719078064 0.2623800039291382 0.4804900586605072
0.2658231854438782 0.16585588455200195 0.5280606746673584
0.2787812054157257 0.23375001549720764 0.6288334727287292
0.22211511433124542 0.1483824998140335 0.6415110230445862
0.3207298517227173 0.27023258805274963 0.47302770614624023
0.28383612632751465 0.19599053263664246 0.6484760642051697
0.18837791681289673 0.2141287922859192 0.6197512745857239
0.21653832495212555 0.2689003050327301 0.5122025609016418
0.28486981987953186 0.20131650567054749 0.5826678276062012
0.2977070212364197 0.12293953448534012 0.48772767186164856
0.17371225357055664 0.1530667096376419 0.4755841791629791
0.22193290293216705 0.265671044588089 0.4819221496582031
0.23093630373477936 0.22403813898563385 0.5500133037567139
0.14562548696994781 0.1592199206352234 0.6239040493965149
0.19333846867084503 0.2044961005449295 0.5545051097869873
0.2979251742362976 0.12050282955169678 0.4812556803226471
0.30651921033859253 0.14864592254161835 0.6407386660575867
0.2684127688407898 0.24926841259002686 0.6475709080696106
0.2576533257961273 0.1746325045824051 0.49061471223831177
0.3157236576080322 0.2565740942955017 0.52436763048172
0.16220033168792725 0.31794264912605286 0.6190929412841797
0.15574420988559723 0.18924112617969513 0.5061222314834595
0.15574420988559723 0.18924112617969513 0.5061222314834595
0.30236467719078064 0.2623800039291382 0.4804900586605072
0.30236467719078064 0.2623800039291382 0.4804900586605072
0.2658231854438782 0.16585588455200195 0.5280606746673584
0.2787812054157257 0.23375001549720764 0.6288334727287292
0.22211511433124542 0.1483824998140335 0.6415110230445862
0.3207298517227173 0.27023258805274963 0.47302770614624023
0.28383612632751465 0.19599053263664246 0.6484760642051697
0.18837791681289673 0.2141287922859192 0.6197512745857239
0.23525360226631165 0.24025565385818481 0.4970889389514923
0.2597320079803467 0.12088202685117722 0.5783618092536926
0.2977070212364197 0.12293953448534012 0.48772767186164856
0.17371225357055664 0.1530667096376419 0.4755841791629791
0.21138523519039154 0.2372422069311142 0.4603007733821869
0.20041951537132263 0.16390272974967957 0.5015820860862732
0.26533427834510803 0.13861213624477386 0.5222479104995728
0.14562548696994781 0.1592199206352234 0.6239040493965149
0.19333846867084503 0.2044961005449295 0.5545051097869873
0.2979251742362976 0.12050282955169678 0.4812556803226471
0.30651921033859253 0.14864592254161835 0.6407386660575867
0.33983054757118225 0.21191616356372833 0.557706892490387
0.2613195478916168 0.2014322578907013 0.45464932918548584
0.2613195478916168 0.2014322578907013 0.45464932918548584
0.28367799520492554 0.27503249049186707 0.5243163108825684
0.2905610203742981 0.2260664701461792 0.506937563419342
0.20141085982322693 0.20061345398426056 0.6249337792396545
0.31724485754966736 0.12226834148168564 0.5505837202072144
0.24041882157325745 0.2789277136325836 0.5653977394104004
0.28731569647789 0.16656863689422607 0.5699325203895569
0.18706288933753967 0.2838028371334076 0.5044887661933899
0.16832827031612396 0.17434832453727722 0.5409390330314636
0.14536508917808533 0.22335903346538544 0.6380689144134521
0.247666135430336 0.20362091064453125 0.5179678797721863
0.1738158017396927 0.24861885607242584 0.5473037958145142
0.1614522635936737 0.25177422165870667 0.6069651246070862
0.19942176342010498 0.22128254175186157 0.5969468355178833
0.3159283995628357 0.16190645098686218 0.5554288625717163
0.22180549800395966 0.23436897993087769 0.604743480682373
0.2094825655221939 0.27737724781036377 0.5635572075843811
0.23384125530719757 0.206234410405159 0.6199324131011963
0.31897515058517456 0.29615524411201477 0.4827696681022644
0.19446057081222534 0.22859717905521393 0.5401589870452881
0.27111297845840454 0.22584101557731628 0.6262515187263489
0.3342250883579254 0.2860250174999237 0.6417243480682373
0.23467305302619934 0.29391735792160034 0.557151734828949
0.208389550447464 0.30819523334503174 0.5826031565666199
0.24419501423835754 0.2554098963737488 0.5928276181221008
0.1728307455778122 0.13777349889278412 0.5055487155914307
0.1728307455778122 0.13777349889278412 0.5055487155914307
0.34233173727989197 0.22454014420509338 0.47894710302352905
0.1674475520849228 0.156443253159523 0.5196700692176819
0.2528879940509796 0.18453675508499146 0.4672420918941498
0.22107680141925812 0.20244595408439636 0.46441811323165894
0.19990424811840057 0.21125298738479614 0.49556148052215576
0.2561873495578766 0.21458864212036133 0.5459898114204407
0.20150145888328552 0.33143073320388794 0.5145269632339478
0.18426568806171417 0.14249686896800995 0.48631662130355835
0.2219906449317932 0.3062479496002197 0.6360021829605103
0.20027118921279907 0.2564835250377655 0.4991750419139862
0.3037845194339752 0.2173149585723877 0.5675017237663269
0.247666135430336 0.20362091064453125 0.5179678797721863
0.1738158017396927 0.24861885607242584 0.5473037958145142
0.1614522635936737 0.25177422165870667 0.6069651246070862
0.19942176342010498 0.22128254175186157 0.5969468355178833
0.3159283995628357 0.16190645098686218 0.5554288625717163
0.22180549800395966 0.23436897993087769 0.604743480682373
0.2094825655221939 0.27737724781036377 0.5635572075843811
0.23384125530719757 0.206234410405159 0.6199324131011963
0.31897515058517456 0.29615524411201477 0.4827696681022644
0.16393400728702545 0.16438238322734833 0.5452689528465271
0.3342250883579254 0.2860250174999237 0.6417243480682373
0.23467305302619934 0.29391735792160034 0.557151734828949
0.208389550447464 0.30819523334503174 0.5826031565666199
0.24419501423835754 0.2554098963737488 0.5928276181221008
0.1728307455778122 0.13777349889278412 0.5055487155914307
0.34233173727989197 0.22454014420509338 0.47894710302352905
0.1584450602531433 0.17254206538200378 0.48045992851257324
0.3000340163707733 0.1611330509185791 0.5379421710968018
0.22152367234230042 0.27272820472717285 0.6394673585891724
0.2221183031797409 0.23089419305324554 0.6511373519897461
0.3338385820388794 0.26197707653045654 0.4878120422363281
0.25101685523986816 0.2449377179145813 0.468641459941864
0.23110324144363403 0.18944798409938812 0.4934883713722229
0.19264382123947144 0.23049889504909515 0.5810731649398804
0.2538211941719055 0.3147464990615845 0.5512904524803162
0.3227357566356659 0.2460598349571228 0.458838552236557
0.1730487197637558 0.142042338848114 0.5240923166275024
0.1678834855556488 0.25338923931121826 0.6118257641792297
0.26944005489349365 0.14145436882972717 0.5956056118011475
0.3104884624481201 0.2941506803035736 0.6160886287689209
0.2691284120082855 0.14868412911891937 0.5286106467247009
0.24870134890079498 0.14726950228214264 0.45037615299224854
0.18006908893585205 0.23137494921684265 0.4673631489276886
0.1944538652896881 0.24369435012340546 0.5682605504989624
0.16157209873199463 0.26026299595832825 0.6099599599838257
0.28836825489997864 0.19510552287101746 0.5051799416542053
0.18684551119804382 0.19345715641975403 0.45395535230636597
0.24187585711479187 0.19105510413646698 0.623892068862915
0.3134979009628296 0.28637567162513733 0.5289477109909058
0.18364423513412476 0.18981274962425232 0.6153873801231384
0.2854747772216797 0.17058409750461578 0.4978186786174774
0.3076406419277191 0.25458237528800964 0.4602571129798889
0.3556678295135498 0.2720489501953125 0.5114127993583679
0.27132439613342285 0.2595882713794708 0.5198675394058228
0.2743038535118103 0.2953723669052124 0.547401487827301
0.29347118735313416 0.2503099739551544 0.5223625898361206
0.3065201938152313 0.16999934613704681 0.6193079352378845
0.17412421107292175 0.3029928505420685 0.6172802448272705
0.20404118299484253 0.19084419310092926 0.4764295220375061
0.19293031096458435 0.16952373087406158 0.4462326169013977
0.278460830450058 0.2386315017938614 0.6113420128822327
0.25389420986175537 0.29359710216522217 0.5564956068992615
0.35938942432403564 0.2910124659538269 0.4930562376976013
0.18826447427272797 0.16591030359268188 0.463323712348938
0.3306613266468048 0.2514168620109558 0.6198914647102356
0.25566479563713074 0.2581753134727478 0.4802585542201996
0.2514399588108063 0.31732437014579773 0.5660873651504517
0.2600429952144623 0.19187884032726288 0.5874725580215454
0.2572057247161865 0.28028905391693115 0.5815090537071228
0.2943720519542694 0.28912144899368286 0.5238640904426575
0.28863590955734253 0.14943917095661163 0.6455787420272827
0.3389292061328888 0.24806362390518188 0.639473021030426
0.23282749950885773 0.18222127854824066 0.4717244505882263
0.32910966873168945 0.21469746530056 0.5165101885795593
0.34123852849006653 0.27880561351776123 0.5888285040855408
0.3118447959423065 0.2413739562034607 0.48967891931533813
0.18441437184810638 0.15545979142189026 0.6397593021392822
0.33109810948371887 0.16765770316123962 0.4563943147659302
0.22344815731048584 0.23551137745380402 0.6026471257209778
0.15777085721492767 0.1600950062274933 0.6107260584831238
0.25126275420188904 0.12112361192703247 0.6209772229194641
0.1536443680524826 0.2666952610015869 0.6345604658126831
0.33361321687698364 0.25186383724212646 0.46961456537246704
0.24351972341537476 0.1272585541009903 0.6262333393096924
0.19446057081222534 0.22859717905521393 0.5401589870452881
0.20729109644889832 0.17883795499801636 0.5196953415870667
0.3228553533554077 0.27764979004859924 0.6158111095428467
0.13482631742954254 0.19560861587524414 0.6003865599632263
0.2016270011663437 0.2411072850227356 0.45844966173171997
0.24923263490200043 0.2700766623020172 0.5769127011299133
0.2793915569782257 0.22201664745807648 0.6327459216117859
0.19693754613399506 0.2818883955478668 0.5965255498886108
0.22107680141925812 0.20244595408439636 0.46441811323165894
0.27407392859458923 0.1802556812763214 0.47832199931144714
0.18049557507038116 0.19907870888710022 0.641235888004303
0.15724985301494598 0.18328408896923065 0.5527849793434143
0.2219906449317932 0.3062479496002197 0.6360021829605103
0.20027118921279907 0.2564835250377655 0.4991750419139862
0.2538211941719055 0.3147464990615845 0.5512904524803162
0.3227357566356659 0.2460598349571228 0.458838552236557
0.1730487197637558 0.142042338848114 0.5240923166275024
0.1678834855556488 0.25338923931121826 0.6118257641792297
0.26944005489349365 0.14145436882972717 0.5956056118011475
0.2418753057718277 0.30114492774009705 0.6475124359130859
0.1610618233680725 0.1485145390033722 0.5574145913124084
0.25361090898513794 0.19958092272281647 0.645385205745697
0.19073176383972168 0.19574521481990814 0.5988377332687378
0.17041745781898499 0.32087475061416626 0.46986061334609985
0.33703139424324036 0.2786298096179962 0.5905691981315613
0.15408781170845032 0.2313266098499298 0.6052513718605042
0.19200316071510315 0.2762036919593811 0.5559879541397095
0.308860182762146 0.28724241256713867 0.6122031211853027
0.20407436788082123 0.29772114753723145 0.4602436423301697
0.2806442975997925 0.2567555904388428 0.6116409301757812
0.24552525579929352 0.3182859420776367 0.5574360489845276
0.3114174008369446 0.23785194754600525 0.5333322286605835
0.2764488458633423 0.13182632625102997 0.4447203576564789
0.168592631816864 0.2089771330356598 0.639434814453125
0.24096527695655823 0.2236873060464859 0.5967708826065063
0.1501394510269165 0.24238884449005127 0.4836529493331909
0.24281421303749084 0.27568235993385315 0.6562207341194153
0.160157710313797 0.19597169756889343 0.5258013010025024
0.2954964339733124 0.16024817526340485 0.49635374546051025
0.33861666917800903 0.2600143849849701 0.573157548904419
0.24386970698833466 0.29222816228866577 0.5709459781646729
0.24283601343631744 0.30439457297325134 0.4738145172595978
0.1816709190607071 0.22109076380729675 0.5184224843978882
0.1549701988697052 0.23458603024482727 0.5634282827377319
0.2827223539352417 0.247361421585083 0.4831409752368927
0.2313755750656128 0.30711880326271057 0.630976140499115
0.28459450602531433 0.249068483710289 0.5288776159286499
0.287758469581604 0.24490125477313995 0.5068435072898865
0.234105184674263 0.1184394434094429 0.6297142505645752
0.2864423096179962 0.27142342925071716 0.6099756956100464
0.18706247210502625 0.32418757677078247 0.47174516320228577
0.30447909235954285 0.18962889909744263 0.4804777204990387
0.17303797602653503 0.31375837326049805 0.5006091594696045
0.23082385957241058 0.1805097460746765 0.5974922180175781
0.18837791681289673 0.2141287922859192 0.6197512745857239
0.21653832495212555 0.2689003050327301 0.5122025609016418
0.28486981987953186 0.20131650567054749 0.5826678276062012
0.2977070212364197 0.12293953448534012 0.48772767186164856
0.17371225357055664 0.1530667096376419 0.4755841791629791
0.22193290293216705 0.265671044588089 0.4819221496582031
0.23093630373477936 0.22403813898563385 0.5500133037567139
0.14562548696994781 0.1592199206352234 0.6239040493965149
0.19333846867084503 0.2044961005449295 0.5545051097869873
0.30651921033859253 0.14864592254161835 0.6407386660575867
0.24096527695655823 0.2236873060464859 0.5967708826065063
0.1501394510269165 0.24238884449005127 0.4836529493331909
0.24281421303749084 0.27568235993385315 0.6562207341194153
0.160157710313797 0.19597169756889343 0.5258013010025024
0.24834831058979034 0.3092048168182373 0.6131154298782349
0.2954964339733124 0.16024817526340485 0.49635374546051025
0.33861666917800903 0.2600143849849701 0.573157548904419
0.24386970698833466 0.29222816228866577 0.5709459781646729
0.24283601343631744 0.30439457297325134 0.4738145172595978
0.1816709190607071 0.22109076380729675 0.5184224843978882
0.1696268618106842 0.33249229192733765 0.518233060836792
0.3158721625804901 0.20139232277870178 0.5690047144889832
0.29242032766342163 0.2887366712093353 0.47948113083839417
0.18245327472686768 0.28366178274154663 0.5413336157798767
0.23993705213069916 0.32001715898513794 0.5429666042327881
0.21287496387958527 0.18615469336509705 0.5116331577301025
