ply
format ascii 1.0
element vertex 823
property float x
property float y
property float z
end_header
0.20388945937156677 0.15739017724990845 0.5847076177597046
0.19183632731437683 0.2487996369600296 0.4767555594444275
0.3165983259677887 0.18632416427135468 0.4947018325328827
0.23527421057224274 0.27377748489379883 0.6537010669708252
0.1961258053779602 0.25699642300605774 0.5046391487121582
0.29001766443252563 0.20032885670661926 0.4669956564903259
0.2859516143798828 0.15307755768299103 0.4653403162956238
0.298495352268219 0.2917073667049408 0.570339560508728
0.18803712725639343 0.18533006310462952 0.6434651017189026
0.23598693311214447 0.2181493043899536 0.5893924236297607
0.16635467112064362 0.19463294744491577 0.5474702715873718
0.23810888826847076 0.1777212768793106 0.46631109714508057
0.2165856659412384 0.18169379234313965 0.5582380890846252
0.20515987277030945 0.28375357389450073 0.5525720715522766
0.2654319405555725 0.16088436543941498 0.6031191349029541
0.14323614537715912 0.14743968844413757 0.5212128758430481
0.1596055030822754 0.2589957118034363 0.5244176387786865
0.27984681725502014 0.17245011031627655 0.5775518417358398
0.22665278613567352 0.12764078378677368 0.5777692198753357
0.18776832520961761 0.329777330160141 0.465312123298645
0.21642601490020752 0.2408296763896942 0.48888349533081055
0.22480355203151703 0.22966697812080383 0.48587167263031006
0.20001184940338135 0.1482093632221222 0.5225716233253479
0.3578290045261383 0.2868010997772217 0.5121335387229919
0.33865296840667725 0.18038399517536163 0.529495894908905
0.19012874364852905 0.2043936401605606 0.5245313048362732
0.15025746822357178 0.23100566864013672 0.4965490698814392
0.16559787094593048 0.16717784106731415 0.5677396059036255
0.18892480432987213 0.2611854672431946 0.5330284237861633
0.2867613434791565 0.16324009001255035 0.4536733329296112
0.2564964294433594 0.11719649285078049 0.6127483248710632
0.19111917912960052 0.3371169865131378 0.5679330825805664
0.18883682787418365 0.21703998744487762 0.5469697117805481
0.24667493999004364 0.2874232828617096 0.463026225566864
0.2640063762664795 0.3030189573764801 0.5101452469825745
0.21144619584083557 0.30337563157081604 0.6114187240600586
0.18466225266456604 0.16324612498283386 0.4583548605442047
0.17011618614196777 0.18494069576263428 0.6329050064086914
0.36636102199554443 0.26845720410346985 0.4832637906074524
0.3416360318660736 0.2992904782295227 0.4985629916191101
0.155350461602211 0.20610471069812775 0.6277941465377808
0.23907850682735443 0.11939673870801926 0.645911693572998
0.2499057799577713 0.12124698609113693 0.5813693404197693
0.28365808725357056 0.30253520607948303 0.5812960267066956
0.314938485622406 0.12150293588638306 0.47174060344696045
0.2654949426651001 0.290624737739563 0.4714239239692688
0.15016339719295502 0.18022719025611877 0.5211799144744873
0.16540764272212982 0.16112001240253448 0.4846133887767792
0.3182768225669861 0.241258904337883 0.4957571029663086
0.30332159996032715 0.2794360816478729 0.4679560661315918
0.20702889561653137 0.26865673065185547 0.5451555848121643
0.2150980830192566 0.2750387191772461 0.6425881385803223
0.2014099657535553 0.18268230557441711 0.47563570737838745
0.2014099657535553 0.18268230557441711 0.47563570737838745
0.25509923696517944 0.28210607171058655 0.5368210673332214
0.2009359747171402 0.17580951750278473 0.5872246026992798
0.3442395329475403 0.25475671887397766 0.6520916819572449
0.26478010416030884 0.124910369515419 0.5164750218391418
0.2285875827074051 0.2685663104057312 0.530315637588501
0.32159531116485596 0.13015109300613403 0.551752507686615
0.31358957290649414 0.18702223896980286 0.5659761428833008
0.2948577404022217 0.2193991243839264 0.6315706372261047
0.16112208366394043 0.26211240887641907 0.6225074529647827
0.20834526419639587 0.26071828603744507 0.6309265494346619
0.23131726682186127 0.27253881096839905 0.6497980952262878
0.19405245780944824 0.29459530115127563 0.596562922000885
0.2693036198616028 0.2777519226074219 0.5785401463508606
0.17091599106788635 0.18365798890590668 0.5596926808357239
0.2126617282629013 0.2920839488506317 0.6474823951721191
0.2704187035560608 0.19895720481872559 0.5956933498382568
0.18929259479045868 0.3177635967731476 0.6364810466766357
0.3043411076068878 0.13305285573005676 0.4484763443470001
0.27786561846733093 0.15247780084609985 0.5853539705276489
0.22997316718101501 0.15845055878162384 0.5187109708786011
0.2704187035560608 0.19895720481872559 0.5956933498382568
0.18929259479045868 0.3177635967731476 0.6364810466766357
0.3043411076068878 0.13305285573005676 0.4484763443470001
0.27786561846733093 0.15247780084609985 0.5853539705276489
0.3074519634246826 0.15657643973827362 0.5254696607589722
0.19483336806297302 0.2544713318347931 0.6409350037574768
0.2677118480205536 0.24304088950157166 0.5843926668167114
0.18046635389328003 0.2119208723306656 0.603257417678833
0.2814437448978424 0.23266591131687164 0.48487386107444763
0.18435721099376678 0.1498783379793167 0.5978203415870667
0.28707414865493774 0.13511189818382263 0.46293675899505615
0.28833961486816406 0.17777539789676666 0.6207161545753479
0.23589898645877838 0.1400328427553177 0.5866764783859253
0.18782839179039001 0.3383806645870209 0.45626339316368103
0.189870685338974 0.2822261452674866 0.5786350965499878
0.1987084597349167 0.1994868516921997 0.5165596008300781
0.33772560954093933 0.21412324905395508 0.4637383222579956
0.2874735891819 0.20031285285949707 0.5415372848510742
0.3088570833206177 0.22816002368927002 0.6547321677207947
0.253402978181839 0.2811766266822815 0.46810466051101685
0.16913332045078278 0.2822660505771637 0.4813317060470581
0.19818593561649323 0.20827719569206238 0.5294126272201538
0.30093106627464294 0.14398761093616486 0.468354731798172
0.18384400010108948 0.21496480703353882 0.45742088556289673
0.19209805130958557 0.3106703460216522 0.5526477098464966
0.23647473752498627 0.13792993128299713 0.5734711289405823
0.18805496394634247 0.2086312621831894 0.4623189866542816
0.21572303771972656 0.26905542612075806 0.5263791084289551
0.23708274960517883 0.24484418332576752 0.5834335088729858
0.31576865911483765 0.2360510379076004 0.477406769990921
0.19473329186439514 0.2597135901451111 0.5498878955841064
0.27786561846733093 0.15247780084609985 0.5853539705276489
0.2677118480205536 0.24304088950157166 0.5843926668167114
0.18046635389328003 0.2119208723306656 0.603257417678833
0.2814437448978424 0.23266591131687164 0.48487386107444763
0.18435721099376678 0.1498783379793167 0.5978203415870667
0.28707414865493774 0.13511189818382263 0.46293675899505615
0.28833961486816406 0.17777539789676666 0.6207161545753479
0.2304082214832306 0.2659672498703003 0.5283613204956055
0.2734059989452362 0.1436384618282318 0.48653271794319153
0.3464371860027313 0.27993232011795044 0.6007967591285706
0.31069254875183105 0.1408943235874176 0.4765262305736542
0.23536381125450134 0.12914898991584778 0.5767385363578796
0.33663561940193176 0.2724163830280304 0.5658323764801025
0.2382921576499939 0.15477488934993744 0.6199347376823425
0.33162108063697815 0.2877857983112335 0.5774096846580505
0.29526233673095703 0.24674339592456818 0.5371299386024475
0.3053280711174011 0.1424577534198761 0.46965205669403076
0.2538357973098755 0.13375785946846008 0.5310436487197876
0.15242154896259308 0.1766587346792221 0.5662915706634521
0.22534281015396118 0.2765892446041107 0.461188942193985
0.225664421916008 0.29016798734664917 0.5631769895553589
0.18388468027114868 0.23557452857494354 0.5705896615982056
0.3100935220718384 0.2668554186820984 0.5173205137252808
0.21161799132823944 0.20678243041038513 0.5928406119346619
0.28354108333587646 0.2718251347541809 0.564954936504364
0.27324870228767395 0.16804420948028564 0.48910272121429443
0.17788587510585785 0.15452267229557037 0.6336842179298401
0.20064161717891693 0.1872059851884842 0.4941536486148834
0.3124985098838806 0.1341911256313324 0.4935828745365143
0.28408509492874146 0.2800847887992859 0.5918524265289307
0.3128430247306824 0.27516698837280273 0.6163697242736816
0.31078818440437317 0.1813974678516388 0.45479363203048706
0.3074519634246826 0.15657643973827362 0.5254696607589722
0.19483336806297302 0.2544713318347931 0.6409350037574768
0.2677118480205536 0.24304088950157166 0.5843926668167114
0.18046635389328003 0.2119208723306656 0.603257417678833
0.2814437448978424 0.23266591131687164 0.48487386107444763
0.18435721099376678 0.1498783379793167 0.5978203415870667
0.16635467112064362 0.19463294744491577 0.5474702715873718
0.3627966046333313 0.26455122232437134 0.46208417415618896
0.21024006605148315 0.1911127269268036 0.5635033249855042
0.315658301115036 0.1809183955192566 0.5490789413452148
0.18066078424453735 0.1908191442489624 0.5826277732849121
0.18614351749420166 0.1661585122346878 0.6016091704368591
0.19060155749320984 0.27647629380226135 0.5532359480857849
0.2834051251411438 0.1466323882341385 0.6498792171478271
0.2425997257232666 0.2552719712257385 0.5239621996879578
0.2129167765378952 0.2266189008951187 0.4845333695411682
0.27628564834594727 0.23672014474868774 0.559262216091156
0.2373828887939453 0.19912216067314148 0.45418956875801086
0.32906195521354675 0.16788481175899506 0.5099177360534668
0.16593700647354126 0.16172049939632416 0.4495377540588379
0.19983477890491486 0.2196376472711563 0.5332754254341125
0.3158513605594635 0.25069737434387207 0.5357353687286377
0.3294042646884918 0.29223665595054626 0.5400322079658508
0.27227380871772766 0.23811908066272736 0.5458049774169922
0.29253914952278137 0.24011777341365814 0.5699111819267273
0.31096455454826355 0.20371007919311523 0.5117495059967041
0.26202720403671265 0.1372031420469284 0.62852942943573
0.2135840207338333 0.15126311779022217 0.5610376000404358
0.18466225266456604 0.16324612498283386 0.4583548605442047
0.31096890568733215 0.24457667768001556 0.6325088739395142
0.33796927332878113 0.2861560881137848 0.5098053216934204
0.14430385828018188 0.20143048465251923 0.5742946863174438
0.24514855444431305 0.2160249948501587 0.6272234320640564
0.2536885142326355 0.26473742723464966 0.48969289660453796
0.1843906193971634 0.25472214818000793 0.6382818818092346
0.17280150949954987 0.2002057582139969 0.4478969871997833
0.18298375606536865 0.22070834040641785 0.48211780190467834
0.19889643788337708 0.30304595828056335 0.4884835481643677
0.2640068829059601 0.27073416113853455 0.5264896750450134
0.2250015288591385 0.14871563017368317 0.5560750961303711
0.29868173599243164 0.19839099049568176 0.5565142631530762
0.20971554517745972 0.3147088289260864 0.4633214473724365
0.29347914457321167 0.25309568643569946 0.562089741230011
0.21834181249141693 0.29269829392433167 0.6345576643943787
0.18467965722084045 0.19016312062740326 0.4897027313709259
0.2628178894519806 0.15393905341625214 0.49198001623153687
0.3585852384567261 0.289471834897995 0.517179012298584
0.22182871401309967 0.24197110533714294 0.548582911491394
0.2623846232891083 0.23449644446372986 0.6126773357391357
0.18466225266456604 0.16324612498283386 0.4583548605442047
0.17011618614196777 0.18494069576263428 0.6329050064086914
0.36636102199554443 0.26845720410346985 0.4832637906074524
0.162940114736557 0.18796293437480927 0.4496150314807892
0.15076136589050293 0.15636681020259857 0.6175836324691772
0.28505223989486694 0.2752235233783722 0.5279950499534607
0.25200173258781433 0.16971194744110107 0.6474260687828064
0.1978575736284256 0.22123301029205322 0.5617481470108032
0.22709614038467407 0.15327690541744232 0.5309659242630005
0.2336827665567398 0.26693254709243774 0.4578244686126709
0.3071606457233429 0.1703951358795166 0.4927263557910919
0.356516569852829 0.26160162687301636 0.5301946401596069
0.23018240928649902 0.2590092718601227 0.46397754549980164
0.22646073997020721 0.16090503334999084 0.5198498964309692
0.31180980801582336 0.21390089392662048 0.5868830680847168
0.1712452918291092 0.16656415164470673 0.4509427547454834
0.3042919635772705 0.25771719217300415 0.5207571387290955
0.23173750936985016 0.2316013127565384 0.5052658915519714
0.3228122591972351 0.2642710208892822 0.5034657120704651
0.2897014021873474 0.2561970353126526 0.48899275064468384
0.30585068464279175 0.23458489775657654 0.494135320186615
0.14277510344982147 0.17955458164215088 0.48127076029777527
0.2264191061258316 0.14578719437122345 0.5254714488983154
0.15815888345241547 0.1628192514181137 0.5223897695541382
0.29928481578826904 0.11379755288362503 0.5623729228973389
0.20608951151371002 0.19547158479690552 0.5793274641036987
0.17058032751083374 0.16062237322330475 0.46750789880752563
0.19099652767181396 0.2727501094341278 0.5977900624275208
0.26163673400878906 0.3192172348499298 0.48435842990875244
0.32238149642944336 0.28044137358665466 0.6149687767028809
0.23208613693714142 0.24932996928691864 0.5434406399726868
0.3334975242614746 0.15629878640174866 0.48903998732566833
0.2236514538526535 0.15784072875976562 0.5111057162284851
0.31180980801582336 0.21390089392662048 0.5868830680847168
0.2443094253540039 0.2985464930534363 0.6260255575180054
0.19177034497261047 0.1497010439634323 0.48588988184928894
0.27988260984420776 0.23545192182064056 0.53702712059021
0.24748516082763672 0.26449379324913025 0.5929937958717346
0.24338975548744202 0.2242334634065628 0.5326876044273376
0.30541884899139404 0.28905829787254333 0.5056950449943542
0.2563680112361908 0.1489148586988449 0.4808140695095062
0.18192557990550995 0.13999798893928528 0.5964916348457336
0.15019091963768005 0.2515287697315216 0.6420161724090576
0.21840760111808777 0.2065397948026657 0.5878524780273438
0.21987216174602509 0.3183363676071167 0.6076186895370483
0.16009670495986938 0.2535884976387024 0.6290783882141113
0.27085137367248535 0.1822524517774582 0.542177677154541
0.20825396478176117 0.25054728984832764 0.5277267694473267
0.29477831721305847 0.24879184365272522 0.5134385228157043
0.3479512333869934 0.2859809994697571 0.6634465456008911
0.2040756493806839 0.33846259117126465 0.49206483364105225
0.33475178480148315 0.28924137353897095 0.5075072646141052
0.35872331261634827 0.28401291370391846 0.5085676908493042
0.2619677186012268 0.224477618932724 0.5767544507980347
0.1925201714038849 0.28861016035079956 0.5060396790504456
0.18967868387699127 0.30822938680648804 0.47588008642196655
0.24451914429664612 0.17312900722026825 0.6424504518508911
0.24067911505699158 0.30656421184539795 0.49493029713630676
0.2626737952232361 0.12493104487657547 0.6375641226768494
0.21109728515148163 0.18552182614803314 0.48351576924324036
0.17538727819919586 0.1434180587530136 0.6059394478797913
0.34393310546875 0.2864770293235779 0.5428242683410645
0.13802868127822876 0.1709585040807724 0.49032506346702576
0.2170456200838089 0.2064092606306076 0.5709730982780457
0.2336827665567398 0.24691472947597504 0.5585909485816956
0.34527236223220825 0.21336711943149567 0.4950578510761261
0.21106161177158356 0.3018271327018738 0.4875403046607971
0.2330390214920044 0.3112454414367676 0.5843186974525452
0.3026914894580841 0.25195252895355225 0.5152893662452698
0.2943538725376129 0.23075786232948303 0.548713743686676
0.22801879048347473 0.22368504106998444 0.4581039547920227
0.16982676088809967 0.18553385138511658 0.5529688000679016
0.23360095918178558 0.20890817046165466 0.6220632195472717
0.25809040665626526 0.21010170876979828 0.5689554214477539
0.1371408998966217 0.20279845595359802 0.5862913131713867
0.17510151863098145 0.3014208972454071 0.48907792568206787
0.22406704723834991 0.2249407172203064 0.6408953070640564
0.1669148951768875 0.22266227006912231 0.5200207829475403
0.17868754267692566 0.2983323037624359 0.593177855014801
0.33475178480148315 0.28924137353897095 0.5075072646141052
0.19515490531921387 0.20637623965740204 0.5603082776069641
0.17948472499847412 0.1884562075138092 0.4937039613723755
0.3075932264328003 0.2529206871986389 0.5034728646278381
0.19546519219875336 0.13772651553153992 0.519146740436554
0.2313963621854782 0.1666368693113327 0.5618303418159485
0.307498037815094 0.20299844443798065 0.6251604557037354
0.26834744215011597 0.2855013608932495 0.6206454038619995
0.2611524164676666 0.22706477344036102 0.5263102054595947
0.22562387585639954 0.26249000430107117 0.47000160813331604
0.31824177503585815 0.28262636065483093 0.6432806849479675
0.33151745796203613 0.1583966463804245 0.5392934679985046
0.2505684494972229 0.14381195604801178 0.4739258289337158
0.151029571890831 0.16472859680652618 0.46139469742774963
0.3229873776435852 0.23599804937839508 0.5338504314422607
0.3364883363246918 0.23831360042095184 0.5780385136604309
0.2662053108215332 0.3061995506286621 0.4980306029319763
0.30413639545440674 0.13478507101535797 0.4803371727466583
0.19177034497261047 0.1497010439634323 0.48588988184928894
0.17868754267692566 0.2983323037624359 0.593177855014801
0.24338975548744202 0.2242334634065628 0.5326876044273376
0.30541884899139404 0.28905829787254333 0.5056950449943542
0.2563680112361908 0.1489148586988449 0.4808140695095062
0.18192557990550995 0.13999798893928528 0.5964916348457336
0.2126399576663971 0.17064017057418823 0.5987749099731445
0.24866808950901031 0.27319490909576416 0.4608696401119232
0.2516419589519501 0.17431853711605072 0.5906768441200256
0.24668088555335999 0.1319269984960556 0.569637656211853
0.17433184385299683 0.256962388753891 0.5631394982337952
0.36556345224380493 0.2887340784072876 0.47243383526802063
0.3024495840072632 0.23033903539180756 0.46206095814704895
0.182447612285614 0.17439913749694824 0.46545976400375366
0.28164908289909363 0.1285793036222458 0.6058641672134399
0.17538727819919586 0.1434180587530136 0.6059394478797913
0.34393310546875 0.2864770293235779 0.5428242683410645
0.13802868127822876 0.1709585040807724 0.49032506346702576
0.2170456200838089 0.2064092606306076 0.5709730982780457
0.2336827665567398 0.24691472947597504 0.5585909485816956
0.34527236223220825 0.21336711943149567 0.4950578510761261
0.21106161177158356 0.3018271327018738 0.4875403046607971
0.2330390214920044 0.3112454414367676 0.5843186974525452
0.3026914894580841 0.25195252895355225 0.5152893662452698
0.342048317193985 0.2667175233364105 0.4876765012741089
0.31928178668022156 0.13362880051136017 0.5721274614334106
0.23820164799690247 0.19376133382320404 0.5530885457992554
0.3073315918445587 0.12943579256534576 0.6235674619674683
0.16916780173778534 0.21258889138698578 0.5442771911621094
0.2120971530675888 0.20059910416603088 0.5557368397712708
0.1575683206319809 0.254539430141449 0.545478105545044
0.3133602738380432 0.21113134920597076 0.4939720332622528
0.17414051294326782 0.253074049949646 0.6308470368385315
0.284069299697876 0.19821697473526 0.4705076515674591
0.24670176208019257 0.2515239119529724 0.49467894434928894
0.203501358628273 0.1430588662624359 0.5623916387557983
0.3414892554283142 0.25559449195861816 0.5259400010108948
0.27647241950035095 0.2632111608982086 0.5063743591308594
0.2801840305328369 0.28715378046035767 0.5606178641319275
0.20286837220191956 0.3228427767753601 0.5558338761329651
0.302690714597702 0.23759779334068298 0.5590493679046631
0.15472400188446045 0.2467040717601776 0.5439044237136841
0.27646175026893616 0.14383120834827423 0.4541066288948059
0.2800889015197754 0.15508532524108887 0.6200535893440247
0.14130909740924835 0.20312224328517914 0.516435444355011
0.23808273673057556 0.3132852613925934 0.6432009935379028
0.33475178480148315 0.28924137353897095 0.5075072646141052
0.17538727819919586 0.1434180587530136 0.6059394478797913
0.34393310546875 0.2864770293235779 0.5428242683410645
0.13802868127822876 0.1709585040807724 0.49032506346702576
0.2170456200838089 0.2064092606306076 0.5709730982780457
0.2336827665567398 0.24691472947597504 0.5585909485816956
0.34527236223220825 0.21336711943149567 0.4950578510761261
0.21106161177158356 0.3018271327018738 0.4875403046607971
0.2330390214920044 0.3112454414367676 0.5843186974525452
0.3026914894580841 0.25195252895355225 0.5152893662452698
0.2943538725376129 0.23075786232948303 0.548713743686676
0.22801879048347473 0.22368504106998444 0.4581039547920227
0.16982676088809967 0.18553385138511658 0.5529688000679016
0.23360095918178558 0.20890817046165466 0.6220632195472717
0.25809040665626526 0.21010170876979828 0.5689554214477539
0.1371408998966217 0.20279845595359802 0.5862913131713867
0.17510151863098145 0.3014208972454071 0.48907792568206787
0.22406704723834991 0.2249407172203064 0.6408953070640564
0.1669148951768875 0.22266227006912231 0.5200207829475403
0.17868754267692566 0.2983323037624359 0.593177855014801
0.24338975548744202 0.2242334634065628 0.5326876044273376
0.30541884899139404 0.28905829787254333 0.5056950449943542
0.2563680112361908 0.1489148586988449 0.4808140695095062
0.18192557990550995 0.13999798893928528 0.5964916348457336
0.2126399576663971 0.17064017057418823 0.5987749099731445
0.24866808950901031 0.27319490909576416 0.4608696401119232
0.2516419589519501 0.17431853711605072 0.5906768441200256
0.31563371419906616 0.1788114756345749 0.6376190185546875
0.21989509463310242 0.3026699125766754 0.6166802048683167
0.2692006826400757 0.26944661140441895 0.585670530796051
0.23460111021995544 0.13821272552013397 0.4875463545322418
0.1760263741016388 0.3084941506385803 0.5453813076019287
0.27837935090065 0.17553415894508362 0.645202100276947
0.17538727819919586 0.1434180587530136 0.6059394478797913
0.20861199498176575 0.1997346729040146 0.5479567050933838
0.15476791560649872 0.15119381248950958 0.4609408974647522
0.13901621103286743 0.1795940399169922 0.4526870846748352
0.18260180950164795 0.17372925579547882 0.5848974585533142
0.172502338886261 0.29794538021087646 0.6027252674102783
0.3199204206466675 0.13007037341594696 0.611415684223175
0.3214236795902252 0.13016942143440247 0.6084533929824829
0.34630087018013 0.2597429156303406 0.49246713519096375
0.24079519510269165 0.2502906620502472 0.6512551307678223
0.18480095267295837 0.33593982458114624 0.4804999530315399
0.1592995673418045 0.1729792356491089 0.48359882831573486
0.3066927492618561 0.21788941323757172 0.476854145526886
0.3112740218639374 0.1796787679195404 0.5373654961585999
0.21096041798591614 0.25756174325942993 0.528775691986084
0.2540396749973297 0.1314198523759842 0.5643174648284912
0.33052071928977966 0.21414406597614288 0.543596625328064
0.27717965841293335 0.15025879442691803 0.5547168254852295
0.15019091963768005 0.2515287697315216 0.6420161724090576
0.18795590102672577 0.13260766863822937 0.5450636148452759
0.29440969228744507 0.30559319257736206 0.47604015469551086
0.2293437272310257 0.2789531350135803 0.46383801102638245
0.2471562922000885 0.12854795157909393 0.4713846743106842
0.16221623122692108 0.23625683784484863 0.5008838772773743
0.19875302910804749 0.1875925064086914 0.45837587118148804
0.2238006293773651 0.24456696212291718 0.5451438426971436
0.27795538306236267 0.1576022356748581 0.4671015739440918
0.24560007452964783 0.2685548663139343 0.5247783064842224
0.293277382850647 0.18887630105018616 0.5880295634269714
0.19690555334091187 0.2751932740211487 0.5586068034172058
0.310859352350235 0.1857987642288208 0.5565662980079651
0.1925201714038849 0.28861016035079956 0.5060396790504456
0.17211945354938507 0.29437321424484253 0.48619702458381653
0.25251343846321106 0.22259722650051117 0.45921483635902405
0.21597175300121307 0.20922298729419708 0.5456315279006958
0.21461302042007446 0.16276690363883972 0.4893333315849304
0.26946330070495605 0.2082364708185196 0.5242284536361694
0.14394178986549377 0.18509958684444427 0.46623528003692627
0.3189737796783447 0.1264072209596634 0.508821964263916
0.24748334288597107 0.22028036415576935 0.6189606189727783
0.232756569981575 0.19518272578716278 0.5802428126335144
0.23062768578529358 0.20564809441566467 0.59475177526474
0.25997817516326904 0.26406747102737427 0.508838951587677
0.3100150227546692 0.16985660791397095 0.5142199397087097
0.3033200800418854 0.20648746192455292 0.6091713905334473
0.24844706058502197 0.2498544454574585 0.6453448534011841
0.1479298323392868 0.1714482456445694 0.5632365345954895
0.29254186153411865 0.18271084129810333 0.5746891498565674
0.3429587185382843 0.2573181688785553 0.5505583882331848
0.33308351039886475 0.17077910900115967 0.5785251259803772
0.1923820823431015 0.2374260276556015 0.6348684430122375
0.19624775648117065 0.31097689270973206 0.5908737778663635
0.2945850193500519 0.16608062386512756 0.4958876371383667
0.19669507443904877 0.1809566766023636 0.45574918389320374
0.18678611516952515 0.21119602024555206 0.4544382691383362
0.20686767995357513 0.2533809542655945 0.5534919500350952
0.32332974672317505 0.28028395771980286 0.4904257357120514
0.32498878240585327 0.22810959815979004 0.6421645879745483
0.2426079958677292 0.13896819949150085 0.6341281533241272
0.31104570627212524 0.1740238219499588 0.5494900941848755
0.28561830520629883 0.2391117811203003 0.5350562930107117
0.1896950751543045 0.30467990040779114 0.5881654024124146
0.1377931386232376 0.16777245700359344 0.5052156448364258
0.2135840207338333 0.15126311779022217 0.5610376000404358
0.23642589151859283 0.3095302879810333 0.568207859992981
0.18583957850933075 0.1297403872013092 0.6438373327255249
0.23330363631248474 0.2768930196762085 0.499508261680603
0.259674608707428 0.2086864858865738 0.553141713142395
0.16317495703697205 0.21975968778133392 0.6142873764038086
0.32559695839881897 0.1981784999370575 0.5872359275817871
0.33771252632141113 0.2785184681415558 0.4946639835834503
0.26316526532173157 0.15973694622516632 0.5719651579856873
0.20141063630580902 0.2525734305381775 0.6102651953697205
0.16291499137878418 0.25625765323638916 0.6126337647438049
0.23996542394161224 0.30926942825317383 0.6116811633110046
0.2851349115371704 0.26645535230636597 0.5048808455467224
0.22319211065769196 0.31646549701690674 0.5049305558204651
0.14108115434646606 0.16057346761226654 0.4916056990623474
0.32908838987350464 0.1988612562417984 0.5058965086936951
0.25047463178634644 0.30600792169570923 0.5042528510093689
0.24118909239768982 0.3046424090862274 0.6176400184631348
0.32888132333755493 0.13875386118888855 0.4529484212398529
0.2947520911693573 0.1935083419084549 0.6002064943313599
0.17058473825454712 0.272786945104599 0.6161841154098511
0.24669860303401947 0.13463044166564941 0.6152024269104004
0.16555052995681763 0.2797969877719879 0.4893040657043457
0.2101271003484726 0.19911308586597443 0.5391935110092163
0.33363473415374756 0.2940088212490082 0.6091097593307495
0.2252180129289627 0.2854985296726227 0.5821846127510071
0.33469101786613464 0.21184909343719482 0.6275452375411987
0.23017427325248718 0.12688793241977692 0.5939357876777649
0.16392095386981964 0.1641538441181183 0.45143476128578186
0.19492711126804352 0.17618870735168457 0.5802649259567261
0.19674202799797058 0.1713564097881317 0.5309223532676697
0.23510436713695526 0.15266750752925873 0.555322527885437
0.18466225266456604 0.16324612498283386 0.4583548605442047
0.23354613780975342 0.29950013756752014 0.6414822936058044
0.2396610677242279 0.14572328329086304 0.44720885157585144
0.26522886753082275 0.32286179065704346 0.5038332939147949
0.24883735179901123 0.25365588068962097 0.606629490852356
0.17553983628749847 0.27976545691490173 0.5244796872138977
0.3530401885509491 0.22952131927013397 0.46349501609802246
0.22670458257198334 0.2486129105091095 0.5584271550178528
0.3084178864955902 0.24812518060207367 0.6416530013084412
0.35795164108276367 0.2889394760131836 0.513325035572052
0.24692952632904053 0.13474182784557343 0.5914940237998962
0.34044209122657776 0.256022572517395 0.582370400428772
0.22570928931236267 0.21810612082481384 0.5945497751235962
0.18421503901481628 0.31353744864463806 0.635491132736206
0.31188294291496277 0.15112997591495514 0.5917151570320129
0.3091655373573303 0.14217327535152435 0.6165391802787781
0.21154853701591492 0.2706884443759918 0.6142192482948303
0.18032896518707275 0.23153230547904968 0.6311202049255371
0.31722211837768555 0.2563907504081726 0.6010379195213318
0.2660520076751709 0.2165220081806183 0.5798460841178894
0.28236597776412964 0.21744133532047272 0.5977535843849182
0.29646286368370056 0.2520832419395447 0.6423494815826416
0.13937582075595856 0.20396928489208221 0.6421849131584167
0.32355785369873047 0.20310594141483307 0.5554295182228088
0.20576834678649902 0.18482545018196106 0.552955150604248
0.27000927925109863 0.28055381774902344 0.4831107258796692
0.21553684771060944 0.24324774742126465 0.5914524793624878
0.15200333297252655 0.2252780944108963 0.4475540220737457
0.24173285067081451 0.2892443835735321 0.463164746761322
0.19496700167655945 0.24072515964508057 0.5509470701217651
0.1647469848394394 0.19833791255950928 0.45867958664894104
0.28853127360343933 0.29200443625450134 0.5365892052650452
0.2336827665567398 0.24691472947597504 0.5585909485816956
0.24338975548744202 0.2242334634065628 0.5326876044273376
0.30541884899139404 0.28905829787254333 0.5056950449943542
0.2563680112361908 0.1489148586988449 0.4808140695095062
0.18192557990550995 0.13999798893928528 0.5964916348457336
0.2126399576663971 0.17064017057418823 0.5987749099731445
0.24866808950901031 0.27319490909576416 0.4608696401119232
0.33033645153045654 0.2567465603351593 0.6328943967819214
0.35476991534233093 0.27340343594551086 0.4625767469406128
0.2229737788438797 0.2124445140361786 0.5667022466659546
0.24986405670642853 0.16397146880626678 0.6020011305809021
0.2728285491466522 0.2416570484638214 0.5389521718025208
0.21413306891918182 0.25750041007995605 0.5945361852645874
0.19325605034828186 0.20215550065040588 0.6107093095779419
0.2585178017616272 0.16758091747760773 0.5098740458488464
0.3511524796485901 0.26798778772354126 0.584993302822113
0.2115921825170517 0.2625664472579956 0.48375222086906433
0.14463074505329132 0.1391729861497879 0.6293084621429443
0.1935592144727707 0.22994647920131683 0.45275333523750305
0.22984200716018677 0.2637767195701599 0.5453006625175476
0.3244735300540924 0.16551415622234344 0.4931948482990265
0.27409207820892334 0.15096627175807953 0.5907943248748779
0.2664012908935547 0.21172529458999634 0.5245628952980042
0.29779237508773804 0.26172733306884766 0.5209951400756836
0.19214163720607758 0.15646709501743317 0.5649420619010925
0.23929058015346527 0.2870715856552124 0.6521810293197632
0.33694174885749817 0.1904619336128235 0.5389800071716309
0.19475126266479492 0.3160950839519501 0.5606408715248108
0.29066985845565796 0.1698046624660492 0.5261638760566711
0.2422761172056198 0.18218789994716644 0.45783334970474243
0.16867727041244507 0.2639915943145752 0.4694652855396271
0.18323662877082825 0.3423037827014923 0.5022078156471252
0.3400963544845581 0.2755166292190552 0.4963056445121765
0.2818382680416107 0.2103807032108307 0.5563003420829773
0.33033645153045654 0.2567465603351593 0.6328943967819214
0.35476991534233093 0.27340343594551086 0.4625767469406128
0.2229737788438797 0.2124445140361786 0.5667022466659546
0.23283842206001282 0.18127185106277466 0.5540911555290222
0.1879989057779312 0.2939298152923584 0.48711660504341125
0.3015612065792084 0.19424474239349365 0.4970701336860657
0.24204006791114807 0.29897671937942505 0.6582210659980774
0.23175860941410065 0.16479487717151642 0.5188761949539185
0.1707935780286789 0.21323923766613007 0.5657537579536438
0.23101244866847992 0.21862837672233582 0.620344877243042
0.22629471123218536 0.26923125982284546 0.4952123165130615
0.18094757199287415 0.201068714261055 0.5038066506385803
0.2358238399028778 0.1927034854888916 0.6330596208572388
0.3087688684463501 0.15808849036693573 0.48759302496910095
0.30065762996673584 0.21331506967544556 0.6511049866676331
0.22478988766670227 0.2451259344816208 0.5432700514793396
0.31762224435806274 0.1581229567527771 0.6066641807556152
0.2984129786491394 0.25680384039878845 0.6026784777641296
0.2592494487762451 0.19899004697799683 0.5123287439346313
0.2706027328968048 0.2072552591562271 0.5521516799926758
0.2989497482776642 0.2727831304073334 0.6538940668106079
0.22054459154605865 0.29450324177742004 0.49201202392578125
0.17621810734272003 0.2573608458042145 0.6133201718330383
0.2982640266418457 0.28557050228118896 0.492162823677063
0.1646735519170761 0.23899585008621216 0.6030033826828003
0.21012452244758606 0.13679330050945282 0.5549872517585754
0.1841326653957367 0.3148863911628723 0.5038208961486816
0.21163016557693481 0.247944176197052 0.599436342716217
0.1370856910943985 0.14856605231761932 0.5483716130256653
0.25781407952308655 0.1585863083600998 0.457693487405777
0.19177034497261047 0.1497010439634323 0.48588988184928894
0.21987216174602509 0.3183363676071167 0.6076186895370483
0.16009670495986938 0.2535884976387024 0.6290783882141113
0.31624558568000793 0.2652231454849243 0.5655540227890015
0.3047109544277191 0.14308449625968933 0.4501769542694092
0.31528836488723755 0.131144717335701 0.5040310621261597
0.1372176855802536 0.14696796238422394 0.6368893980979919
0.20544998347759247 0.26884737610816956 0.5629361271858215
0.27167952060699463 0.27498215436935425 0.5733903646469116
0.22304660081863403 0.29839494824409485 0.5372750163078308
0.17347317934036255 0.16163158416748047 0.45241186022758484
0.21278981864452362 0.16737022995948792 0.5336384177207947
0.34300917387008667 0.2153472602367401 0.5953576564788818
0.24508070945739746 0.18310397863388062 0.5490452647209167
0.26328596472740173 0.20894983410835266 0.4549145996570587
0.26603537797927856 0.29867786169052124 0.5601085424423218
0.33421510457992554 0.1841905117034912 0.5269182920455933
0.2709425091743469 0.13428671658039093 0.4723811447620392
0.1822173148393631 0.25909191370010376 0.5641425251960754
0.14481616020202637 0.16695983707904816 0.5189337134361267
0.3137805461883545 0.17588414251804352 0.5751144886016846
0.21781116724014282 0.29110682010650635 0.6298689842224121
0.24614495038986206 0.22613771259784698 0.6179021000862122
0.3449307978153229 0.26713186502456665 0.6091295480728149
0.22962656617164612 0.3114263117313385 0.6431252360343933
0.3161469101905823 0.23442241549491882 0.5251958966255188
0.23242104053497314 0.2677707076072693 0.5846598148345947
0.22982829809188843 0.28960177302360535 0.6275318264961243
0.2368783950805664 0.3042480945587158 0.5784742832183838
0.2715643048286438 0.23026904463768005 0.5047353506088257
0.1784469485282898 0.2208397388458252 0.47732415795326233
0.26702243089675903 0.2466667890548706 0.5244552493095398
0.30541884899139404 0.28905829787254333 0.5056950449943542
0.25630804896354675 0.3149021565914154 0.5654546618461609
0.1955435425043106 0.3286468982696533 0.5234107375144958
0.32037705183029175 0.20746703445911407 0.5525946021080017
0.15280458331108093 0.1691443771123886 0.5966031551361084
0.1708388775587082 0.25144293904304504 0.5821152925491333
0.2518697679042816 0.18963545560836792 0.6338219046592712
0.28030967712402344 0.1866915374994278 0.5903774499893188
0.19928352534770966 0.2098993957042694 0.5711272954940796
0.28897643089294434 0.1269422173500061 0.5380391478538513
0.302192747592926 0.2174486517906189 0.4581839144229889
0.31805989146232605 0.21645274758338928 0.6221175193786621
0.2360953986644745 0.2688996493816376 0.6058062314987183
0.2560421824455261 0.15065841376781464 0.5859765410423279
0.3024272918701172 0.254464715719223 0.48522746562957764
0.17525139451026917 0.2626722455024719 0.5951327085494995
0.15327082574367523 0.2422207146883011 0.5775531530380249
0.24030154943466187 0.19842621684074402 0.5594972968101501
0.3229353129863739 0.24444101750850677 0.6386187672615051
0.30233967304229736 0.16492943465709686 0.6261840462684631
0.18234896659851074 0.29675182700157166 0.6309198141098022
0.30437228083610535 0.3003098666667938 0.5991418957710266
0.24255801737308502 0.2409934103488922 0.5033572316169739
0.23490576446056366 0.13906437158584595 0.48576030135154724
0.20239083468914032 0.19754451513290405 0.5291622877120972
0.2940375804901123 0.18059341609477997 0.565109372138977
0.28261131048202515 0.22055843472480774 0.4729927182197571
0.15841960906982422 0.1836623102426529 0.4679775834083557
0.28760528564453125 0.12191501259803772 0.6138508915901184
0.17462486028671265 0.24556532502174377 0.4713715612888336
0.241022527217865 0.22962822020053864 0.6140063405036926
0.27021273970603943 0.21630020439624786 0.636440098285675
0.31528836488723755 0.131144717335701 0.5040310621261597
0.34300917387008667 0.2153472602367401 0.5953576564788818
0.24508070945739746 0.18310397863388062 0.5490452647209167
0.1886502355337143 0.3249688446521759 0.5431190729141235
0.19815334677696228 0.2446151077747345 0.6040170192718506
0.1914520561695099 0.2878822088241577 0.48354533314704895
0.32411107420921326 0.14054587483406067 0.46815478801727295
0.3338801860809326 0.19770705699920654 0.5704433917999268
0.13885168731212616 0.16105493903160095 0.6391834616661072
0.31030380725860596 0.18008995056152344 0.5826565027236938
0.19127157330513 0.27210646867752075 0.5984101295471191
0.26376980543136597 0.27490755915641785 0.49145928025245667
0.22531332075595856 0.22803471982479095 0.4754203259944916
0.317521870136261 0.11885949969291687 0.5042349696159363
0.1599505990743637 0.13579228520393372 0.6125469207763672
0.21576546132564545 0.3148096203804016 0.4610072076320648
0.1785544604063034 0.22705812752246857 0.5044921040534973
0.15929828584194183 0.2599494457244873 0.624466061592102
0.3088967502117157 0.12302244454622269 0.5236305594444275
0.21623052656650543 0.15929219126701355 0.5527878999710083
0.15164895355701447 0.14278069138526917 0.6412790417671204
0.17598436772823334 0.18108326196670532 0.5627922415733337
0.27862536907196045 0.23501446843147278 0.46443891525268555
0.14536435902118683 0.2116764634847641 0.5065573453903198
0.2551286816596985 0.20045311748981476 0.6514235138893127
0.19146212935447693 0.13757023215293884 0.6262120008468628
0.18446092307567596 0.3264938294887543 0.46506422758102417
0.2675461769104004 0.31937530636787415 0.5378294587135315
0.2883510887622833 0.2812310755252838 0.636772871017456
0.24893270432949066 0.1229865550994873 0.6092268824577332
0.2843696177005768 0.2252439707517624 0.5550372004508972
0.31274649500846863 0.13983911275863647 0.6517653465270996
0.19928352534770966 0.2098993957042694 0.5711272954940796
0.26468539237976074 0.15392328798770905 0.6318154335021973
0.21527084708213806 0.21767576038837433 0.6420907378196716
0.20814278721809387 0.14311617612838745 0.5999584794044495
0.2224780023097992 0.3140609860420227 0.5297002196311951
0.21560847759246826 0.2652953267097473 0.5827343463897705
0.21572817862033844 0.29281502962112427 0.4773911237716675
0.24204683303833008 0.28881603479385376 0.5945680737495422
0.22237630188465118 0.18279904127120972 0.5714173316955566
0.2059718519449234 0.3331810235977173 0.5695701241493225
0.3186182677745819 0.1933509111404419 0.49870678782463074
0.2042495608329773 0.19849945604801178 0.46246853470802307
0.1979755461215973 0.22352157533168793 0.5152502655982971
0.1770748496055603 0.16563282907009125 0.485087513923645
0.34709805250167847 0.24403317272663116 0.5272653698921204
0.3306049108505249 0.28852343559265137 0.49908897280693054
0.1698802411556244 0.1493014544248581 0.6313135623931885
0.2940375804901123 0.18059341609477997 0.565109372138977
0.28261131048202515 0.22055843472480774 0.4729927182197571
0.15841960906982422 0.1836623102426529 0.4679775834083557
0.28760528564453125 0.12191501259803772 0.6138508915901184
0.17462486028671265 0.24556532502174377 0.4713715612888336
0.241022527217865 0.22962822020053864 0.6140063405036926
0.27021273970603943 0.21630020439624786 0.636440098285675
0.3601643443107605 0.2575136721134186 0.5115377306938171
0.33051636815071106 0.16891898214817047 0.4707138240337372
0.2307293862104416 0.199977844953537 0.4968567192554474
0.27206951379776 0.21659137308597565 0.6048887372016907
0.26102501153945923 0.30441656708717346 0.4677363634109497
0.26722708344459534 0.29343169927597046 0.5287478566169739
0.18070533871650696 0.19796669483184814 0.4626699984073639
0.2722821533679962 0.2963777482509613 0.5679618120193481
0.1782892495393753 0.2674420475959778 0.5376843214035034
0.24748949706554413 0.1393876075744629 0.5835034847259521
0.34415334463119507 0.2943061888217926 0.6084066033363342
0.2928849458694458 0.16786454617977142 0.4643135964870453
0.2980504035949707 0.11774313449859619 0.6066384315490723
0.16418573260307312 0.2274545431137085 0.517159104347229
0.3036336898803711 0.1776488870382309 0.5908637642860413
0.23033002018928528 0.18615883588790894 0.5904737114906311
0.34067076444625854 0.22388656437397003 0.6254915595054626
0.35134872794151306 0.22874578833580017 0.4851464033126831
0.2361784428358078 0.15810266137123108 0.46497175097465515
0.32296252250671387 0.17995278537273407 0.61118483543396
0.3377326428890228 0.30138370394706726 0.4722197651863098
0.2907602787017822 0.27275481820106506 0.5116263031959534
0.24652595818042755 0.2957857847213745 0.6010910868644714
0.1549939215183258 0.21065472066402435 0.5716110467910767
0.3305932283401489 0.22922593355178833 0.6338816285133362
0.20543353259563446 0.23948679864406586 0.4537934958934784
0.2229582816362381 0.26801228523254395 0.4618152678012848
0.2779514789581299 0.21330827474594116 0.637555718421936
0.2628936171531677 0.2140485793352127 0.6150072813034058
0.3067147731781006 0.1513056755065918 0.46135076880455017
0.17826446890830994 0.25239744782447815 0.5577921271324158
0.2876301407814026 0.23774433135986328 0.5948956608772278
0.24040009081363678 0.30256325006484985 0.6018831133842468
0.13516765832901 0.15483295917510986 0.46745362877845764
0.18928782641887665 0.24375194311141968 0.5867635607719421
0.19550763070583344 0.2537591755390167 0.6361844539642334
0.13900557160377502 0.1796078383922577 0.5612668991088867
0.31299951672554016 0.27695098519325256 0.483490526676178
0.21923649311065674 0.2379218190908432 0.5846861600875854
0.19109751284122467 0.206000417470932 0.5762443542480469
0.2540733516216278 0.29136475920677185 0.5055486559867859
0.2571091055870056 0.15475131571292877 0.6292026042938232
0.28023186326026917 0.15980949997901917 0.47063806653022766
0.24561892449855804 0.18509989976882935 0.5239028334617615
0.20461522042751312 0.19691291451454163 0.5435190796852112
0.2981310486793518 0.16827994585037231 0.5571589469909668
0.3308809995651245 0.14739039540290833 0.5320151448249817
0.14536435902118683 0.2116764634847641 0.5065573453903198
0.2551286816596985 0.20045311748981476 0.6514235138893127
0.19624775648117065 0.31097689270973206 0.5908737778663635
0.29296237230300903 0.26008138060569763 0.5192441344261169
0.18678611516952515 0.21119602024555206 0.4544382691383362
0.1636512726545334 0.270772248506546 0.5268341302871704
0.2739943563938141 0.1650514304637909 0.4854048192501068
0.19541296362876892 0.1549239456653595 0.5153300166130066
0.31880325078964233 0.2983650267124176 0.638741135597229
0.2725010812282562 0.20452819764614105 0.4548802375793457
0.3289770781993866 0.25487032532691956 0.6107979416847229
0.3233851492404938 0.16571877896785736 0.5433624982833862
0.19712528586387634 0.24764509499073029 0.6019337177276611
0.2351258546113968 0.13775812089443207 0.49347609281539917
0.22817668318748474 0.28714802861213684 0.6210689544677734
0.30079761147499084 0.18537282943725586 0.5361663103103638
0.2308041900396347 0.17822732031345367 0.45654401183128357
0.14986473321914673 0.17228581011295319 0.46205249428749084
0.2585415840148926 0.25949543714523315 0.5038096308708191
0.21352478861808777 0.28124916553497314 0.598045825958252
0.350480318069458 0.23562198877334595 0.4868955612182617
0.2969772219657898 0.2575839161872864 0.6028521060943604
0.31253764033317566 0.1609528660774231 0.637740969657898
0.1847061812877655 0.1895965188741684 0.5734826922416687
0.2734667956829071 0.20033758878707886 0.5130625367164612
0.2947520911693573 0.1935083419084549 0.6002064943313599
0.2628936171531677 0.2140485793352127 0.6150072813034058
0.3067147731781006 0.1513056755065918 0.46135076880455017
0.17826446890830994 0.25239744782447815 0.5577921271324158
0.2876301407814026 0.23774433135986328 0.5948956608772278
0.24040009081363678 0.30256325006484985 0.6018831133842468
0.13516765832901 0.15483295917510986 0.46745362877845764
0.18928782641887665 0.24375194311141968 0.5867635607719421
0.19550763070583344 0.2537591755390167 0.6361844539642334
0.13900557160377502 0.1796078383922577 0.5612668991088867
0.31299951672554016 0.27695098519325256 0.483490526676178
0.21923649311065674 0.2379218190908432 0.5846861600875854
0.19290345907211304 0.19107601046562195 0.6309010982513428
0.3028874099254608 0.18230213224887848 0.5448216199874878
0.22583603858947754 0.2871582806110382 0.5325900912284851
0.30867671966552734 0.19123059511184692 0.5441750884056091
0.297370046377182 0.28914737701416016 0.514344334602356
0.28570640087127686 0.13741332292556763 0.4510357677936554
0.2051229178905487 0.3268422484397888 0.48006027936935425
0.20120489597320557 0.2477269321680069 0.6039369702339172
0.14436249434947968 0.1572287231683731 0.49005067348480225
0.31075209379196167 0.12775321304798126 0.6380646824836731
0.2717413306236267 0.2228374034166336 0.6051064729690552
0.19656173884868622 0.3349743187427521 0.5420349836349487
0.25834834575653076 0.27852919697761536 0.5587875247001648
0.24083738029003143 0.30037134885787964 0.501107394695282
0.1482727974653244 0.22224649786949158 0.5260317325592041
0.14472542703151703 0.15811699628829956 0.5029191374778748
0.17280565202236176 0.16026873886585236 0.4592803418636322
0.1893848478794098 0.29545629024505615 0.5044839978218079
0.3368755877017975 0.191160649061203 0.6265245676040649
0.25524628162384033 0.26488667726516724 0.5794447064399719
0.1479298323392868 0.1714482456445694 0.5632365345954895
0.20543353259563446 0.23948679864406586 0.4537934958934784
0.2229582816362381 0.26801228523254395 0.4618152678012848
0.2779514789581299 0.21330827474594116 0.637555718421936
0.2628936171531677 0.2140485793352127 0.6150072813034058
0.3067147731781006 0.1513056755065918 0.46135076880455017
0.17826446890830994 0.25239744782447815 0.5577921271324158
0.2876301407814026 0.23774433135986328 0.5948956608772278
0.24040009081363678 0.30256325006484985 0.6018831133842468
0.13516765832901 0.15483295917510986 0.46745362877845764
0.18928782641887665 0.24375194311141968 0.5867635607719421
0.19550763070583344 0.2537591755390167 0.6361844539642334
0.13900557160377502 0.1796078383922577 0.5612668991088867
0.31299951672554016 0.27695098519325256 0.483490526676178
0.21923649311065674 0.2379218190908432 0.5846861600875854
0.19109751284122467 0.206000417470932 0.5762443542480469
0.15426968038082123 0.15428592264652252 0.5470081567764282
0.29990822076797485 0.22510099411010742 0.5220609903335571
0.1599525362253189 0.25142303109169006 0.48074349761009216
0.2641741931438446 0.18701685965061188 0.49793803691864014
0.27252063155174255 0.23460295796394348 0.5489388108253479
0.28627443313598633 0.14760722219944 0.5097568035125732
0.28902021050453186 0.11744413524866104 0.646479070186615
0.35523849725723267 0.29299286007881165 0.5662053823471069
0.14626896381378174 0.21190614998340607 0.5401439070701599
0.2585105001926422 0.2737836539745331 0.5195900201797485
0.23075465857982635 0.20520009100437164 0.536277711391449
0.33981817960739136 0.28091153502464294 0.5884712338447571
0.3309765160083771 0.26526662707328796 0.4896860420703888
0.22950588166713715 0.22070659697055817 0.6029391288757324
0.23156218230724335 0.15260018408298492 0.46983465552330017
0.1439640074968338 0.2174132764339447 0.5343096256256104
0.35772252082824707 0.2930699586868286 0.5341159105300903
0.24893270432949066 0.1229865550994873 0.6092268824577332
0.3359156847000122 0.2697684168815613 0.6248257756233215
0.27021273970603943 0.21630020439624786 0.636440098285675
0.3601643443107605 0.2575136721134186 0.5115377306938171
0.33051636815071106 0.16891898214817047 0.4707138240337372
0.2307293862104416 0.199977844953537 0.4968567192554474
0.22078686952590942 0.23972012102603912 0.5397288203239441
0.17963548004627228 0.23974262177944183 0.6195399165153503
0.18836896121501923 0.2037653625011444 0.4955700933933258
0.3216131925582886 0.16242340207099915 0.5687129497528076
0.24598032236099243 0.2747301459312439 0.5615057945251465
0.36427757143974304 0.27331385016441345 0.5201134085655212
0.25175976753234863 0.2794784605503082 0.4610356390476227
