ply
format ascii 1.0
element vertex 822
property float x
property float y
property float z
end_header
0.3179449141025543 0.13110262155532837 0.588442862033844
0.3428017199039459 0.2711249589920044 0.6061292886734009
0.20875702798366547 0.16164733469486237 0.5864908695220947
0.19907543063163757 0.2516267001628876 0.4770553708076477
0.32356494665145874 0.1832166463136673 0.4974168837070465
0.24236638844013214 0.2762107253074646 0.6540428996086121
0.20336002111434937 0.25948819518089294 0.5049802660942078
0.29739347100257874 0.197878897190094 0.46899843215942383
0.29197511076927185 0.15176565945148468 0.4680916965007782
0.3069183826446533 0.28917381167411804 0.5702727437019348
0.19358402490615845 0.19026115536689758 0.6452066898345947
0.24262991547584534 0.21988295018672943 0.590817928314209
0.17201147973537445 0.20006880164146423 0.5483970046043396
0.24433143436908722 0.17897698283195496 0.4678269326686859
0.22223606705665588 0.18460725247859955 0.5598092675209045
0.21285976469516754 0.28569093346595764 0.5526118874549866
0.2709536552429199 0.16178454458713531 0.6058314442634583
0.1471354067325592 0.15458187460899353 0.5220726132392883
0.16658233106136322 0.26315227150917053 0.5246621966362
0.2857931852340698 0.1723920702934265 0.5802104473114014
0.23039333522319794 0.13059599697589874 0.5800428986549377
0.1977999210357666 0.33130544424057007 0.4646051228046417
0.22370018064975739 0.24240057170391083 0.48950788378715515
0.2320282757282257 0.23099873960018158 0.48669156432151794
0.204246386885643 0.1526721864938736 0.524000346660614
0.3668656349182129 0.28046807646751404 0.512300431728363
0.34522515535354614 0.17710977792739868 0.5326515436172485
0.19623629748821259 0.2085680365562439 0.5254188179969788
0.15686699748039246 0.2363489270210266 0.49685758352279663
0.17037178575992584 0.17314906418323517 0.5689992308616638
0.1960630863904953 0.2640826106071472 0.5333601832389832
0.2932952046394348 0.16157352924346924 0.4562712609767914
0.26043713092803955 0.11819631606340408 0.6157534122467041
0.20049241185188293 0.33933544158935547 0.5672245025634766
0.19524820148944855 0.22115737199783325 0.5479036569595337
0.2553943395614624 0.2858785092830658 0.46305227279663086
0.27329620718955994 0.30099841952323914 0.5099029541015625
0.2193298488855362 0.30555644631385803 0.6110827326774597
0.18981719017028809 0.1683090180158615 0.45900392532348633
0.17557835578918457 0.19064383208751678 0.6345798373222351
0.3752419650554657 0.26097556948661804 0.4841345250606537
0.35125091671943665 0.2930595874786377 0.49808159470558167
0.16147561371326447 0.21238721907138824 0.6292629837989807
0.24266532063484192 0.12119278311729431 0.6483333110809326
0.25372377038002014 0.12273237854242325 0.5841578245162964
0.29226234555244446 0.3008284866809845 0.5809879302978516
0.3199199140071869 0.11987951397895813 0.4753669798374176
0.2745094895362854 0.2879413366317749 0.47133100032806396
0.1553407609462738 0.18663820624351501 0.5218423008918762
0.17010937631130219 0.16719365119934082 0.4851488173007965
0.32629698514938354 0.23674602806568146 0.4970657527446747
0.31232550740242004 0.2743564248085022 0.4679577052593231
0.21443919837474823 0.2706068754196167 0.5454394221305847
0.22221417725086212 0.2780270278453827 0.6429052352905273
0.20722752809524536 0.1863568127155304 0.47645750641822815
0.20722752809524536 0.1863568127155304 0.47645750641822815
0.2633011043071747 0.28123560547828674 0.5369365811347961
0.20634281635284424 0.17984382808208466 0.588848352432251
0.3513024151325226 0.2533825635910034 0.653298020362854
0.26886653900146484 0.12556181848049164 0.5193402767181396
0.23623907566070557 0.2692413330078125 0.5306218862533569
0.32654619216918945 0.12883034348487854 0.5554231405258179
0.32007765769958496 0.18528252840042114 0.5687021017074585
0.30151933431625366 0.21919460594654083 0.6335949301719666
0.16788338124752045 0.2668692171573639 0.623064398765564
0.2152654081583023 0.26382312178611755 0.6315792798995972
0.23840546607971191 0.2750343680381775 0.650172770023346
0.20165225863456726 0.29734528064727783 0.5963847637176514
0.2771701514720917 0.276833713054657 0.5787837505340576
0.17623205482959747 0.18903224170207977 0.5607994198799133
0.22009949386119843 0.2951887547969818 0.6473637819290161
0.2768752872943878 0.19924364984035492 0.5978254675865173
0.19739925861358643 0.32137060165405273 0.6357206106185913
0.31006744503974915 0.13117599487304688 0.45174840092658997
0.2832915484905243 0.15282008051872253 0.5883171558380127
0.2349974662065506 0.16089442372322083 0.5205214023590088
0.2768752872943878 0.19924364984035492 0.5978254675865173
0.19739925861358643 0.32137060165405273 0.6357206106185913
0.31006744503974915 0.13117599487304688 0.45174840092658997
0.2832915484905243 0.15282008051872253 0.5883171558380127
0.3132702708244324 0.15493984520435333 0.5285782217979431
0.20153772830963135 0.25852662324905396 0.6417372226715088
0.27489423751831055 0.24273474514484406 0.5855022072792053
0.18671171367168427 0.21679240465164185 0.604562520980835
0.2892150580883026 0.2302398383617401 0.4861094355583191
0.1887420117855072 0.15535999834537506 0.5995404720306396
0.29247042536735535 0.1340794861316681 0.46596837043762207
0.2943996489048004 0.17791388928890228 0.6235159039497375
0.24041691422462463 0.1425076276063919 0.5890599489212036
0.1983231008052826 0.3397435247898102 0.45549502968788147
0.19725161790847778 0.2851208448410034 0.5786817669868469
0.20476488769054413 0.20314627885818481 0.5175049901008606
0.34569716453552246 0.20861339569091797 0.4660325348377228
0.2942145764827728 0.19904015958309174 0.5436478853225708
0.3155224025249481 0.22801363468170166 0.6566339135169983
0.2619864046573639 0.27935996651649475 0.4682321846485138
0.17703117430210114 0.28569748997688293 0.4812019467353821
0.20448154211044312 0.21193543076515198 0.5303888320922852
0.30677908658981323 0.1421896368265152 0.471469521522522
0.19070026278495789 0.21934223175048828 0.45774728059768677
0.20054540038108826 0.31290125846862793 0.5522075295448303
0.24082913994789124 0.14044608175754547 0.5758472084999084
0.1947343498468399 0.2128821611404419 0.4627407491207123
0.22330203652381897 0.27039703726768494 0.5266473889350891
0.24409975111484528 0.24598777294158936 0.5843439698219299
0.32381412386894226 0.23134192824363708 0.4788069725036621
0.20182853937149048 0.2624529302120209 0.5502845644950867
0.2832915484905243 0.15282008051872253 0.5883171558380127
0.27489423751831055 0.24273474514484406 0.5855022072792053
0.18671171367168427 0.21679240465164185 0.604562520980835
0.2892150580883026 0.2302398383617401 0.4861094355583191
0.1887420117855072 0.15535999834537506 0.5995404720306396
0.29247042536735535 0.1340794861316681 0.46596837043762207
0.2943996489048004 0.17791388928890228 0.6235159039497375
0.23802733421325684 0.26655131578445435 0.5287142992019653
0.2786979377269745 0.14336790144443512 0.489240437746048
0.35420936346054077 0.27677789330482483 0.6012681126594543
0.31642085313796997 0.13880276679992676 0.4798451066017151
0.23930592834949493 0.13163721561431885 0.5791690349578857
0.3446609377861023 0.26857811212539673 0.5664057731628418
0.24338534474372864 0.1570894867181778 0.6223022937774658
0.33984801173210144 0.284306138753891 0.5775298476219177
0.3029499053955078 0.24421371519565582 0.5382046103477478
0.3111511766910553 0.14050643146038055 0.4728544056415558
0.2581605911254883 0.13517369329929352 0.533635139465332
0.157481849193573 0.18298904597759247 0.567428708076477
0.23352476954460144 0.27665674686431885 0.46133363246917725
0.23359324038028717 0.2910866439342499 0.5631335377693176
0.19050385057926178 0.2395198494195938 0.5713927149772644
0.31847554445266724 0.2628547251224518 0.5178201794624329
0.21796374022960663 0.20994557440280914 0.5942912101745605
0.2914850115776062 0.2700374722480774 0.5653560757637024
0.27936848998069763 0.16739189624786377 0.491449773311615
0.18244965374469757 0.1603548526763916 0.6353840827941895
0.20643168687820435 0.1908356249332428 0.4950360357761383
0.31778278946876526 0.13238024711608887 0.4970637559890747
0.29196852445602417 0.2787502706050873 0.5920911431312561
0.32039371132850647 0.2734348773956299 0.6168463826179504
0.3180571496486664 0.17818206548690796 0.4574395716190338
0.3132702708244324 0.15493984520435333 0.5285782217979431
0.20153772830963135 0.25852662324905396 0.6417372226715088
0.27489423751831055 0.24273474514484406 0.5855022072792053
0.18671171367168427 0.21679240465164185 0.604562520980835
0.2892150580883026 0.2302398383617401 0.4861094355583191
0.1887420117855072 0.15535999834537506 0.5995404720306396
0.17201147973537445 0.20006880164146423 0.5483970046043396
0.3717549741268158 0.2565358281135559 0.4629959762096405
0.21612294018268585 0.19428066909313202 0.5649434328079224
0.3220810890197754 0.1789020448923111 0.5519270300865173
0.18631592392921448 0.1956927478313446 0.5839493870735168
0.19117017090320587 0.17126622796058655 0.6032723784446716
0.19802218675613403 0.2792302370071411 0.553368091583252
0.288641095161438 0.1475398987531662 0.6529911756515503
0.25012439489364624 0.2552846074104309 0.5245364904403687
0.22002558410167694 0.22881965339183807 0.48526009917259216
0.28357183933258057 0.23568719625473022 0.5604962706565857
0.2443424016237259 0.20003491640090942 0.45543569326400757
0.3354177474975586 0.16480478644371033 0.513163149356842
0.17102785408496857 0.1676979660987854 0.44991612434387207
0.206417053937912 0.22300751507282257 0.5341902375221252
0.3236742317676544 0.24711835384368896 0.5368229746818542
0.3382507860660553 0.28775689005851746 0.5399054884910583
0.279636949300766 0.23706351220607758 0.5469456315040588
0.2998676598072052 0.2384398728609085 0.5712114572525024
0.31808987259864807 0.20074526965618134 0.5140439867973328
0.2669002115726471 0.13845403492450714 0.6314549446105957
0.21819812059402466 0.15500080585479736 0.5628699660301208
0.18981719017028809 0.1683090180158615 0.45900392532348633
0.317947119474411 0.24358969926834106 0.6339196562767029
0.34705689549446106 0.2805126905441284 0.5097696185112
0.15022359788417816 0.20783667266368866 0.5754226446151733
0.2516072392463684 0.21782369911670685 0.6289119124412537
0.2617655396461487 0.2634975016117096 0.4901401698589325
0.1910458356142044 0.25916165113449097 0.6390632390975952
0.1792844980955124 0.2054065465927124 0.4481232762336731
0.18970322608947754 0.22496886551380157 0.48255103826522827
0.20760561525821686 0.30456751585006714 0.48813101649284363
0.27210885286331177 0.2693612575531006 0.5268356204032898
0.22960244119167328 0.15179608762264252 0.5580930113792419
0.30537426471710205 0.19688643515110016 0.558832049369812
0.2191152572631836 0.3151025176048279 0.4628569185733795
0.30109724402427673 0.2510344684123993 0.563028872013092
0.2258678376674652 0.2952093482017517 0.6344414353370667
0.1904403567314148 0.19474777579307556 0.4903176426887512
0.26831701397895813 0.15419255197048187 0.49434587359428406
0.3676218092441559 0.28326359391212463 0.517288327217102
0.22888635098934174 0.24355940520763397 0.5493670701980591
0.26924848556518555 0.2350679337978363 0.6140479445457458
0.18981719017028809 0.1683090180158615 0.45900392532348633
0.17557835578918457 0.19064383208751678 0.6345798373222351
0.3752419650554657 0.26097556948661804 0.4841345250606537
0.16896982491016388 0.1937672346830368 0.4497739374637604
0.15520018339157104 0.16354626417160034 0.6192668676376343
0.293447345495224 0.2726525068283081 0.5282620191574097
0.2574780583381653 0.17157386243343353 0.649849534034729
0.2044207900762558 0.22480712831020355 0.5627783536911011
0.23185695707798004 0.1560463160276413 0.5328649878501892
0.24173612892627716 0.266562819480896 0.4581370949745178
0.31365257501602173 0.1680208146572113 0.49558669328689575
0.3646757900714874 0.25614133477211 0.5312808752059937
0.23803013563156128 0.2591015100479126 0.46440157294273376
0.23152855038642883 0.16351935267448425 0.5215777158737183
0.31864404678344727 0.21217362582683563 0.5890556573867798
0.17652970552444458 0.1722533404827118 0.4513452351093292
0.31238895654678345 0.25422045588493347 0.5215288400650024
0.2388814389705658 0.23255318403244019 0.5061648488044739
0.3313302993774414 0.25934281945228577 0.5040596127510071
0.2979678809642792 0.25285637378692627 0.4896785616874695
0.3136824071407318 0.23082637786865234 0.4955350458621979
0.148162379860878 0.18634897470474243 0.4814850687980652
0.23085486888885498 0.1487198919057846 0.527414858341217
0.16272781789302826 0.16919197142124176 0.523213267326355
0.3033635914325714 0.113622285425663 0.5659728050231934
0.2120860368013382 0.19891086220741272 0.5807808041572571
0.17542782425880432 0.16646333038806915 0.4679929316043854
0.1980731189250946 0.2759137451648712 0.5980608463287354
0.2717820107936859 0.31675583124160767 0.4838230609893799
0.33004283905029297 0.2783488631248474 0.6153252124786377
0.23932501673698425 0.25020071864128113 0.5441127419471741
0.33969491720199585 0.15290436148643494 0.49251824617385864
0.2285940945148468 0.16067424416542053 0.5127557516098022
0.31864404678344727 0.21217362582683563 0.5890556573867798
0.25217679142951965 0.2996860146522522 0.6257609128952026
0.19614696502685547 0.15460515022277832 0.48690107464790344
0.2872973382472992 0.23389853537082672 0.5382772088050842
0.25478512048721313 0.26502957940101624 0.5935221910476685
0.2503204345703125 0.2248755544424057 0.5338521599769592
0.3145698308944702 0.28475120663642883 0.5054910778999329
0.26172348856925964 0.14957477152347565 0.48310017585754395
0.18578872084617615 0.14569750428199768 0.5982258915901184
0.15674850344657898 0.25722256302833557 0.6428185105323792
0.22479255497455597 0.20929208397865295 0.5893286466598511
0.22833485901355743 0.3199893832206726 0.6070286631584167
0.16675105690956116 0.25863412022590637 0.6298330426216125
0.2770322263240814 0.1820858269929886 0.5444009900093079
0.21538999676704407 0.25255271792411804 0.5282571315765381
0.3027172088623047 0.24578799307346344 0.5144005417823792
0.35542163252830505 0.28473928570747375 0.6637177467346191
0.21447600424289703 0.3394334316253662 0.4912656247615814
0.34395894408226013 0.28363513946533203 0.50733882188797
0.36772945523262024 0.27754828333854675 0.5088292360305786
0.2688610851764679 0.22463583946228027 0.578205406665802
0.20058396458625793 0.29086434841156006 0.5059029459953308
0.1986335664987564 0.3099946081638336 0.4754282236099243
0.2500729262828827 0.17524045705795288 0.6447654366493225
0.24995486438274384 0.30565232038497925 0.49468502402305603
0.2670987844467163 0.12608298659324646 0.6405727863311768
0.21705535054206848 0.18849024176597595 0.48451972007751465
0.1793907880783081 0.1494670808315277 0.6076440811157227
0.35257241129875183 0.2816128432750702 0.5429638028144836
0.14306972920894623 0.17807704210281372 0.49065664410591125
0.22342832386493683 0.20910798013210297 0.5723637938499451
0.24082905054092407 0.24790173768997192 0.5593618750572205
0.35289454460144043 0.20824983716011047 0.49756500124931335
0.21980035305023193 0.30267882347106934 0.48726415634155273
0.24153420329093933 0.3118835985660553 0.5839085578918457
0.31070250272750854 0.248506560921669 0.5162104368209839
0.3016510307788849 0.2287464737892151 0.5502271056175232
0.2354341596364975 0.22483743727207184 0.45895981788635254
0.1751875877380371 0.19092540442943573 0.5540001392364502
0.2399592101573944 0.21120211482048035 0.6237760186195374
0.26472726464271545 0.21053621172904968 0.5706294178962708
0.14313672482967377 0.20961526036262512 0.587548017501831
0.1836419552564621 0.30422937870025635 0.4886462688446045
0.23061388731002808 0.22792987525463104 0.6423006653785706
0.1733839064836502 0.2275887280702591 0.5206114053726196
0.18634413182735443 0.3016282916069031 0.5928899645805359
0.34395894408226013 0.28363513946533203 0.50733882188797
0.20135526359081268 0.210325688123703 0.5614659190177917
0.18512269854545593 0.1933370679616928 0.49429842829704285
0.31575265526771545 0.24892698228359222 0.504359245300293
0.19914796948432922 0.1426001489162445 0.5205763578414917
0.23672392964363098 0.1690153181552887 0.5637850165367126
0.31399598717689514 0.2023448348045349 0.6276640295982361
0.2760859727859497 0.28553715348243713 0.6206966042518616
0.2683122754096985 0.2265503853559494 0.5275595188140869
0.23346005380153656 0.2628795802593231 0.47036516666412354
0.3257333040237427 0.2815089821815491 0.6435564160346985
0.33741655945777893 0.15592733025550842 0.5427085757255554
0.2557249665260315 0.1448664665222168 0.47616657614707947
0.15605324506759644 0.1713622510433197 0.46160486340522766
0.330562025308609 0.2323196530342102 0.5354443192481995
0.34377405047416687 0.23522154986858368 0.5797066688537598
0.27574557065963745 0.3038066327571869 0.49770238995552063
0.30952227115631104 0.13317756354808807 0.48364943265914917
0.19614696502685547 0.15460515022277832 0.48690107464790344
0.18634413182735443 0.3016282916069031 0.5928899645805359
0.2503204345703125 0.2248755544424057 0.5338521599769592
0.3145698308944702 0.28475120663642883 0.5054910778999329
0.26172348856925964 0.14957477152347565 0.48310017585754395
0.18578872084617615 0.14569750428199768 0.5982258915901184
0.21804523468017578 0.17417307198047638 0.6006249785423279
0.2569909393787384 0.2717113494873047 0.4611327648162842
0.2574112117290497 0.1756257563829422 0.5929582715034485
0.2508915960788727 0.13387231528759003 0.5722516775131226
0.18120786547660828 0.26075583696365356 0.5635424852371216
0.3750915825366974 0.28075718879699707 0.4725266695022583
0.3104173541069031 0.22623518109321594 0.4634726643562317
0.1878959834575653 0.1794140338897705 0.46598997712135315
0.2865637242794037 0.1290627419948578 0.609200119972229
0.1793907880783081 0.1494670808315277 0.6076440811157227
0.35257241129875183 0.2816128432750702 0.5429638028144836
0.14306972920894623 0.17807704210281372 0.49065664410591125
0.22342832386493683 0.20910798013210297 0.5723637938499451
0.24082905054092407 0.24790173768997192 0.5593618750572205
0.35289454460144043 0.20824983716011047 0.49756500124931335
0.21980035305023193 0.30267882347106934 0.48726415634155273
0.24153420329093933 0.3118835985660553 0.5839085578918457
0.31070250272750854 0.248506560921669 0.5162104368209839
0.3508460521697998 0.2604159116744995 0.4882977306842804
0.32440149784088135 0.1325652152299881 0.5757087469100952
0.24435046315193176 0.19523634016513824 0.5547515153884888
0.3124450147151947 0.12936069071292877 0.6271427273750305
0.1753910481929779 0.21769942343235016 0.5451197624206543
0.21828091144561768 0.20353877544403076 0.5570668578147888
0.16437135636806488 0.25890758633613586 0.5458239316940308
0.32079964876174927 0.20753690600395203 0.4960901439189911
0.18078552186489105 0.257738322019577 0.6316275596618652
0.291324257850647 0.1962011307477951 0.472477525472641
0.2543763220310211 0.2510143220424652 0.4953433871269226
0.20763687789440155 0.14751876890659332 0.5641472935676575
0.34958451986312866 0.25064903497695923 0.5270485281944275
0.28470876812934875 0.2608978748321533 0.5068867206573486
0.28853511810302734 0.2852892279624939 0.5606409311294556
0.21179713308811188 0.3244883716106415 0.5553076267242432
0.31005749106407166 0.23529605567455292 0.5604673624038696
0.16138814389705658 0.2513296604156494 0.5443425178527832
0.28219303488731384 0.14307233691215515 0.4568437337875366
0.28558939695358276 0.15565095841884613 0.6230774521827698
0.14724792540073395 0.20962834358215332 0.5169627070426941
0.24632202088832855 0.31507059931755066 0.642589807510376
0.34395894408226013 0.28363513946533203 0.50733882188797
0.1793907880783081 0.1494670808315277 0.6076440811157227
0.35257241129875183 0.2816128432750702 0.5429638028144836
0.14306972920894623 0.17807704210281372 0.49065664410591125
0.22342832386493683 0.20910798013210297 0.5723637938499451
0.24082905054092407 0.24790173768997192 0.5593618750572205
0.35289454460144043 0.20824983716011047 0.49756500124931335
0.21980035305023193 0.30267882347106934 0.48726415634155273
0.24153420329093933 0.3118835985660553 0.5839085578918457
0.31070250272750854 0.248506560921669 0.5162104368209839
0.3016510307788849 0.2287464737892151 0.5502271056175232
0.2354341596364975 0.22483743727207184 0.45895981788635254
0.1751875877380371 0.19092540442943573 0.5540001392364502
0.2399592101573944 0.21120211482048035 0.6237760186195374
0.26472726464271545 0.21053621172904968 0.5706294178962708
0.14313672482967377 0.20961526036262512 0.587548017501831
0.1836419552564621 0.30422937870025635 0.4886462688446045
0.23061388731002808 0.22792987525463104 0.6423006653785706
0.1733839064836502 0.2275887280702591 0.5206114053726196
0.18634413182735443 0.3016282916069031 0.5928899645805359
0.2503204345703125 0.2248755544424057 0.5338521599769592
0.3145698308944702 0.28475120663642883 0.5054910778999329
0.26172348856925964 0.14957477152347565 0.48310017585754395
0.18578872084617615 0.14569750428199768 0.5982258915901184
0.21804523468017578 0.17417307198047638 0.6006249785423279
0.2569909393787384 0.2717113494873047 0.4611327648162842
0.2574112117290497 0.1756257563829422 0.5929582715034485
0.32175740599632263 0.17837785184383392 0.6406517624855042
0.22778625786304474 0.3046085834503174 0.6163558959960938
0.27683335542678833 0.2687551975250244 0.5861310362815857
0.23904743790626526 0.1405356079339981 0.48954084515571594
0.18442103266716003 0.31146785616874695 0.5449139475822449
0.28424420952796936 0.17640216648578644 0.6479387283325195
0.1793907880783081 0.1494670808315277 0.6076440811157227
0.21473701298236847 0.20286117494106293 0.5492154955863953
0.15922650694847107 0.15770283341407776 0.4612886905670166
0.14468522369861603 0.18662866950035095 0.45270347595214844
0.18776968121528625 0.1787881702184677 0.5863694548606873
0.18007315695285797 0.3016265630722046 0.602433979511261
0.3250710964202881 0.12950775027275085 0.615017294883728
0.3265703320503235 0.12952953577041626 0.6120543479919434
0.35489019751548767 0.253510057926178 0.4934006929397583
0.2475796490907669 0.25255846977233887 0.6522233486175537
0.1950882226228714 0.3378247618675232 0.47964778542518616
0.16443492472171783 0.1791210025548935 0.4839843511581421
0.3143596649169922 0.21415826678276062 0.4786766469478607
0.31769493222236633 0.17765367031097412 0.5401677489280701
0.21824613213539124 0.2593049108982086 0.5292121767997742
0.258333295583725 0.1329900324344635 0.5670657753944397
0.33767077326774597 0.21083369851112366 0.5458844304084778
0.2824728488922119 0.15041431784629822 0.5576110482215881
0.15674850344657898 0.25722256302833557 0.6428185105323792
0.19127586483955383 0.13791804015636444 0.5465919375419617
0.3042179048061371 0.3010401129722595 0.47539767622947693
0.23761601746082306 0.2787400186061859 0.46396780014038086
0.2515702545642853 0.12988638877868652 0.47380730509757996
0.16894355416297913 0.24088959395885468 0.501245379447937
0.20491057634353638 0.19135798513889313 0.459057480096817
0.2309161126613617 0.24596771597862244 0.545877993106842
0.28402289748191833 0.15665337443351746 0.4696502685546875
0.2534383535385132 0.26822423934936523 0.5251247882843018
0.2996605932712555 0.18820957839488983 0.5905746221542358
0.20430545508861542 0.2776970863342285 0.5587785840034485
0.317345529794693 0.18402007222175598 0.5592751502990723
0.20058396458625793 0.29086434841156006 0.5059029459953308
0.18040195107460022 0.29744645953178406 0.48588138818740845
0.260017454624176 0.22203615307807922 0.4603709280490875
0.22243653237819672 0.21180543303489685 0.5468609929084778
0.21975252032279968 0.16600681841373444 0.49064135551452637
0.2763296365737915 0.20752333104610443 0.5259289741516113
0.14964553713798523 0.19180509448051453 0.46632009744644165
0.3238266408443451 0.1247936338186264 0.512539803981781
0.2540470063686371 0.2218015044927597 0.6205588579177856
0.23892691731452942 0.19716204702854156 0.5819548964500427
0.2370210438966751 0.20781902968883514 0.5963646173477173
0.26801320910453796 0.2627507448196411 0.5093103647232056
0.31631723046302795 0.16767452657222748 0.5171500444412231
0.30992597341537476 0.2056075930595398 0.6115200519561768
0.255270391702652 0.25164350867271423 0.646341860294342
0.1528082937002182 0.17808623611927032 0.564371645450592
0.29882094264030457 0.18196885287761688 0.5773007273674011
0.3508290946483612 0.25301817059516907 0.5516451597213745
0.3392099142074585 0.16878758370876312 0.581713855266571
0.19893215596675873 0.24172186851501465 0.6359613537788391
0.2044048309326172 0.3133682608604431 0.5903967618942261
0.30080723762512207 0.1644187867641449 0.4986310303211212
0.2026321142911911 0.18495066463947296 0.45643898844718933
0.19361211359500885 0.21548253297805786 0.4548089802265167
0.21396182477474213 0.25559476017951965 0.5540388822555542
0.33240944147109985 0.27475258708000183 0.4904484748840332
0.33174312114715576 0.2271394282579422 0.6441452503204346
0.24722057580947876 0.14106886088848114 0.6366284489631653
0.3172787129878998 0.17230573296546936 0.5524079203605652
0.2931459844112396 0.23716241121292114 0.5362586379051208
0.19762897491455078 0.30737799406051636 0.5877816677093506
0.14263038337230682 0.17495055496692657 0.5057414770126343
0.21819812059402466 0.15500080585479736 0.5628699660301208
0.24502986669540405 0.30975866317749023 0.567857563495636
0.18916639685630798 0.13498558104038239 0.6453092694282532
0.24139085412025452 0.2768741250038147 0.49970728158950806
0.26633405685424805 0.20885826647281647 0.554802417755127
0.16957597434520721 0.22535185515880585 0.6155449151992798
0.33222848176956177 0.19624590873718262 0.5898622870445251
0.346750408411026 0.2724876403808594 0.4948366582393646
0.26859137415885925 0.16054938733577728 0.5745624303817749
0.20825490355491638 0.2556951344013214 0.6110125184059143
0.16963331401348114 0.2608322203159332 0.6132900714874268
0.24824601411819458 0.3101772665977478 0.6112252473831177
0.29352882504463196 0.26355332136154175 0.5053204298019409
0.2325548529624939 0.3166612386703491 0.5045095086097717
0.14572182297706604 0.16768701374530792 0.4920329451560974
0.3362886905670166 0.19510719180107117 0.5085424184799194
0.2597882151603699 0.30465033650398254 0.5040096044540405
0.2492809295654297 0.30566683411598206 0.6172594428062439
0.3349451720714569 0.13564187288284302 0.45647943019866943
0.3011903762817383 0.19292369484901428 0.6027194857597351
0.17752765119075775 0.2770160734653473 0.616493284702301
0.2512575387954712 0.13641996681690216 0.6178722381591797
0.1733182966709137 0.2834864556789398 0.48918214440345764
0.21624886989593506 0.20211996138095856 0.5404213070869446
0.34161531925201416 0.29138967394828796 0.6091049909591675
0.23288145661354065 0.2867306172847748 0.5822166800498962
0.3413321077823639 0.21039283275604248 0.6299889087677002
0.23406356573104858 0.12950319051742554 0.5963112115859985
0.16907478868961334 0.17020940780639648 0.45176583528518677
0.20026062428951263 0.180532768368721 0.581780731678009
0.20181740820407867 0.17556078732013702 0.5321449637413025
0.2399582415819168 0.15506801009178162 0.5574672222137451
0.18981719017028809 0.1683090180158615 0.45900392532348633
0.24130694568157196 0.3014949858188629 0.6411842703819275
0.2451035976409912 0.1471744030714035 0.4492495059967041
0.27544912695884705 0.320524662733078 0.503275990486145
0.2559052109718323 0.25449639558792114 0.6074627041816711
0.18314284086227417 0.2830285429954529 0.5244929790496826
0.3613036572933197 0.2227252572774887 0.4655257761478424
0.23385173082351685 0.24991469085216522 0.5591428875923157
0.3153923749923706 0.24745222926139832 0.6429555416107178
0.3670300543308258 0.28262752294540405 0.5134261846542358
0.25140661001205444 0.1365586519241333 0.594137966632843
0.34797152876853943 0.2526918053627014 0.5835345983505249
0.23233304917812347 0.22042126953601837 0.5959352254867554
0.19215716421604156 0.3173561096191406 0.6348089575767517
0.3174707889556885 0.15033204853534698 0.5950319766998291
0.314589262008667 0.14189234375953674 0.6199786067008972
0.21866971254348755 0.27322015166282654 0.6146067976951599
0.1868067979812622 0.23643234372138977 0.6322741508483887
0.3245861828327179 0.25425124168395996 0.6020979285240173
0.27283233404159546 0.2166208177804947 0.5815097689628601
0.289162814617157 0.2170523852109909 0.5996198654174805
0.3035021126270294 0.25181707739830017 0.6434767842292786
0.14549311995506287 0.21123266220092773 0.6437146663665771
0.33043211698532104 0.20052725076675415 0.5579077005386353
0.21139757335186005 0.18830746412277222 0.5543344020843506
0.27873703837394714 0.2779408395290375 0.48321592807769775
0.22245000302791595 0.24555571377277374 0.592348039150238
0.15890875458717346 0.2308284193277359 0.44757863879203796
0.250461608171463 0.28800690174102783 0.463162899017334
0.2017570286989212 0.24386200308799744 0.5516284704208374
0.17101611196994781 0.20393019914627075 0.4588601291179657
0.29732847213745117 0.289235383272171 0.5364851355552673
0.24082905054092407 0.24790173768997192 0.5593618750572205
0.2503204345703125 0.2248755544424057 0.5338521599769592
0.3145698308944702 0.28475120663642883 0.5054910778999329
0.26172348856925964 0.14957477152347565 0.48310017585754395
0.18578872084617615 0.14569750428199768 0.5982258915901184
0.21804523468017578 0.17417307198047638 0.6006249785423279
0.2569909393787384 0.2717113494873047 0.4611327648162842
0.33751389384269714 0.25511518120765686 0.6340087056159973
0.36393266916275024 0.26561981439590454 0.463068425655365
0.2295309603214264 0.21471574902534485 0.5680425763130188
0.2553250193595886 0.16553784906864166 0.6044280529022217
0.2803080677986145 0.2404119074344635 0.5400010943412781
0.22118724882602692 0.2596971094608307 0.5951567888259888
0.19932416081428528 0.20648902654647827 0.6121942400932312
0.2642730176448822 0.1680198609828949 0.5120236873626709
0.3588484525680542 0.26430702209472656 0.5858572125434875
0.2192133069038391 0.2639543116092682 0.4840613603591919
0.14818507432937622 0.14687728881835938 0.6309022903442383
0.20081914961338043 0.2332802265882492 0.45308348536491394
0.23731964826583862 0.26457950472831726 0.5457099080085754
0.3309037685394287 0.16241642832756042 0.49639955163002014
0.27945244312286377 0.15151359140872955 0.5937371253967285
0.27330926060676575 0.21113407611846924 0.5261632800102234
0.30596867203712463 0.258512407541275 0.5216239094734192
0.1967475414276123 0.16137272119522095 0.5664684772491455
0.24668018519878387 0.28921228647232056 0.6521766781806946
0.3436889946460724 0.1872868537902832 0.5419014096260071
0.20332641899585724 0.3182068169116974 0.5601385831832886
0.29675257205963135 0.1686876118183136 0.5288243293762207
0.24878829717636108 0.18303611874580383 0.4593592882156372
0.17613641917705536 0.26766282320022583 0.46950089931488037
0.19367428123950958 0.34448668360710144 0.5012244582176208
0.34903886914253235 0.26946765184402466 0.49660781025886536
0.2886846363544464 0.20944064855575562 0.5581743717193604
0.33751389384269714 0.25511518120765686 0.6340087056159973
0.36393266916275024 0.26561981439590454 0.463068425655365
0.2295309603214264 0.21471574902534485 0.5680425763130188
0.2386002391576767 0.18322978913784027 0.5558540225028992
0.19633331894874573 0.2961893677711487 0.4868653416633606
0.30858829617500305 0.19171243906021118 0.49941250681877136
0.24975179135799408 0.30108845233917236 0.6579149961471558
0.23703478276729584 0.16699108481407166 0.5206431150436401
0.17704476416110992 0.2183198183774948 0.5667698979377747
0.23753729462623596 0.22096455097198486 0.6218684315681458
0.23413096368312836 0.2697046399116516 0.49550482630729675
0.18696051836013794 0.20574621856212616 0.5044623017311096
0.24184183776378632 0.19506123661994934 0.6350723505020142
0.3149416148662567 0.15582026541233063 0.4906667470932007
0.30715304613113403 0.2134278565645218 0.6533361673355103
0.23192504048347473 0.24644742906093597 0.5439919829368591
0.32339656352996826 0.1572849452495575 0.6099441051483154
0.3057743012905121 0.25536680221557617 0.6036368012428284
0.2658628821372986 0.19886061549186707 0.5140321850776672
0.2773301601409912 0.20685988664627075 0.5539544820785522
0.3062324821949005 0.2726517617702484 0.6543929576873779
0.22907866537570953 0.29495614767074585 0.49189046025276184
0.18295994400978088 0.2615247368812561 0.6139527559280396
0.3073654770851135 0.2813539206981659 0.49204081296920776
0.17124775052070618 0.24375203251838684 0.6039414405822754
0.21398380398750305 0.14091575145721436 0.5568642020225525
0.1931934505701065 0.31719252467155457 0.5032072067260742
0.2185433804988861 0.25046446919441223 0.6002604365348816
0.14103013277053833 0.1559625267982483 0.5495129227638245
0.26383811235427856 0.15876680612564087 0.4598497152328491
0.19614696502685547 0.15460515022277832 0.48690107464790344
0.22833485901355743 0.3199893832206726 0.6070286631584167
0.16675105690956116 0.25863412022590637 0.6298330426216125
0.3240940272808075 0.2621375620365143 0.566255509853363
0.31080904603004456 0.14094269275665283 0.45332714915275574
0.320369154214859 0.12944276630878448 0.5076172947883606
0.14117294549942017 0.15496936440467834 0.6384921073913574
0.21276113390922546 0.27102571725845337 0.5632410049438477
0.2795464098453522 0.27388355135917664 0.5736976265907288
0.2314233034849167 0.2991049587726593 0.5370897054672241
0.17856135964393616 0.16727474331855774 0.4528971016407013
0.21792000532150269 0.17071393132209778 0.535158634185791
0.3498270809650421 0.21280688047409058 0.5977252125740051
0.25099271535873413 0.18431521952152252 0.5509259104728699
0.27070215344429016 0.20790039002895355 0.4564146101474762
0.27463579177856445 0.2974017560482025 0.5599045157432556
0.3408982753753662 0.18097451329231262 0.5299437046051025
0.2759803235530853 0.13418899476528168 0.47516635060310364
0.1891624927520752 0.26253199577331543 0.5645394921302795
0.14953619241714478 0.1738504022359848 0.5196361541748047
0.31999146938323975 0.1744459569454193 0.578061580657959
0.22531108558177948 0.2935378849506378 0.6297959685325623
0.2527894973754883 0.22764743864536285 0.6193702816963196
0.35241585969924927 0.2643373906612396 0.6099915504455566
0.2377481311559677 0.31356513500213623 0.6425567269325256
0.32373595237731934 0.2308521270751953 0.526767373085022
0.2397463470697403 0.26886075735092163 0.5850640535354614
0.23735907673835754 0.29147031903266907 0.6274872422218323
0.24521273374557495 0.3046565353870392 0.5781785845756531
0.2790619432926178 0.2288011908531189 0.5059748291969299
0.18518245220184326 0.22533592581748962 0.4776793122291565
0.274651437997818 0.24545079469680786 0.52532559633255
0.3145698308944702 0.28475120663642883 0.5054910778999329
0.2653525173664093 0.31408077478408813 0.5650104880332947
0.20511339604854584 0.3303880989551544 0.5227494239807129
0.32732704281806946 0.204856738448143 0.5549405217170715
0.15771202743053436 0.17578758299350739 0.5981230735778809
0.1775738149881363 0.2555043697357178 0.5827099680900574
0.25790053606033325 0.19128704071044922 0.6360512971878052
0.2865886688232422 0.1865980625152588 0.5928338170051575
0.2056158185005188 0.21361394226551056 0.5723478198051453
0.2935234308242798 0.12671704590320587 0.54136061668396
0.3099929690361023 0.21367666125297546 0.4599277973175049
0.32474252581596375 0.21526293456554413 0.6243621706962585
0.24333356320858002 0.27016472816467285 0.6062302589416504
0.2611508071422577 0.15195901691913605 0.5886120200157166
0.3107275664806366 0.2502918541431427 0.48599305748939514
0.18211138248443604 0.2665141820907593 0.5955883264541626
0.15983809530735016 0.24709440767765045 0.5782755613327026
0.24658258259296417 0.19979287683963776 0.5611472129821777
0.32989874482154846 0.24327483773231506 0.6400901675224304
0.30817219614982605 0.16481547057628632 0.6293082237243652
0.1897854059934616 0.3006594181060791 0.6306653022766113
0.31265902519226074 0.2982332110404968 0.5988974571228027
0.24993547797203064 0.24104589223861694 0.5041800141334534
0.23941700160503387 0.14134106040000916 0.48774826526641846
0.20839062333106995 0.2010190635919571 0.5302503705024719
0.3002969026565552 0.17969325184822083 0.5677486658096313
0.2902584969997406 0.2181510478258133 0.4745001792907715
0.1640740931034088 0.1897122859954834 0.46818551421165466
0.292357861995697 0.12224268913269043 0.6173359155654907
0.18173503875732422 0.24935191869735718 0.47154518961906433
0.24772191047668457 0.23127146065235138 0.6153600215911865
0.276764452457428 0.2172088772058487 0.6383363604545593
0.320369154214859 0.12944276630878448 0.5076172947883606
0.3498270809650421 0.21280688047409058 0.5977252125740051
0.25099271535873413 0.18431521952152252 0.5509259104728699
0.19779567420482635 0.3271843492984772 0.5424988865852356
0.2049042284488678 0.2479362189769745 0.6048800349235535
0.19961395859718323 0.2900407612323761 0.4834076464176178
0.3300143778324127 0.13775192201137543 0.4716530740261078
0.3405994772911072 0.19518229365348816 0.5731355547904968
0.14346566796302795 0.16875995695590973 0.6408546566963196
0.3165757358074188 0.17883725464344025 0.5855081081390381
0.19833558797836304 0.2752743065357208 0.5986962914466858
0.2722339928150177 0.272916316986084 0.4917086064815521
0.23261213302612305 0.229326993227005 0.47623613476753235
0.322018027305603 0.11756201833486557 0.5080359578132629
0.16339711844921112 0.1426984816789627 0.6141952872276306
0.22523142397403717 0.3148135840892792 0.4605605900287628
0.18519282341003418 0.23134849965572357 0.5050255060195923
0.16602301597595215 0.26482880115509033 0.6250731348991394
0.31344324350357056 0.12205429375171661 0.5272607803344727
0.22115308046340942 0.16269050538539886 0.5545486807823181
0.1553874909877777 0.1500915139913559 0.6428453922271729
0.18125051259994507 0.18627208471298218 0.5639752149581909
0.2865367531776428 0.23238345980644226 0.4655802845954895
0.1515752673149109 0.21784546971321106 0.5069958567619324
0.2612963318824768 0.20231316983699799 0.6535125374794006
0.19539906084537506 0.14271180331707 0.6279441714286804
0.19428859651088715 0.3282196819782257 0.464388906955719
0.27718907594680786 0.3175210952758789 0.5373550057411194
0.2959398031234741 0.28093740344047546 0.6369815468788147
0.2530057728290558 0.12443246692419052 0.6120279431343079
0.29150915145874023 0.223923921585083 0.5566027164459229
0.31800997257232666 0.13994842767715454 0.6552853584289551
0.2056158185005188 0.21361394226551056 0.5723478198051453
0.2699635624885559 0.15513940155506134 0.634617030620575
0.2217036336660385 0.2211838811635971 0.643567681312561
0.21254485845565796 0.147290900349617 0.6019240021705627
0.23150019347667694 0.3145693838596344 0.5293099284172058
0.2228255420923233 0.2671932280063629 0.583162784576416
0.22423335909843445 0.29341191053390503 0.47727054357528687
0.2498234361410141 0.2894095778465271 0.594533383846283
0.2281333953142166 0.18542329967021942 0.5731199383735657
0.21520300209522247 0.33477693796157837 0.5689577460289001
0.32571715116500854 0.19005490839481354 0.5013138651847839
0.21080167591571808 0.2017591893672943 0.4631878435611725
0.20466499030590057 0.22685983777046204 0.5160154104232788
0.1819944530725479 0.17108289897441864 0.4857277274131775
0.3549330532550812 0.2390889972448349 0.5288364887237549
0.3398810029029846 0.2828446328639984 0.4988904595375061
0.17413218319416046 0.15563100576400757 0.6329828500747681
0.3002969026565552 0.17969325184822083 0.5677486658096313
0.2902584969997406 0.2181510478258133 0.4745001792907715
0.1640740931034088 0.1897122859954834 0.46818551421165466
0.292357861995697 0.12224268913269043 0.6173359155654907
0.18173503875732422 0.24935191869735718 0.47154518961906433
0.24772191047668457 0.23127146065235138 0.6153600215911865
0.276764452457428 0.2172088772058487 0.6383363604545593
0.368453711271286 0.25136280059814453 0.5127893090248108
0.3373534083366394 0.16518303751945496 0.47390279173851013
0.23721793293952942 0.20148871839046478 0.49810364842414856
0.27878326177597046 0.2167944312095642 0.6067088842391968
0.27052751183509827 0.30179286003112793 0.4674147963523865
0.27599838376045227 0.29164355993270874 0.5286644101142883
0.18698304891586304 0.20276635885238647 0.463034987449646
0.280779629945755 0.2949554920196533 0.5677902102470398
0.18549437820911407 0.2707763612270355 0.5379137992858887
0.25210681557655334 0.1412108987569809 0.5860986709594727
0.3521300256252289 0.29140207171440125 0.6084342002868652
0.2994883358478546 0.16591870784759521 0.4669414460659027
0.30266860127449036 0.11779814958572388 0.6102352142333984
0.1707337647676468 0.2323281168937683 0.5176882743835449
0.30980849266052246 0.17679083347320557 0.5937190055847168
0.23626598715782166 0.18842782080173492 0.5923283696174622
0.34745627641677856 0.22208060324192047 0.6276465654373169
0.35936790704727173 0.22267501056194305 0.4872477054595947
0.24176117777824402 0.1598219871520996 0.4667067229747772
0.3292062282562256 0.17880535125732422 0.6141873002052307
0.34762588143348694 0.29446378350257874 0.4716040790081024
0.29929202795028687 0.269572913646698 0.5119161605834961
0.2544916868209839 0.296244353055954 0.6009097695350647
0.16117048263549805 0.21644651889801025 0.5726721882820129
0.3374055027961731 0.22786326706409454 0.6358482837677002
0.21291089057922363 0.2416985183954239 0.45418429374694824
0.23092441260814667 0.2684054374694824 0.46206799149513245
0.28449082374572754 0.21394649147987366 0.639586329460144
0.2694678008556366 0.21485371887683868 0.6168418526649475
0.31296560168266296 0.14901041984558105 0.46443694829940796
0.18509064614772797 0.25609126687049866 0.5582569241523743
0.29475486278533936 0.2368030846118927 0.5962997674942017
0.24852818250656128 0.30326566100120544 0.6015713214874268
0.13974474370479584 0.1621013879776001 0.46762654185295105
0.19600121676921844 0.24731001257896423 0.5875382423400879
0.20222589373588562 0.2576786279678345 0.6369879841804504
0.14418351650238037 0.18648026883602142 0.5623334050178528
0.32196328043937683 0.271779328584671 0.4835849702358246
0.22613152861595154 0.24007801711559296 0.5856665968894958
0.19725997745990753 0.21023690700531006 0.5774800181388855
0.2628479599952698 0.2899751365184784 0.505527913570404
0.26232948899269104 0.15621937811374664 0.6318720579147339
0.28635555505752563 0.15873092412948608 0.47319599986076355
0.25164783000946045 0.18607479333877563 0.5256568789482117
0.21060720086097717 0.2002945989370346 0.5447302460670471
0.30411913990974426 0.16728512942790985 0.5600435733795166
0.33646437525749207 0.14502476155757904 0.5355881452560425
0.1515752673149109 0.21784546971321106 0.5069958567619324
0.2612963318824768 0.20231316983699799 0.6535125374794006
0.2044048309326172 0.3133682608604431 0.5903967618942261
0.30110543966293335 0.2571168541908264 0.5199001431465149
0.19361211359500885 0.21548253297805786 0.4548089802265167
0.17092986404895782 0.27465754747390747 0.526951014995575
0.28006118535995483 0.164372980594635 0.4878014922142029
0.19990700483322144 0.15953415632247925 0.5165582895278931
0.3266209661960602 0.2970513105392456 0.6385653614997864
0.27993685007095337 0.20294228196144104 0.4565727710723877
0.3362605571746826 0.2526523470878601 0.6119660139083862
0.32946527004241943 0.16353292763233185 0.5465617179870605
0.20390449464321136 0.2509273886680603 0.6027289628982544
0.2395077496767044 0.14009995758533478 0.49549752473831177
0.2356702834367752 0.2889542877674103 0.6210843324661255
0.30730706453323364 0.18367139995098114 0.5387243032455444
0.23708072304725647 0.17989729344844818 0.4579083025455475
0.15516787767410278 0.1788852959871292 0.46220824122428894
0.2664853632450104 0.2582591772079468 0.5043674111366272
0.22091837227344513 0.283314049243927 0.5981647372245789
0.3586142957210541 0.2294815629720688 0.4887506663799286
0.30435144901275635 0.25619837641716003 0.6037812829017639
0.3183012306690216 0.16074122488498688 0.6410072445869446
0.19032587110996246 0.19425815343856812 0.5747647881507874
0.28028151392936707 0.19938823580741882 0.5149337649345398
0.3011903762817383 0.19292369484901428 0.6027194857597351
0.2694678008556366 0.21485371887683868 0.6168418526649475
0.31296560168266296 0.14901041984558105 0.46443694829940796
0.18509064614772797 0.25609126687049866 0.5582569241523743
0.29475486278533936 0.2368030846118927 0.5962997674942017
0.24852818250656128 0.30326566100120544 0.6015713214874268
0.13974474370479584 0.1621013879776001 0.46762654185295105
0.19600121676921844 0.24731001257896423 0.5875382423400879
0.20222589373588562 0.2576786279678345 0.6369879841804504
0.14418351650238037 0.18648026883602142 0.5623334050178528
0.32196328043937683 0.271779328584671 0.4835849702358246
0.22613152861595154 0.24007801711559296 0.5856665968894958
0.19865597784519196 0.19561566412448883 0.6325832605361938
0.3092982769012451 0.18070609867572784 0.5474804043769836
0.23393097519874573 0.2878052592277527 0.5325883626937866
0.315315842628479 0.18922290205955505 0.5467360019683838
0.3063896894454956 0.28546881675720215 0.5142034292221069
0.2913404107093811 0.13627144694328308 0.4540145695209503
0.2150169163942337 0.32763949036598206 0.4794115722179413
0.20801697671413422 0.25083470344543457 0.6047511100769043
0.14886711537837982 0.16423195600509644 0.4904993176460266
0.3157760202884674 0.12775425612926483 0.641700804233551
0.2785443663597107 0.2229911983013153 0.606784999370575
0.20621047914028168 0.3367404043674469 0.5413873195648193
0.2662910521030426 0.2778281569480896 0.5589746236801147
0.24981608986854553 0.29960739612579346 0.500954270362854
0.15464985370635986 0.227943554520607 0.5265962481498718
0.1491951197385788 0.16512304544448853 0.5035127401351929
0.17774546146392822 0.16598714888095856 0.4597756266593933
0.19767911732196808 0.2977542281150818 0.5042150020599365
0.3432787358760834 0.18985360860824585 0.6294165849685669
0.26270440220832825 0.26481834053993225 0.5799583792686462
0.1528082937002182 0.17808623611927032 0.564371645450592
0.21291089057922363 0.2416985183954239 0.45418429374694824
0.23092441260814667 0.2684054374694824 0.46206799149513245
0.28449082374572754 0.21394649147987366 0.639586329460144
0.2694678008556366 0.21485371887683868 0.6168418526649475
0.31296560168266296 0.14901041984558105 0.46443694829940796
0.18509064614772797 0.25609126687049866 0.5582569241523743
0.29475486278533936 0.2368030846118927 0.5962997674942017
0.24852818250656128 0.30326566100120544 0.6015713214874268
0.13974474370479584 0.1621013879776001 0.46762654185295105
0.19600121676921844 0.24731001257896423 0.5875382423400879
0.20222589373588562 0.2576786279678345 0.6369879841804504
0.14418351650238037 0.18648026883602142 0.5623334050178528
0.32196328043937683 0.271779328584671 0.4835849702358246
0.22613152861595154 0.24007801711559296 0.5856665968894958
0.19725997745990753 0.21023690700531006 0.5774800181388855
0.15845292806625366 0.1609518975019455 0.5481090545654297
0.30728545784950256 0.22241078317165375 0.5237305164337158
0.16701708734035492 0.2557096779346466 0.48086604475975037
0.2706579864025116 0.18665030598640442 0.4998665452003479
0.2798020541667938 0.2336399257183075 0.5501695871353149
0.29167988896369934 0.14683622121810913 0.5126734375953674
0.2934821546077728 0.1179998442530632 0.6499972343444824
0.3636806905269623 0.2884764075279236 0.5663070678710938
0.15242314338684082 0.21798720955848694 0.5408833622932434
0.26667729020118713 0.2725774943828583 0.5198686718940735
0.23720036447048187 0.20688380300998688 0.5376405715942383
0.3477459251880646 0.27755749225616455 0.5888634920120239
0.33968567848205566 0.2595480978488922 0.49026235938072205
0.2361409068107605 0.22288325428962708 0.6043419241905212
0.23677507042884827 0.154767245054245 0.4715563952922821
0.1502249538898468 0.22345177829265594 0.5349611043930054
0.3666124939918518 0.28743502497673035 0.5341653227806091
0.2530057728290558 0.12443246692419052 0.6120279431343079
0.34334129095077515 0.2676621973514557 0.6255586743354797
0.276764452457428 0.2172088772058487 0.6383363604545593
0.368453711271286 0.25136280059814453 0.5127893090248108
0.3373534083366394 0.16518303751945496 0.47390279173851013
0.23721793293952942 0.20148871839046478 0.49810364842414856
0.2278299480676651 0.24134290218353271 0.5405171513557434
0.18619516491889954 0.24425272643566132 0.6205222010612488
0.19457882642745972 0.2080124169588089 0.4962286353111267
0.327534943819046 0.1607709378004074 0.571954071521759
