ply
format ascii 1.0
element vertex 829
property float x
property float y
property float z
end_header
0.7691532373428345 0.2521204650402069 0.40516969561576843
0.7558146119117737 0.13034997880458832 0.5406621098518372
0.6657540798187256 0.16791166365146637 0.39022064208984375
0.6820746660232544 0.1703549176454544 0.5312382578849792
0.7074642181396484 0.28623950481414795 0.5161332488059998
0.7006159424781799 0.2354167252779007 0.508353590965271
0.7416148781776428 0.32457712292671204 0.5121399164199829
0.7596162557601929 0.13563279807567596 0.49545174837112427
0.8005338311195374 0.2314457893371582 0.3997235894203186
0.7614769339561462 0.17468006908893585 0.39365315437316895
0.7709619998931885 0.21990352869033813 0.49195578694343567
0.6664946675300598 0.2529202401638031 0.41315385699272156
0.8000863790512085 0.2978637218475342 0.44861429929733276
0.6941334009170532 0.23067617416381836 0.3321995437145233
0.7377827167510986 0.27900686860084534 0.4898082911968231
0.7575690150260925 0.2885635197162628 0.44281479716300964
0.7250304222106934 0.23902761936187744 0.49507027864456177
0.6735200881958008 0.1833534836769104 0.3553590178489685
0.7026203870773315 0.23694303631782532 0.4266452193260193
0.6396821141242981 0.24360674619674683 0.3637564778327942
0.7240535616874695 0.18967145681381226 0.4279623031616211
0.7880263328552246 0.22778894007205963 0.5032610297203064
0.7315943837165833 0.24995140731334686 0.4877503514289856
0.8172309398651123 0.18877173960208893 0.3781365752220154
0.6547849178314209 0.2057451754808426 0.43448543548583984
0.7552006244659424 0.16691680252552032 0.427847295999527
0.7065865993499756 0.29805988073349 0.4175027310848236
0.7913663387298584 0.1651817411184311 0.3938114643096924
0.6558414101600647 0.11979265511035919 0.4362041652202606
0.6610523462295532 0.12933342158794403 0.35237306356430054
0.7552821636199951 0.1852879822254181 0.5732129812240601
0.7280803918838501 0.15009449422359467 0.5284013748168945
0.6469331383705139 0.23620131611824036 0.39417925477027893
0.6294522285461426 0.3016352355480194 0.4779488444328308
0.7534379959106445 0.17495490610599518 0.4917822778224945
0.7033052444458008 0.2521021068096161 0.3812497854232788
0.6601583957672119 0.3023459315299988 0.4577634036540985
0.6997803449630737 0.19156377017498016 0.37737178802490234
0.6891783475875854 0.177183136343956 0.4125136435031891
0.7429575324058533 0.1941448301076889 0.38549357652664185
0.794718325138092 0.24332420527935028 0.3606799244880676
0.7128701210021973 0.1172371432185173 0.48017340898513794
0.7689601182937622 0.16859829425811768 0.4195796847343445
0.7273992300033569 0.11834602057933807 0.45933690667152405
0.7089971303939819 0.23120012879371643 0.4042864739894867
0.6964145302772522 0.3011832535266876 0.46121746301651
0.6283694505691528 0.3106215000152588 0.46472278237342834
0.6698315739631653 0.16048601269721985 0.54510098695755
0.7584843039512634 0.1537754386663437 0.589286744594574
0.8024951815605164 0.22741441428661346 0.47572967410087585
0.6229882836341858 0.25889045000076294 0.44939106702804565
0.7808637619018555 0.1577480137348175 0.4879661202430725
0.7262793183326721 0.20681887865066528 0.43060028553009033
0.6846458911895752 0.1543196737766266 0.5157943367958069
0.7384678721427917 0.23390401899814606 0.48961374163627625
0.7487308979034424 0.1595376431941986 0.5838056802749634
0.6411780714988708 0.16968047618865967 0.52818763256073
0.7463690042495728 0.25556880235671997 0.5244320631027222
0.7568053603172302 0.14743322134017944 0.3724755346775055
0.6828752756118774 0.17346060276031494 0.46304914355278015
0.7152096033096313 0.23920071125030518 0.49802109599113464
0.694333016872406 0.21406050026416779 0.5155676007270813
0.790550947189331 0.25431039929389954 0.42389699816703796
0.816094160079956 0.23569820821285248 0.4296792447566986
0.6526593565940857 0.19239237904548645 0.5015866160392761
0.6382601857185364 0.19166012108325958 0.46236851811408997
0.710678219795227 0.12371222674846649 0.4400447905063629
0.7346185445785522 0.2500286102294922 0.4641120135784149
0.6598636507987976 0.2605680525302887 0.42649170756340027
0.8065787553787231 0.1299336552619934 0.43554893136024475
0.8001977801322937 0.26327940821647644 0.3865831792354584
0.671663224697113 0.18934942781925201 0.5371489524841309
0.7191230654716492 0.2747930884361267 0.38542231917381287
0.7893749475479126 0.1553637981414795 0.4800398349761963
0.7930899858474731 0.18036100268363953 0.4422551691532135
0.7346287965774536 0.12127617001533508 0.517315685749054
0.6452671885490417 0.13824611902236938 0.5058484673500061
0.7354660034179688 0.1742984503507614 0.39685192704200745
0.7422134280204773 0.2845214903354645 0.5205308198928833
0.6623475551605225 0.18164874613285065 0.4826068878173828
0.7035537958145142 0.18439581990242004 0.43800708651542664
0.6326982378959656 0.17420044541358948 0.534515380859375
0.6955188512802124 0.14240939915180206 0.36865633726119995
0.8144543766975403 0.14158840477466583 0.4185277819633484
0.6543650031089783 0.1326792687177658 0.38733959197998047
0.6981378197669983 0.24524983763694763 0.5341768860816956
0.7463374733924866 0.2359836846590042 0.4106363356113434
0.7910289764404297 0.26297491788864136 0.42410939931869507
0.7972744703292847 0.12254490703344345 0.5149040818214417
0.6585806608200073 0.2234199196100235 0.43963557481765747
0.8048672080039978 0.10663639008998871 0.43074139952659607
0.6521052122116089 0.19388505816459656 0.4725642502307892
0.7766230702400208 0.24135509133338928 0.42903652787208557
0.7788446545600891 0.2659481465816498 0.49348148703575134
0.7668367624282837 0.19009341299533844 0.42975425720214844
0.6215556859970093 0.29821592569351196 0.46897590160369873
0.607994019985199 0.28215256333351135 0.4663223922252655
0.6374750137329102 0.22221356630325317 0.3643825948238373
0.650475800037384 0.2532906234264374 0.37194791436195374
0.633109986782074 0.2482001781463623 0.46557489037513733
0.6330827474594116 0.21929216384887695 0.46101707220077515
0.8065468668937683 0.19103631377220154 0.4006686210632324
0.6209046840667725 0.18002820014953613 0.4413560628890991
0.7723312377929688 0.11251672357320786 0.4802744388580322
0.6938173174858093 0.16836640238761902 0.49431172013282776
0.778770387172699 0.12716169655323029 0.5254582166671753
0.6609601974487305 0.19147585332393646 0.42458873987197876
0.7420657873153687 0.11322793364524841 0.3830357491970062
0.7835919260978699 0.15663611888885498 0.5110082626342773
0.6324349045753479 0.25702670216560364 0.3886644244194031
0.6930687427520752 0.15452373027801514 0.5473503470420837
0.8008132576942444 0.2435680627822876 0.3578399419784546
0.7704204320907593 0.20960815250873566 0.47953349351882935
0.7651267051696777 0.32660621404647827 0.5220276117324829
0.6983242034912109 0.23789095878601074 0.3117806017398834
0.7701458930969238 0.22942927479743958 0.4186515510082245
0.6601008772850037 0.3031481206417084 0.4412669241428375
0.8145477175712585 0.10982256382703781 0.4339699447154999
0.7954568266868591 0.15054835379123688 0.42010247707366943
0.683474063873291 0.2267022728919983 0.49673017859458923
0.7818442583084106 0.23445434868335724 0.4927480220794678
0.6714457869529724 0.18383632600307465 0.49197784066200256
0.6328638792037964 0.2472948282957077 0.42743074893951416
0.7855883836746216 0.186288982629776 0.5309494137763977
0.7722890973091125 0.240229532122612 0.5167655944824219
0.6478063464164734 0.21762476861476898 0.42055264115333557
0.7640312910079956 0.18458020687103271 0.4671626091003418
0.7729827165603638 0.2787805199623108 0.54286789894104
0.6637777090072632 0.30230948328971863 0.4501184821128845
0.7244486212730408 0.2450903207063675 0.482805460691452
0.6024336814880371 0.13800933957099915 0.5361233949661255
0.6928856372833252 0.28250405192375183 0.4667365252971649
0.7658678889274597 0.14180594682693481 0.40729665756225586
0.6260480880737305 0.23565593361854553 0.4762842357158661
0.6446629762649536 0.1823071986436844 0.5106539726257324
0.6837589144706726 0.28076475858688354 0.4187222719192505
0.811323881149292 0.12044491618871689 0.43352988362312317
0.6827297210693359 0.1153767928481102 0.39743950963020325
0.7298386693000793 0.18901848793029785 0.4680902361869812
0.657483696937561 0.23831655085086823 0.5231003761291504
0.6233922243118286 0.1809399276971817 0.5343230962753296
0.7942503690719604 0.21007221937179565 0.45107701420783997
0.7094182372093201 0.2278323769569397 0.391622394323349
0.6790969371795654 0.23796270787715912 0.307545006275177
0.6526135206222534 0.1488896906375885 0.3602743148803711
0.6930446624755859 0.23891054093837738 0.3695198893547058
0.643453061580658 0.206611767411232 0.4537660777568817
0.822269082069397 0.2619156837463379 0.35002246499061584
0.611706018447876 0.14564906060695648 0.4730137586593628
0.6636250615119934 0.23006363213062286 0.4950091540813446
0.7235071063041687 0.19111771881580353 0.343011736869812
0.7424176335334778 0.22114716470241547 0.458523690700531
0.628530740737915 0.14659643173217773 0.5041776299476624
0.737136721611023 0.2564900815486908 0.3578328788280487
0.7531577944755554 0.3083508312702179 0.48572465777397156
0.6379093527793884 0.17305248975753784 0.49459463357925415
0.7566385269165039 0.3105037212371826 0.5107864737510681
0.6822995543479919 0.29311299324035645 0.48772794008255005
0.609693169593811 0.15846635401248932 0.45984506607055664
0.7951036691665649 0.22009289264678955 0.49664604663848877
0.6015593409538269 0.28480666875839233 0.45024725794792175
0.7301616668701172 0.21065297722816467 0.3772677481174469
0.7132810950279236 0.2475963532924652 0.46095582842826843
0.6467692852020264 0.19331485033035278 0.4602561295032501
0.6369573473930359 0.2842561602592468 0.4300752878189087
0.6649175882339478 0.15348772704601288 0.471157044172287
0.7166536450386047 0.26437699794769287 0.48533040285110474
0.6164591908454895 0.31588074564933777 0.4494723379611969
0.6846458911895752 0.1543196737766266 0.5157943367958069
0.7384678721427917 0.23390401899814606 0.48961374163627625
0.7487308979034424 0.1595376431941986 0.5838056802749634
0.6411780714988708 0.16968047618865967 0.52818763256073
0.6575485467910767 0.14018546044826508 0.5276078581809998
0.7834547162055969 0.2258043885231018 0.41266024112701416
0.8087151646614075 0.22690033912658691 0.46163859963417053
0.6031839847564697 0.14384128153324127 0.4929928183555603
0.721376359462738 0.19139574468135834 0.47928205132484436
0.674085259437561 0.2593823969364166 0.36514684557914734
0.6698572635650635 0.19086071848869324 0.49275100231170654
0.7854161858558655 0.2850485146045685 0.4958867132663727
0.7137871980667114 0.2516123056411743 0.42647817730903625
0.798554003238678 0.230172798037529 0.38428956270217896
0.8045140504837036 0.2292029857635498 0.42074277997016907
0.735618531703949 0.14191113412380219 0.4402315020561218
0.7882215976715088 0.2525169253349304 0.4705286920070648
0.6371263861656189 0.2925351560115814 0.4207627475261688
0.7951036691665649 0.22009289264678955 0.49664604663848877
0.6015593409538269 0.28480666875839233 0.45024725794792175
0.7301616668701172 0.21065297722816467 0.3772677481174469
0.7132810950279236 0.2475963532924652 0.46095582842826843
0.6467692852020264 0.19331485033035278 0.4602561295032501
0.6369573473930359 0.2842561602592468 0.4300752878189087
0.6649175882339478 0.15348772704601288 0.471157044172287
0.7632712125778198 0.28037378191947937 0.45716357231140137
0.6846458911895752 0.1543196737766266 0.5157943367958069
0.7384678721427917 0.23390401899814606 0.48961374163627625
0.7487308979034424 0.1595376431941986 0.5838056802749634
0.6411780714988708 0.16968047618865967 0.52818763256073
0.7463690042495728 0.25556880235671997 0.5244320631027222
0.7714040875434875 0.20496299862861633 0.4579232931137085
0.7360364198684692 0.22900883853435516 0.4546501040458679
0.7123235464096069 0.13863268494606018 0.4612148404121399
0.7247081995010376 0.18494196236133575 0.49509182572364807
0.674085259437561 0.2593823969364166 0.36514684557914734
0.6698572635650635 0.19086071848869324 0.49275100231170654
0.7854161858558655 0.2850485146045685 0.4958867132663727
0.7137871980667114 0.2516123056411743 0.42647817730903625
0.798554003238678 0.230172798037529 0.38428956270217896
0.8045140504837036 0.2292029857635498 0.42074277997016907
0.8148053288459778 0.14357441663742065 0.431435763835907
0.6559289693832397 0.24787276983261108 0.41988351941108704
0.8153679370880127 0.22706039249897003 0.4127591848373413
0.7366651296615601 0.1403164267539978 0.44270992279052734
0.7658490538597107 0.2021496742963791 0.521900475025177
0.6286637783050537 0.18231284618377686 0.4499151110649109
0.8042850494384766 0.23372845351696014 0.47732892632484436
0.5990894436836243 0.2014525979757309 0.4860020577907562
0.8118835687637329 0.11282231658697128 0.47000348567962646
0.589362382888794 0.23371759057044983 0.5012503862380981
0.7880263328552246 0.22778894007205963 0.5032610297203064
0.7315943837165833 0.24995140731334686 0.4877503514289856
0.8172309398651123 0.18877173960208893 0.3781365752220154
0.6547849178314209 0.2057451754808426 0.43448543548583984
0.7552006244659424 0.16691680252552032 0.427847295999527
0.6118571162223816 0.2185494750738144 0.47476229071617126
0.615226149559021 0.1324368417263031 0.5247887969017029
0.6980390548706055 0.15907298028469086 0.525030791759491
0.787900984287262 0.27078747749328613 0.5041787028312683
0.7215411067008972 0.18770308792591095 0.3578914999961853
0.7286790013313293 0.23723411560058594 0.4942218065261841
0.7312421202659607 0.12551182508468628 0.4148317873477936
0.6806808710098267 0.2131292074918747 0.3777400851249695
0.6325312852859497 0.28950345516204834 0.3745320439338684
0.8003522753715515 0.2027522623538971 0.41258272528648376
0.6996248364448547 0.12967699766159058 0.45881396532058716
0.7013365626335144 0.3015618622303009 0.47458064556121826
0.6898290514945984 0.21266725659370422 0.40357285737991333
0.6898998022079468 0.20854148268699646 0.45861536264419556
0.7075623869895935 0.21960663795471191 0.5511391758918762
0.6719802618026733 0.17729982733726501 0.46405336260795593
0.7997387051582336 0.21635015308856964 0.485993355512619
0.7329915761947632 0.2703326940536499 0.45015665888786316
0.7934479117393494 0.19637656211853027 0.43468859791755676
0.6996985673904419 0.16456760466098785 0.36652329564094543
0.7797164916992188 0.2133878618478775 0.457677960395813
0.6728485822677612 0.28213295340538025 0.4932889938354492
0.740632951259613 0.2559360861778259 0.3301019072532654
0.6647117137908936 0.15647758543491364 0.46477383375167847
0.688782274723053 0.2716595232486725 0.3533342182636261
0.7496680021286011 0.16129980981349945 0.4533293843269348
0.7346287965774536 0.12127617001533508 0.517315685749054
0.7910289764404297 0.26297491788864136 0.42410939931869507
0.7972744703292847 0.12254490703344345 0.5149040818214417
0.6585806608200073 0.2234199196100235 0.43963557481765747
0.7305830717086792 0.18918664753437042 0.3526301383972168
0.7721297144889832 0.16877597570419312 0.5287381410598755
0.7695834636688232 0.1848158836364746 0.46724843978881836
0.725524365901947 0.2578733265399933 0.457584410905838
0.7266359329223633 0.11811292916536331 0.47920432686805725
0.7751418352127075 0.2689804434776306 0.4543374180793762
0.6521768569946289 0.16163302958011627 0.527447521686554
0.752597451210022 0.20529603958129883 0.3579501807689667
0.656437873840332 0.22833046317100525 0.31748828291893005
0.7116348147392273 0.1941683143377304 0.5317195057868958
0.771227240562439 0.29365819692611694 0.5147499442100525
0.6395316123962402 0.15308964252471924 0.4822045564651489
0.7118024230003357 0.18740476667881012 0.46879711747169495
0.7771748304367065 0.12226878106594086 0.4617060720920563
0.7038286924362183 0.22599440813064575 0.5061459541320801
0.6483497023582458 0.10993117094039917 0.4108256995677948
0.6276656985282898 0.181180939078331 0.42754966020584106
0.8118835687637329 0.11282231658697128 0.47000348567962646
0.6260416507720947 0.19172340631484985 0.40084129571914673
0.6779745817184448 0.17736990749835968 0.42887648940086365
0.686976969242096 0.2585119307041168 0.44910699129104614
0.7358182668685913 0.1184651255607605 0.49087274074554443
0.8018500804901123 0.23121266067028046 0.46425747871398926
0.7531349658966064 0.12599395215511322 0.5542765855789185
0.6823536157608032 0.24722962081432343 0.39688926935195923
0.7777099609375 0.1499767154455185 0.508289098739624
0.7002182602882385 0.3044860064983368 0.4518260061740875
0.7204605937004089 0.2392161339521408 0.38191667199134827
0.7377827167510986 0.27900686860084534 0.4898082911968231
0.7880263328552246 0.22778894007205963 0.5032610297203064
0.7315943837165833 0.24995140731334686 0.4877503514289856
0.8172309398651123 0.18877173960208893 0.3781365752220154
0.6547849178314209 0.2057451754808426 0.43448543548583984
0.7552006244659424 0.16691680252552032 0.427847295999527
0.6118571162223816 0.2185494750738144 0.47476229071617126
0.615226149559021 0.1324368417263031 0.5247887969017029
0.6090211868286133 0.14963039755821228 0.5315264463424683
0.7327263951301575 0.24373456835746765 0.5428597927093506
0.6549667119979858 0.2921470105648041 0.42416462302207947
0.8029260039329529 0.15159375965595245 0.4841219484806061
0.716602087020874 0.13731281459331512 0.5310527086257935
0.7296690344810486 0.24790874123573303 0.394452303647995
0.7362024784088135 0.15860293805599213 0.4177633225917816
0.7398800253868103 0.15217779576778412 0.47331714630126953
0.7953650951385498 0.17472007870674133 0.41312384605407715
0.7489904165267944 0.1209058091044426 0.40850239992141724
0.7040475606918335 0.13824737071990967 0.5679476857185364
0.6243972182273865 0.2127009779214859 0.43822064995765686
0.7413150668144226 0.21532906591892242 0.4172137975692749
0.6377778053283691 0.1098732203245163 0.37889429926872253
0.7495488524436951 0.20978204905986786 0.4876415431499481
0.7024213671684265 0.16092240810394287 0.5141998529434204
0.6482803821563721 0.16850543022155762 0.4321957528591156
0.7801956534385681 0.26210927963256836 0.34665143489837646
0.6415588855743408 0.1462414264678955 0.499610960483551
0.6392682194709778 0.17947830259799957 0.35168805718421936
0.6078376770019531 0.19183430075645447 0.48628321290016174
0.6704668402671814 0.2178349792957306 0.30697742104530334
0.6796985864639282 0.24861735105514526 0.3109452724456787
0.800804853439331 0.12224879115819931 0.42247310280799866
0.7026203870773315 0.23694303631782532 0.4266452193260193
0.6396821141242981 0.24360674619674683 0.3637564778327942
0.7240535616874695 0.18967145681381226 0.4279623031616211
0.7880263328552246 0.22778894007205963 0.5032610297203064
0.7315943837165833 0.24995140731334686 0.4877503514289856
0.8172309398651123 0.18877173960208893 0.3781365752220154
0.6547849178314209 0.2057451754808426 0.43448543548583984
0.7552006244659424 0.16691680252552032 0.427847295999527
0.6118571162223816 0.2185494750738144 0.47476229071617126
0.630462110042572 0.2399497628211975 0.3783784806728363
0.7480696439743042 0.16398361325263977 0.3890838325023651
0.7127416133880615 0.3015590310096741 0.44612425565719604
0.7532835006713867 0.2969472408294678 0.4963863492012024
0.6269850730895996 0.2924562096595764 0.4724658727645874
0.6825562715530396 0.2630736529827118 0.4647095501422882
0.5856609344482422 0.14876456558704376 0.5208079218864441
0.7992479205131531 0.25125637650489807 0.36395585536956787
0.6794236302375793 0.14934200048446655 0.43947622179985046
0.6755260229110718 0.2196916937828064 0.3359064757823944
0.7249195575714111 0.13682708144187927 0.5343553423881531
0.5843549966812134 0.15217120945453644 0.5297275185585022
0.7301031351089478 0.22789053618907928 0.5267531871795654
0.682776689529419 0.12909135222434998 0.540002703666687
0.653846263885498 0.27312517166137695 0.34761783480644226
0.6220787167549133 0.17252299189567566 0.4626098573207855
0.7517555356025696 0.19828234612941742 0.38309141993522644
0.6571037769317627 0.1588062047958374 0.3429344892501831
0.652165949344635 0.23871803283691406 0.46536049246788025
0.6439454555511475 0.18510043621063232 0.3933551013469696
0.7663686275482178 0.21105322241783142 0.3871343731880188
0.7280396223068237 0.2426430881023407 0.5279113054275513
0.6617482900619507 0.1172364354133606 0.49012741446495056
0.6846458911895752 0.1543196737766266 0.5157943367958069
0.735618531703949 0.14191113412380219 0.4402315020561218
0.7103654146194458 0.28334885835647583 0.5054107904434204
0.7100120782852173 0.14414899051189423 0.35828694701194763
0.8055214881896973 0.24297741055488586 0.43021512031555176
0.7666835188865662 0.24593263864517212 0.5355987548828125
0.6286637783050537 0.18231284618377686 0.4499151110649109
0.7319289445877075 0.17484411597251892 0.3881479501724243
0.7433790564537048 0.260152131319046 0.4341452121734619
0.8023237586021423 0.17575575411319733 0.41779184341430664
0.6729269027709961 0.20984266698360443 0.5092000365257263
0.7389659881591797 0.26156121492385864 0.35327157378196716
0.7222433090209961 0.19348900020122528 0.39882105588912964
0.718824028968811 0.19679267704486847 0.3506145179271698
0.6724030375480652 0.18239450454711914 0.5400122404098511
0.6208921670913696 0.18199819326400757 0.47195982933044434
0.6683723330497742 0.18412885069847107 0.37803614139556885
0.7969403862953186 0.2173510193824768 0.42305561900138855
0.6429339647293091 0.17935897409915924 0.34600114822387695
0.749133825302124 0.12525485455989838 0.5510894060134888
0.7956758737564087 0.13167588412761688 0.41706156730651855
0.7330943942070007 0.2453668713569641 0.4140177369117737
0.6424126029014587 0.1816600114107132 0.46458700299263
0.666957676410675 0.26009514927864075 0.44260671734809875
0.6708271503448486 0.2950464189052582 0.4289027154445648
0.7019449472427368 0.14528989791870117 0.5325183272361755
0.6603443026542664 0.252762109041214 0.32454273104667664
0.6800535321235657 0.11823026090860367 0.4229067265987396
0.7719787955284119 0.2316148728132248 0.4164944291114807
0.7541729211807251 0.27166324853897095 0.40772268176078796
0.7459986209869385 0.2554314434528351 0.39632806181907654
0.7070358991622925 0.21087002754211426 0.47791188955307007
0.822269082069397 0.2619156837463379 0.35002246499061584
0.7857972383499146 0.20747900009155273 0.43724191188812256
0.7043322324752808 0.17483629286289215 0.4094996154308319
0.7811839580535889 0.28054746985435486 0.39440277218818665
0.6223908066749573 0.25786498188972473 0.4865688383579254
0.6915639638900757 0.16150735318660736 0.384596049785614
0.6366945505142212 0.17854399979114532 0.4421781897544861
0.725160539150238 0.2082555890083313 0.5077534914016724
0.6279930472373962 0.1221153661608696 0.3973672091960907
0.6389759182929993 0.15133599936962128 0.36284080147743225
0.7190372347831726 0.17059436440467834 0.5167045593261719
0.7294386625289917 0.24456945061683655 0.4465150833129883
0.722404420375824 0.13415879011154175 0.43329259753227234
0.7250963449478149 0.20643486082553864 0.3888164460659027
0.7555930018424988 0.2996124029159546 0.5199317336082458
0.801975429058075 0.27651283144950867 0.42744219303131104
0.7956758737564087 0.13167588412761688 0.41706156730651855
0.7330943942070007 0.2453668713569641 0.4140177369117737
0.6424126029014587 0.1816600114107132 0.46458700299263
0.666957676410675 0.26009514927864075 0.44260671734809875
0.7019449472427368 0.14528989791870117 0.5325183272361755
0.6603443026542664 0.252762109041214 0.32454273104667664
0.6800535321235657 0.11823026090860367 0.4229067265987396
0.7719787955284119 0.2316148728132248 0.4164944291114807
0.7541729211807251 0.27166324853897095 0.40772268176078796
0.764403223991394 0.2049182653427124 0.43342214822769165
0.7656179070472717 0.21073321998119354 0.5129461884498596
0.667664647102356 0.17245587706565857 0.4313982129096985
0.7111232876777649 0.11966363340616226 0.5021988153457642
0.7586780190467834 0.24066978693008423 0.4212210476398468
0.7298308610916138 0.23258690536022186 0.4272441267967224
0.7669969797134399 0.26776039600372314 0.5037875175476074
0.8279467821121216 0.2458258420228958 0.4011684060096741
0.7596550583839417 0.18196088075637817 0.36123567819595337
0.7179075479507446 0.25299856066703796 0.352318674325943
0.7438998222351074 0.17066478729248047 0.4331550896167755
0.672909140586853 0.19535021483898163 0.39317455887794495
0.6318811774253845 0.11854849755764008 0.3889084458351135
0.6533470749855042 0.20133092999458313 0.32412001490592957
0.7578465938568115 0.20411966741085052 0.5763558149337769
0.6466855406761169 0.2032300978899002 0.4942750334739685
0.7327939867973328 0.31591883301734924 0.506071925163269
0.7099137306213379 0.2039709836244583 0.33071470260620117
0.6823408603668213 0.202229306101799 0.5400533676147461
0.7127857208251953 0.25700342655181885 0.3899749219417572
0.7599237561225891 0.2566244602203369 0.44315898418426514
0.6853527426719666 0.15303227305412292 0.4649122953414917
0.8085570335388184 0.2562881410121918 0.3734838664531708
0.7981512546539307 0.29510244727134705 0.45486384630203247
0.6186487674713135 0.30335524678230286 0.4755774140357971
0.6994525194168091 0.2539915442466736 0.5168694257736206
0.6379429697990417 0.2997761070728302 0.42721763253211975
0.6614608764648438 0.24818263947963715 0.4841349124908447
0.6746810674667358 0.220547154545784 0.40168437361717224
0.7423820495605469 0.1830047369003296 0.544995903968811
0.7328650951385498 0.22702069580554962 0.492917537689209
0.6435046792030334 0.21723970770835876 0.5195645689964294
0.6590707898139954 0.22905601561069489 0.5135965943336487
0.6161285042762756 0.23530873656272888 0.4892427921295166
0.6234535574913025 0.15507087111473083 0.4527183175086975
0.7127416133880615 0.3015590310096741 0.44612425565719604
0.7532835006713867 0.2969472408294678 0.4963863492012024
0.6269850730895996 0.2924562096595764 0.4724658727645874
0.6825562715530396 0.2630736529827118 0.4647095501422882
0.615226149559021 0.1324368417263031 0.5247887969017029
0.7929792404174805 0.18406102061271667 0.4098134934902191
0.7386682033538818 0.16881024837493896 0.5692523717880249
0.7709193825721741 0.2342778742313385 0.4160486161708832
0.6169179081916809 0.1166619136929512 0.4594322144985199
0.6870395541191101 0.23374570906162262 0.4166453182697296
0.749119222164154 0.17476212978363037 0.49516162276268005
0.693931519985199 0.1518847793340683 0.5589420795440674
0.7938510775566101 0.2930677533149719 0.4319639503955841
0.7391653656959534 0.21537800133228302 0.5151196122169495
0.7996230125427246 0.12581072747707367 0.4149487614631653
0.7091749906539917 0.2426159530878067 0.4571045935153961
0.6952865123748779 0.1175362765789032 0.3904063403606415
0.7448835968971252 0.21493647992610931 0.4985646903514862
0.6811777949333191 0.11478720605373383 0.47315943241119385
0.6341639161109924 0.11558035761117935 0.38552045822143555
0.7328535914421082 0.16902996599674225 0.4434760808944702
0.6818027496337891 0.1490994542837143 0.47975480556488037
0.7792381644248962 0.1957400143146515 0.5192365646362305
0.7960926294326782 0.16330277919769287 0.47613009810447693
0.6511420607566833 0.23099727928638458 0.3454563617706299
0.6220632195472717 0.1747971922159195 0.5174888968467712
0.6651631593704224 0.216681107878685 0.3891454041004181
0.7161148190498352 0.14658847451210022 0.4169711768627167
0.6297662854194641 0.29249855875968933 0.43436938524246216
0.7663475871086121 0.20015892386436462 0.5212900638580322
0.8029881119728088 0.29128149151802063 0.4448251724243164
0.6675289869308472 0.22766652703285217 0.40097275376319885
0.7064173221588135 0.19852082431316376 0.3611310124397278
0.7794665098190308 0.16780613362789154 0.4641912281513214
0.6011254787445068 0.221744567155838 0.49108776450157166
0.752021312713623 0.1591973900794983 0.5146195888519287
0.615226149559021 0.1324368417263031 0.5247887969017029
0.7506349086761475 0.22251874208450317 0.5402213335037231
0.6404908895492554 0.1539592444896698 0.4870937466621399
0.6890547871589661 0.12162139266729355 0.44312840700149536
0.6281736493110657 0.28867653012275696 0.37301352620124817
0.8174462914466858 0.23572875559329987 0.3904254734516144
0.7404258847236633 0.19554273784160614 0.4664674699306488
0.7506133317947388 0.16132406890392303 0.5722500085830688
0.795472264289856 0.16070020198822021 0.5074329972267151
0.6482238173484802 0.14152126014232635 0.5212097764015198
0.7709876298904419 0.28901198506355286 0.5378736853599548
0.6949781179428101 0.1956695318222046 0.48739302158355713
0.727968692779541 0.18861880898475647 0.4339912235736847
0.619901180267334 0.28421908617019653 0.45150408148765564
0.6189947128295898 0.15916289389133453 0.43215247988700867
0.7918975949287415 0.16919222474098206 0.38444042205810547
0.8224514126777649 0.22405415773391724 0.41315317153930664
0.6089843511581421 0.16470202803611755 0.46837934851646423
0.7410891056060791 0.18120867013931274 0.517533004283905
0.7033067941665649 0.23324409127235413 0.45656418800354004
0.6569823622703552 0.2993098199367523 0.4564535617828369
0.659132719039917 0.1826106607913971 0.3996366858482361
0.6233687400817871 0.19885408878326416 0.4152478575706482
0.6769468784332275 0.15815961360931396 0.38186579942703247
0.6921900510787964 0.1341012716293335 0.35661575198173523
0.6635310649871826 0.15654917061328888 0.4732755720615387
0.715263307094574 0.13079455494880676 0.43537968397140503
0.6540574431419373 0.19744554162025452 0.34003719687461853
0.6964091062545776 0.1830848604440689 0.4956474304199219
0.707933783531189 0.1618184596300125 0.4490494430065155
0.7467672228813171 0.1158764511346817 0.456428200006485
0.7001729607582092 0.25277847051620483 0.3355369567871094
0.6445867419242859 0.21043294668197632 0.4390030801296234
0.707933783531189 0.1618184596300125 0.4490494430065155
0.7467672228813171 0.1158764511346817 0.456428200006485
0.7001729607582092 0.25277847051620483 0.3355369567871094
0.751051127910614 0.24009521305561066 0.508998692035675
0.6304628849029541 0.11989554017782211 0.43100178241729736
0.7161505818367004 0.2515024244785309 0.40898197889328003
0.7120585441589355 0.15493465960025787 0.5669587254524231
0.7175586819648743 0.12326974421739578 0.5177857875823975
0.6569099426269531 0.13529229164123535 0.5301461815834045
0.7342026829719543 0.12725257873535156 0.5090300440788269
0.712637186050415 0.20924592018127441 0.37670937180519104
0.701023519039154 0.2987253665924072 0.44860997796058655
0.8107229471206665 0.13910432159900665 0.4777316153049469
0.6554384231567383 0.2874131202697754 0.4709389805793762
0.775823712348938 0.14131233096122742 0.46304646134376526
0.7175782918930054 0.11862763017416 0.46918362379074097
0.6616361737251282 0.174367755651474 0.3858473598957062
0.7596341967582703 0.13103315234184265 0.4232977032661438
0.7190559506416321 0.1238277405500412 0.40682852268218994
0.8024908304214478 0.24806921184062958 0.36637407541275024
0.6728903651237488 0.29570019245147705 0.491118460893631
0.6396458745002747 0.16037902235984802 0.49768272042274475
0.7576330900192261 0.21059273183345795 0.3560580015182495
0.7027612924575806 0.15592512488365173 0.4563091993331909
0.6898569464683533 0.2659052610397339 0.3579302430152893
0.7818042635917664 0.23324048519134521 0.5173518061637878
0.6247358322143555 0.17251789569854736 0.4074741005897522
0.6818482875823975 0.1857883632183075 0.3765229284763336
0.6923518776893616 0.2045462727546692 0.4806336760520935
0.7162129878997803 0.31103143095970154 0.47675999999046326
0.6277632117271423 0.1513509601354599 0.5389626026153564
0.7366651296615601 0.1403164267539978 0.44270992279052734
0.7476302981376648 0.2645581364631653 0.40423548221588135
0.6811313629150391 0.1691826581954956 0.48753824830055237
0.693096935749054 0.2124650478363037 0.5218092203140259
0.7223972678184509 0.19116148352622986 0.4586399793624878
0.6082489490509033 0.20786546170711517 0.45629897713661194
0.6701827645301819 0.2502884864807129 0.35587596893310547
0.6264862418174744 0.12721799314022064 0.43769776821136475
0.6187816858291626 0.24271558225154877 0.4970535933971405
0.6791844367980957 0.2585672438144684 0.4859357178211212
0.7434691190719604 0.2664821147918701 0.46069806814193726
0.7844346761703491 0.2850678861141205 0.43419283628463745
0.7029067277908325 0.11853396892547607 0.41601794958114624
0.790725827217102 0.2518530786037445 0.48742324113845825
0.7460002899169922 0.24849265813827515 0.3863258957862854
0.7030999660491943 0.1684226095676422 0.40149450302124023
0.6567890048027039 0.2384057193994522 0.4878791868686676
0.7944480180740356 0.2295357882976532 0.48727792501449585
0.8262580037117004 0.1652349829673767 0.41962024569511414
0.7239706516265869 0.12074635922908783 0.5055176615715027
0.6478556394577026 0.1665807068347931 0.5461432933807373
0.7370107173919678 0.21423333883285522 0.5133219957351685
0.6950572729110718 0.1842956244945526 0.5450879335403442
0.6236090064048767 0.17954854667186737 0.39499640464782715
0.7415964603424072 0.2363865226507187 0.42347773909568787
0.7601850032806396 0.24471095204353333 0.36445197463035583
0.7007954120635986 0.18866245448589325 0.4015921354293823
0.6695321798324585 0.1426479071378708 0.4512084126472473
0.7038019299507141 0.13489505648612976 0.4153512120246887
0.6114217042922974 0.17261943221092224 0.5192151665687561
0.7876725196838379 0.1848992556333542 0.4999975562095642
0.6447672843933105 0.24716424942016602 0.5107414126396179
0.6719802618026733 0.17729982733726501 0.46405336260795593
0.7197339534759521 0.2607786953449249 0.4926592707633972
0.7467100620269775 0.21888341009616852 0.367390900850296
0.7761507630348206 0.30100351572036743 0.5337210893630981
0.6973874568939209 0.18905150890350342 0.4207451343536377
0.6955413222312927 0.1501370370388031 0.5184676051139832
0.6571447253227234 0.17584742605686188 0.39926037192344666
0.7092000842094421 0.14327433705329895 0.410977840423584
0.7218340039253235 0.2935050427913666 0.5231073498725891
0.6477077603340149 0.1973526030778885 0.4993325173854828
0.7900661826133728 0.1496146023273468 0.4406333863735199
0.7929792404174805 0.18406102061271667 0.4098134934902191
0.7386682033538818 0.16881024837493896 0.5692523717880249
0.7709193825721741 0.2342778742313385 0.4160486161708832
0.6169179081916809 0.1166619136929512 0.4594322144985199
0.6870395541191101 0.23374570906162262 0.4166453182697296
0.7324244976043701 0.2702246308326721 0.34947097301483154
0.6810546517372131 0.21978965401649475 0.3691968023777008
0.6907106637954712 0.16352546215057373 0.39877405762672424
0.7000073194503784 0.24655531346797943 0.41441547870635986
0.6856715679168701 0.1711578518152237 0.48892030119895935
0.7555203437805176 0.13793183863162994 0.595903217792511
0.7091749906539917 0.2426159530878067 0.4571045935153961
0.6952865123748779 0.1175362765789032 0.3904063403606415
0.7448835968971252 0.21493647992610931 0.4985646903514862
0.6811777949333191 0.11478720605373383 0.47315943241119385
0.6341639161109924 0.11558035761117935 0.38552045822143555
0.7328535914421082 0.16902996599674225 0.4434760808944702
0.6818027496337891 0.1490994542837143 0.47975480556488037
0.7792381644248962 0.1957400143146515 0.5192365646362305
0.6717020273208618 0.11985310167074203 0.3627118766307831
0.7825871109962463 0.22593648731708527 0.36916595697402954
0.7956758737564087 0.13167588412761688 0.41706156730651855
0.6544662714004517 0.2022208273410797 0.33383122086524963
0.6711143255233765 0.17901960015296936 0.3576699197292328
0.6304628849029541 0.11989554017782211 0.43100178241729736
0.7161505818367004 0.2515024244785309 0.40898197889328003
0.7120585441589355 0.15493465960025787 0.5669587254524231
0.6569099426269531 0.13529229164123535 0.5301461815834045
0.7342026829719543 0.12725257873535156 0.5090300440788269
0.6950580477714539 0.27301138639450073 0.40170052647590637
0.712637186050415 0.20924592018127441 0.37670937180519104
0.701023519039154 0.2987253665924072 0.44860997796058655
0.8107229471206665 0.13910432159900665 0.4777316153049469
0.6554384231567383 0.2874131202697754 0.4709389805793762
0.775823712348938 0.14131233096122742 0.46304646134376526
0.7175782918930054 0.11862763017416 0.46918362379074097
0.7596341967582703 0.13103315234184265 0.4232977032661438
0.7190559506416321 0.1238277405500412 0.40682852268218994
0.6343157291412354 0.1327914148569107 0.447063148021698
0.8024908304214478 0.24806921184062958 0.36637407541275024
0.6728903651237488 0.29570019245147705 0.491118460893631
0.6396458745002747 0.16037902235984802 0.49768272042274475
0.7576330900192261 0.21059273183345795 0.3560580015182495
0.6898569464683533 0.2659052610397339 0.3579302430152893
0.7818042635917664 0.23324048519134521 0.5173518061637878
0.6247358322143555 0.17251789569854736 0.4074741005897522
0.6818482875823975 0.1857883632183075 0.3765229284763336
0.6818482875823975 0.1857883632183075 0.3765229284763336
0.6923518776893616 0.2045462727546692 0.4806336760520935
0.7162129878997803 0.31103143095970154 0.47675999999046326
0.6678982377052307 0.1564711183309555 0.5526089668273926
0.6277632117271423 0.1513509601354599 0.5389626026153564
0.7345627546310425 0.16195140779018402 0.4917027950286865
0.7491264343261719 0.1646495759487152 0.412712037563324
0.8026990294456482 0.11573322862386703 0.50355464220047
0.7871633768081665 0.16735012829303741 0.45686838030815125
0.8087430000305176 0.16146601736545563 0.399848997592926
0.6908732652664185 0.25254666805267334 0.4484615921974182
0.6161563992500305 0.22920136153697968 0.4986880421638489
0.7558868527412415 0.11603815108537674 0.4732084274291992
0.7331934571266174 0.13081307709217072 0.37512147426605225
0.6278715133666992 0.24811148643493652 0.41692015528678894
0.7718700766563416 0.19744877517223358 0.556304931640625
0.694222629070282 0.23208490014076233 0.37188857793807983
0.7156815528869629 0.17244766652584076 0.5375261902809143
0.7318583726882935 0.2584834396839142 0.35503891110420227
0.7197705507278442 0.1473948061466217 0.4380810856819153
0.8024400472640991 0.23243746161460876 0.43196552991867065
0.724245548248291 0.15045221149921417 0.4896021783351898
0.6913516521453857 0.22533121705055237 0.33763429522514343
0.8007842302322388 0.22272126376628876 0.3936406672000885
0.7260950207710266 0.2008058875799179 0.36418601870536804
0.7064371109008789 0.14392617344856262 0.5688104033470154
0.6506296396255493 0.2696903347969055 0.31894034147262573
0.6668506264686584 0.259250670671463 0.3054090738296509
0.689545750617981 0.1979067176580429 0.4382680356502533
0.6835333108901978 0.16450637578964233 0.41181954741477966
0.6754118800163269 0.1984020173549652 0.31949543952941895
0.7070275545120239 0.139924556016922 0.4823075532913208
0.6668578386306763 0.21864241361618042 0.3223990201950073
0.7430535554885864 0.17814944684505463 0.5569287538528442
0.7687541246414185 0.2662297785282135 0.38256552815437317
0.7996612787246704 0.11800626665353775 0.4870999753475189
0.7540004253387451 0.11300400644540787 0.4169447124004364
0.7871269583702087 0.10846368223428726 0.41963785886764526
0.7956758737564087 0.13167588412761688 0.41706156730651855
0.7876725196838379 0.1848992556333542 0.4999975562095642
0.6447672843933105 0.24716424942016602 0.5107414126396179
0.6522798538208008 0.28765854239463806 0.42853036522865295
0.7958032488822937 0.13269756734371185 0.5087544322013855
0.6677835583686829 0.17637012898921967 0.46295514702796936
0.6282026767730713 0.13831403851509094 0.4065878987312317
0.6104989647865295 0.3087244927883148 0.4553835391998291
0.7331823706626892 0.23929627239704132 0.3272944688796997
0.6818945407867432 0.2337481528520584 0.49131494760513306
0.7415049076080322 0.25987696647644043 0.3942263126373291
0.6228448152542114 0.19917452335357666 0.424856036901474
0.6624196171760559 0.11217623949050903 0.37464505434036255
0.6335756182670593 0.27385851740837097 0.382351279258728
0.7262632846832275 0.21941496431827545 0.5200075507164001
0.7851307988166809 0.2117966115474701 0.44486913084983826
0.7108321785926819 0.18201106786727905 0.5026286840438843
0.6774805784225464 0.19800692796707153 0.5164569616317749
0.6678382158279419 0.26767659187316895 0.31938180327415466
0.7663559913635254 0.2628481090068817 0.3696534335613251
0.805052638053894 0.21497003734111786 0.4729154706001282
0.7536239624023438 0.16854354739189148 0.5172832608222961
0.6928970813751221 0.2900222837924957 0.46357113122940063
0.64569491147995 0.24382124841213226 0.34229403734207153
0.6985157132148743 0.13254380226135254 0.3936629593372345
0.7011107802391052 0.26647868752479553 0.5285872220993042
0.6269408464431763 0.15548136830329895 0.5282830595970154
0.7229981422424316 0.2171914130449295 0.45289888978004456
0.7289772033691406 0.19684059917926788 0.3406420052051544
0.747581422328949 0.2012479305267334 0.5488191246986389
0.675247311592102 0.2016477733850479 0.5420085191726685
0.7368720173835754 0.17672519385814667 0.5745915174484253
0.667664647102356 0.17245587706565857 0.4313982129096985
0.7391653656959534 0.21537800133228302 0.5151196122169495
0.7996230125427246 0.12581072747707367 0.4149487614631653
0.7091749906539917 0.2426159530878067 0.4571045935153961
0.7680866122245789 0.23613692820072174 0.49565380811691284
0.6865438222885132 0.1354060024023056 0.4859445095062256
0.5974514484405518 0.128700852394104 0.5045140385627747
0.6704154014587402 0.21514517068862915 0.4561167359352112
0.6251147985458374 0.2575703561306 0.4328312575817108
0.6196979284286499 0.14475344121456146 0.5170159339904785
0.6886371970176697 0.14721015095710754 0.4115074574947357
0.8190858960151672 0.20735473930835724 0.37405890226364136
0.7222148776054382 0.2085549533367157 0.4511876404285431
0.6651155352592468 0.24892421066761017 0.5083541870117188
0.7746613621711731 0.1658250093460083 0.5164934992790222
0.7971984148025513 0.2168763428926468 0.37669944763183594
0.7015550136566162 0.13499854505062103 0.44728562235832214
0.6347611546516418 0.26068314909935 0.4495944380760193
0.6711809039115906 0.25368255376815796 0.31007933616638184
0.7076615691184998 0.10928428918123245 0.3816013038158417
0.8095778822898865 0.25422823429107666 0.4412792921066284
0.7042895555496216 0.2076784372329712 0.48890048265457153
0.7954819202423096 0.2074955701828003 0.3825383186340332
0.7207529544830322 0.15781661868095398 0.4634212851524353
0.7415695190429688 0.13543036580085754 0.5454543828964233
0.7908027172088623 0.2121649533510208 0.3864506781101227
0.7025614380836487 0.2633492350578308 0.5273873805999756
0.6904245018959045 0.1842053234577179 0.5216197967529297
0.7430832386016846 0.28737854957580566 0.4165480136871338
0.7297617793083191 0.1518165022134781 0.44266241788864136
0.7968583703041077 0.24752022325992584 0.36251774430274963
0.7119439840316772 0.2672070860862732 0.36701837182044983
0.6700260043144226 0.17709217965602875 0.5118328332901001
0.7494383454322815 0.1522350311279297 0.5533548593521118
0.6947667002677917 0.22010934352874756 0.3568373918533325
0.7189953923225403 0.17052720487117767 0.5195075869560242
0.6973874568939209 0.18905150890350342 0.4207451343536377
0.6955413222312927 0.1501370370388031 0.5184676051139832
0.6571447253227234 0.17584742605686188 0.39926037192344666
0.7092000842094421 0.14327433705329895 0.410977840423584
0.7218340039253235 0.2935050427913666 0.5231073498725891
0.6477077603340149 0.1973526030778885 0.4993325173854828
0.7900661826133728 0.1496146023273468 0.4406333863735199
0.7929792404174805 0.18406102061271667 0.4098134934902191
0.7386682033538818 0.16881024837493896 0.5692523717880249
0.7709193825721741 0.2342778742313385 0.4160486161708832
0.6169179081916809 0.1166619136929512 0.4594322144985199
0.6870395541191101 0.23374570906162262 0.4166453182697296
0.749119222164154 0.17476212978363037 0.49516162276268005
0.693931519985199 0.1518847793340683 0.5589420795440674
0.7938510775566101 0.2930677533149719 0.4319639503955841
0.7391653656959534 0.21537800133228302 0.5151196122169495
0.7996230125427246 0.12581072747707367 0.4149487614631653
0.7091749906539917 0.2426159530878067 0.4571045935153961
0.6952865123748779 0.1175362765789032 0.3904063403606415
0.7448835968971252 0.21493647992610931 0.4985646903514862
0.6811777949333191 0.11478720605373383 0.47315943241119385
0.6341639161109924 0.11558035761117935 0.38552045822143555
0.7328535914421082 0.16902996599674225 0.4434760808944702
0.6818027496337891 0.1490994542837143 0.47975480556488037
0.7792381644248962 0.1957400143146515 0.5192365646362305
0.7960926294326782 0.16330277919769287 0.47613009810447693
0.6511420607566833 0.23099727928638458 0.3454563617706299
0.6220632195472717 0.1747971922159195 0.5174888968467712
0.7976014614105225 0.28348490595817566 0.4550692141056061
0.7526447176933289 0.11795579642057419 0.510443925857544
0.8077951669692993 0.2451735883951187 0.39819565415382385
0.684856116771698 0.2565769553184509 0.3799762725830078
0.6501336097717285 0.1826333850622177 0.5072012543678284
0.7524048686027527 0.19105049967765808 0.4140068292617798
0.697964072227478 0.27050715684890747 0.4164367616176605
0.8031307458877563 0.24897907674312592 0.4099971652030945
0.7191909551620483 0.19786174595355988 0.5474335551261902
0.667689323425293 0.11819443106651306 0.4456421434879303
0.759857177734375 0.24815689027309418 0.4934404790401459
0.6004465222358704 0.23217956721782684 0.49389737844467163
0.6601834297180176 0.14307785034179688 0.4707300662994385
0.6278368830680847 0.14900802075862885 0.4232226312160492
0.6601834297180176 0.14307785034179688 0.4707300662994385
0.6278368830680847 0.14900802075862885 0.4232226312160492
0.6958986520767212 0.2572036683559418 0.35146382451057434
0.7485281229019165 0.22635991871356964 0.3505396842956543
0.6883821487426758 0.1880832314491272 0.4493342638015747
0.7494383454322815 0.1522350311279297 0.5533548593521118
0.660315752029419 0.1272762268781662 0.40290820598602295
0.6337272524833679 0.2751089930534363 0.36563706398010254
0.6840857863426208 0.1213110089302063 0.4245358407497406
0.7189784646034241 0.11526826024055481 0.48195138573646545
0.6973874568939209 0.18905150890350342 0.4207451343536377
0.6955413222312927 0.1501370370388031 0.5184676051139832
0.6571447253227234 0.17584742605686188 0.39926037192344666
0.7092000842094421 0.14327433705329895 0.410977840423584
0.7218340039253235 0.2935050427913666 0.5231073498725891
0.6477077603340149 0.1973526030778885 0.4993325173854828
0.7900661826133728 0.1496146023273468 0.4406333863735199
0.7929792404174805 0.18406102061271667 0.4098134934902191
0.7748159170150757 0.24419815838336945 0.4434238374233246
0.6955413222312927 0.1501370370388031 0.5184676051139832
0.6571447253227234 0.17584742605686188 0.39926037192344666
0.7092000842094421 0.14327433705329895 0.410977840423584
0.7218340039253235 0.2935050427913666 0.5231073498725891
0.6477077603340149 0.1973526030778885 0.4993325173854828
0.7900661826133728 0.1496146023273468 0.4406333863735199
0.7929792404174805 0.18406102061271667 0.4098134934902191
0.7386682033538818 0.16881024837493896 0.5692523717880249
0.7709193825721741 0.2342778742313385 0.4160486161708832
0.6169179081916809 0.1166619136929512 0.4594322144985199
0.6870395541191101 0.23374570906162262 0.4166453182697296
0.749119222164154 0.17476212978363037 0.49516162276268005
0.693931519985199 0.1518847793340683 0.5589420795440674
0.7861164808273315 0.3003910183906555 0.45337119698524475
0.673478901386261 0.1987486630678177 0.3490699231624603
0.6551430821418762 0.16686323285102844 0.42576706409454346
0.8065876960754395 0.15853478014469147 0.45244112610816956
0.7252441048622131 0.19686873257160187 0.519328773021698
0.6991634964942932 0.21270139515399933 0.43968579173088074
0.803422749042511 0.1210101917386055 0.4763101041316986
0.7459961771965027 0.1208522766828537 0.5032144784927368
0.7406728863716125 0.2943827509880066 0.4198319613933563
0.6153067350387573 0.14452046155929565 0.5177146792411804
0.7960926294326782 0.16330277919769287 0.47613009810447693
0.6937393546104431 0.21045325696468353 0.4146127700805664
0.702917754650116 0.19286677241325378 0.40442681312561035
0.7450939416885376 0.18628564476966858 0.5268564224243164
0.6773895621299744 0.2779788374900818 0.47682109475135803
0.7793300747871399 0.12214416265487671 0.5115709900856018
0.7937412261962891 0.24109846353530884 0.4148496091365814
0.7255240082740784 0.21110743284225464 0.367788165807724
0.6476065516471863 0.22198708355426788 0.3878808915615082
0.7577052116394043 0.21879054605960846 0.46878087520599365
0.6282357573509216 0.12096059322357178 0.38130903244018555
