ply
format ascii 1.0
element vertex 828
property float x
property float y
property float z
end_header
0.7245124578475952 0.25500890612602234 0.47376343607902527
0.6606854200363159 0.1541961431503296 0.4043949246406555
0.7071672081947327 0.13665208220481873 0.45959845185279846
0.6325926184654236 0.2852100729942322 0.4486929774284363
0.6714180111885071 0.26623570919036865 0.4822468161582947
0.8023415207862854 0.12535013258457184 0.4116179049015045
0.6119803786277771 0.2820681035518646 0.48140251636505127
0.7281432151794434 0.28543198108673096 0.38701632618904114
0.5963162779808044 0.23199740052223206 0.5084437131881714
0.6136317253112793 0.2975437045097351 0.4373488426208496
0.7287110686302185 0.26159074902534485 0.3525852560997009
0.7646318674087524 0.16829551756381989 0.4610869288444519
0.8140743374824524 0.19097483158111572 0.4393662214279175
0.6991049647331238 0.12360678613185883 0.45230841636657715
0.6266993284225464 0.3109554350376129 0.39236900210380554
0.6555179953575134 0.2476079910993576 0.40567532181739807
0.6385772824287415 0.31763243675231934 0.4735868573188782
0.628692090511322 0.24374590814113617 0.4964160919189453
0.6286117434501648 0.11937638372182846 0.42737144231796265
0.7438948154449463 0.17891541123390198 0.5129929780960083
0.6818278431892395 0.21255064010620117 0.33065322041511536
0.6663007736206055 0.18970143795013428 0.497046560049057
0.7168846726417542 0.2971028983592987 0.42887699604034424
0.7413023710250854 0.23710989952087402 0.5631535053253174
0.6520562171936035 0.15181505680084229 0.5346353650093079
0.6142032146453857 0.2838241159915924 0.45381543040275574
0.6868835687637329 0.2834470272064209 0.4673711061477661
0.6380922794342041 0.20572775602340698 0.43393489718437195
0.7343576550483704 0.17434650659561157 0.3954639136791229
0.6470406651496887 0.26803576946258545 0.32191818952560425
0.7051774263381958 0.30557459592819214 0.48440083861351013
0.7177491188049316 0.2418982982635498 0.4263138175010681
0.6809127330780029 0.2802509367465973 0.4003084599971771
0.7223101258277893 0.287479430437088 0.5098502039909363
0.7566756010055542 0.21402809023857117 0.45334917306900024
0.6992124319076538 0.24171611666679382 0.4186023771762848
0.6417376399040222 0.18278072774410248 0.5280984044075012
0.6168270111083984 0.23581883311271667 0.40671658515930176
0.6881881356239319 0.11292444914579391 0.3821645975112915
0.5925608277320862 0.284282922744751 0.47267332673072815
0.6386188864707947 0.29684799909591675 0.39303678274154663
0.7697681188583374 0.15693344175815582 0.4829811453819275
0.7220488786697388 0.2593262195587158 0.49659204483032227
0.7574617266654968 0.2814255356788635 0.4562687277793884
0.6077742576599121 0.3119232654571533 0.4086166322231293
0.8068975210189819 0.27581384778022766 0.4240673780441284
0.6675609350204468 0.12650758028030396 0.4425855875015259
0.7334501147270203 0.2304578423500061 0.5170484781265259
0.7081171274185181 0.19050049781799316 0.4174586534500122
0.6896259188652039 0.11439719051122665 0.38250502943992615
0.8177459836006165 0.2837201654911041 0.402345210313797
0.6637334227561951 0.11340993642807007 0.3571111261844635
0.7633846998214722 0.13949444890022278 0.3996453881263733
0.6594550013542175 0.31631016731262207 0.43806546926498413
0.6031706929206848 0.19664782285690308 0.508775532245636
0.7107753157615662 0.15383490920066833 0.5441650748252869
0.7867229580879211 0.2693670094013214 0.35068947076797485
0.7686553597450256 0.28573134541511536 0.4713393449783325
0.6303843259811401 0.31665074825286865 0.4492896497249603
0.7866829037666321 0.14681200683116913 0.5222567915916443
0.5928026437759399 0.31803098320961 0.4429587721824646
0.6764085292816162 0.20192594826221466 0.5278677344322205
0.6549575328826904 0.19552676379680634 0.3209385573863983
0.7020956873893738 0.21521414816379547 0.3616056442260742
0.6704738736152649 0.17741787433624268 0.4436463415622711
0.7736228704452515 0.3282410800457001 0.4905524253845215
0.763231098651886 0.1634998917579651 0.45349738001823425
0.6942101120948792 0.1561318039894104 0.43585285544395447
0.6188137531280518 0.23246443271636963 0.5159697532653809
0.6668349504470825 0.27753332257270813 0.5005882382392883
0.7185454368591309 0.24170270562171936 0.5316842794418335
0.7832055687904358 0.14631426334381104 0.4556753635406494
0.6622077226638794 0.1686665415763855 0.3372943103313446
0.6826963424682617 0.21413195133209229 0.5106715559959412
0.7105110287666321 0.17263270914554596 0.43000537157058716
0.6840534806251526 0.20730824768543243 0.37346163392066956
0.6208871006965637 0.20222444832324982 0.4910678267478943
0.6792930960655212 0.16371884942054749 0.5157809257507324
0.6610099673271179 0.1357184648513794 0.40001583099365234
0.679833710193634 0.1231849417090416 0.47017374634742737
0.6364889740943909 0.1206066682934761 0.38276976346969604
0.7293050289154053 0.18224728107452393 0.44199690222740173
0.67926424741745 0.16246068477630615 0.47628629207611084
0.7730664014816284 0.21070103347301483 0.5191107988357544
0.7908161282539368 0.17632229626178741 0.47594892978668213
0.6467658281326294 0.24478676915168762 0.34389713406562805
0.6181023716926575 0.18676099181175232 0.5130473971366882
0.739100992679596 0.13294199109077454 0.5200093388557434
0.6535365581512451 0.2078169584274292 0.43138211965560913
0.7533945441246033 0.22581090033054352 0.3452702462673187
0.7882421612739563 0.20490598678588867 0.39602047204971313
0.7113966345787048 0.2393990159034729 0.3931056261062622
0.715466320514679 0.27079612016677856 0.5261752009391785
0.6669093370437622 0.30558574199676514 0.4755440056324005
0.7311065793037415 0.22915807366371155 0.3350505530834198
0.6814917922019958 0.23187097907066345 0.47639816999435425
0.6400384902954102 0.2877994179725647 0.3550015389919281
0.6141262054443359 0.21510177850723267 0.4415462613105774
0.6261054873466492 0.24457301199436188 0.4461115300655365
0.6548566222190857 0.17282569408416748 0.41918304562568665
0.7055181860923767 0.26020562648773193 0.3156149089336395
0.7290993928909302 0.22707490622997284 0.4831305742263794
0.6587718725204468 0.28184112906455994 0.3153761029243469
0.6002001166343689 0.2957316040992737 0.47027069330215454
0.7983788251876831 0.22762849926948547 0.42278459668159485
0.785381555557251 0.13920095562934875 0.43986836075782776
0.8117693662643433 0.20383770763874054 0.4499058127403259
0.711841881275177 0.1758570373058319 0.45177775621414185
0.7530480623245239 0.28011953830718994 0.5493307113647461
0.706110417842865 0.13906124234199524 0.45646026730537415
0.6824202537536621 0.24915607273578644 0.41524145007133484
0.679833710193634 0.1231849417090416 0.47017374634742737
0.6364889740943909 0.1206066682934761 0.38276976346969604
0.7293050289154053 0.18224728107452393 0.44199690222740173
0.67926424741745 0.16246068477630615 0.47628629207611084
0.7730664014816284 0.21070103347301483 0.5191107988357544
0.7908161282539368 0.17632229626178741 0.47594892978668213
0.6467658281326294 0.24478676915168762 0.34389713406562805
0.6181023716926575 0.18676099181175232 0.5130473971366882
0.739100992679596 0.13294199109077454 0.5200093388557434
0.6535365581512451 0.2078169584274292 0.43138211965560913
0.7533945441246033 0.22581090033054352 0.3452702462673187
0.7882421612739563 0.20490598678588867 0.39602047204971313
0.7113966345787048 0.2393990159034729 0.3931056261062622
0.726340651512146 0.2729746997356415 0.5193454027175903
0.7006927132606506 0.18741251528263092 0.4260210394859314
0.6563175320625305 0.2798864245414734 0.48470571637153625
0.6121651530265808 0.30853673815727234 0.44225746393203735
0.7006579637527466 0.21808156371116638 0.3825545907020569
0.7092182040214539 0.13434436917304993 0.4041142165660858
0.6667540073394775 0.13936111330986023 0.5288783311843872
0.63993901014328 0.16379916667938232 0.47065162658691406
0.6496762633323669 0.14754649996757507 0.46374595165252686
0.7913100719451904 0.13552412390708923 0.48228833079338074
0.7614725828170776 0.1552962064743042 0.5555185079574585
0.7725008130073547 0.1600916087627411 0.49045035243034363
0.6266193985939026 0.14691877365112305 0.49661722779273987
0.6794127225875854 0.11827636510133743 0.42470285296440125
0.7762071490287781 0.16686147451400757 0.4487590491771698
0.8130512237548828 0.20387770235538483 0.38011977076530457
0.6475762724876404 0.12368777394294739 0.37488460540771484
0.6786242723464966 0.16313688457012177 0.38713905215263367
0.785756528377533 0.14590021967887878 0.500321626663208
0.7041037082672119 0.25881266593933105 0.3422805964946747
0.709930419921875 0.25486627221107483 0.33861044049263
0.7028371691703796 0.23845376074314117 0.4172697365283966
0.7064666152000427 0.22795596718788147 0.5493513345718384
0.7418665289878845 0.2811691164970398 0.3860155940055847
0.5906415581703186 0.22363363206386566 0.4805753231048584
0.7195451855659485 0.2722926139831543 0.37040695548057556
0.6855707764625549 0.15600156784057617 0.3921642601490021
0.6689820289611816 0.26798444986343384 0.4590252935886383
0.6714180111885071 0.26623570919036865 0.4822468161582947
0.8023415207862854 0.12535013258457184 0.4116179049015045
0.6791568398475647 0.2729482352733612 0.426023930311203
0.7281432151794434 0.28543198108673096 0.38701632618904114
0.7654118537902832 0.27551037073135376 0.4067635238170624
0.7287110686302185 0.26159074902534485 0.3525852560997009
0.7334522604942322 0.11094491928815842 0.4132472276687622
0.7610918283462524 0.12472023069858551 0.4443536698818207
0.6366397738456726 0.16019412875175476 0.36879366636276245
0.7491296529769897 0.14472590386867523 0.402881920337677
0.7439004778862 0.2468193918466568 0.36047565937042236
0.7511250972747803 0.312724232673645 0.5021286606788635
0.7403256893157959 0.3103468120098114 0.5153385996818542
0.6600342392921448 0.3007330596446991 0.37503430247306824
0.6286405920982361 0.1901099532842636 0.5082683563232422
0.7957622408866882 0.15491005778312683 0.4485384523868561
0.7301574945449829 0.2769857347011566 0.47325974702835083
0.7938713431358337 0.14141373336315155 0.4373345673084259
0.6579519510269165 0.15119045972824097 0.3596069812774658
0.7062913775444031 0.1690465360879898 0.568845272064209
0.6242613792419434 0.13875369727611542 0.39276376366615295
0.6479580998420715 0.21880191564559937 0.3909611403942108
0.664150595664978 0.15367694199085236 0.4595993161201477
0.809863269329071 0.23099364340305328 0.39455413818359375
0.7583632469177246 0.1154450997710228 0.4363952577114105
0.675605297088623 0.3001335561275482 0.3763832449913025
0.6854137182235718 0.2320561707019806 0.48713988065719604
0.5974552631378174 0.13672198355197906 0.46741676330566406
0.7572947144508362 0.17437899112701416 0.3720535635948181
0.7918662428855896 0.2828487455844879 0.4561746120452881
0.7861537337303162 0.3067639470100403 0.4660869240760803
0.7810397148132324 0.26008084416389465 0.39556246995925903
0.7594662308692932 0.2655324637889862 0.40533703565597534
0.7938713431358337 0.14141373336315155 0.4373345673084259
0.6579519510269165 0.15119045972824097 0.3596069812774658
0.7062913775444031 0.1690465360879898 0.568845272064209
0.726438045501709 0.19597594439983368 0.48784127831459045
0.6242613792419434 0.13875369727611542 0.39276376366615295
0.6479580998420715 0.21880191564559937 0.3909611403942108
0.8054862022399902 0.2480820119380951 0.43951109051704407
0.707996129989624 0.22240442037582397 0.3776451349258423
0.6336312294006348 0.13007088005542755 0.46804800629615784
0.8006439805030823 0.15161432325839996 0.4491746723651886
0.6804091930389404 0.24528129398822784 0.5318087935447693
0.7215796113014221 0.15247681736946106 0.5660027861595154
0.6226398348808289 0.2728751301765442 0.3928438723087311
0.6919076442718506 0.2832154929637909 0.47145983576774597
0.642029345035553 0.20876826345920563 0.5088427662849426
0.7666735053062439 0.17912645637989044 0.5332654714584351
0.7755762338638306 0.2385028451681137 0.5210654735565186
0.7967498302459717 0.26507386565208435 0.4167422950267792
0.7250773310661316 0.3010160028934479 0.45953676104545593
0.7769911885261536 0.2712123692035675 0.37188461422920227
0.7207765579223633 0.14363686740398407 0.49018365144729614
0.6033640503883362 0.1766025722026825 0.5193140506744385
0.7697681188583374 0.15693344175815582 0.4829811453819275
0.7292171120643616 0.2097000926733017 0.3920690715312958
0.6543159484863281 0.12139934301376343 0.4193003177642822
0.7044143080711365 0.27009832859039307 0.49011069536209106
0.7802447080612183 0.1395936757326126 0.46830201148986816
0.7553192377090454 0.14792802929878235 0.459440678358078
0.7582183480262756 0.12550537288188934 0.4696262776851654
0.6384514570236206 0.14275598526000977 0.37769660353660583
0.6702083945274353 0.27554216980934143 0.41017287969589233
0.7186205983161926 0.13429014384746552 0.41572678089141846
0.7494080662727356 0.3065450191497803 0.43140920996665955
0.6306577920913696 0.21885134279727936 0.5159327387809753
0.6251307725906372 0.28657302260398865 0.46764320135116577
0.7385353446006775 0.25455528497695923 0.4506343901157379
0.7217817902565002 0.19066974520683289 0.5187053084373474
0.6573475003242493 0.19916608929634094 0.4813542366027832
0.7033737301826477 0.18152247369289398 0.462942510843277
0.7735402584075928 0.13634398579597473 0.4963492453098297
0.60929936170578 0.1551102101802826 0.5068838596343994
0.7487835884094238 0.11716707795858383 0.40063056349754333
0.6537911295890808 0.1967560350894928 0.5158277153968811
0.6816643476486206 0.2360157072544098 0.352435827255249
0.7767974734306335 0.27118954062461853 0.3934318721294403
0.6015953421592712 0.1333886831998825 0.4646851718425751
0.7395259737968445 0.2664802372455597 0.3420732617378235
0.7642292976379395 0.15922658145427704 0.5632334351539612
0.6415320634841919 0.2484743893146515 0.33775633573532104
0.6121817827224731 0.14660762250423431 0.5083563327789307
0.7356705069541931 0.1688624769449234 0.36302900314331055
0.7782312035560608 0.14256955683231354 0.4558148682117462
0.7223851084709167 0.14851315319538116 0.38135406374931335
0.6991049647331238 0.12360678613185883 0.45230841636657715
0.7918662428855896 0.2828487455844879 0.4561746120452881
0.6189876198768616 0.323589026927948 0.45188042521476746
0.6993527412414551 0.1683139055967331 0.48009657859802246
0.6334171295166016 0.11694010347127914 0.4202796518802643
0.7488450407981873 0.19193154573440552 0.555160641670227
0.7815696597099304 0.21793979406356812 0.45976078510284424
0.7822405695915222 0.28679078817367554 0.3955981433391571
0.7574841380119324 0.1467812955379486 0.4503958225250244
0.7510392665863037 0.15104253590106964 0.46946072578430176
0.8092211484909058 0.17960242927074432 0.4013553559780121
0.7527502179145813 0.23582066595554352 0.36848706007003784
0.7232197523117065 0.2561391294002533 0.3383297026157379
0.6571503281593323 0.2637373208999634 0.4224764108657837
0.6804091930389404 0.24528129398822784 0.5318087935447693
0.7215796113014221 0.15247681736946106 0.5660027861595154
0.6226398348808289 0.2728751301765442 0.3928438723087311
0.6919076442718506 0.2832154929637909 0.47145983576774597
0.642029345035553 0.20876826345920563 0.5088427662849426
0.7666735053062439 0.17912645637989044 0.5332654714584351
0.7755762338638306 0.2385028451681137 0.5210654735565186
0.7967498302459717 0.26507386565208435 0.4167422950267792
0.7166190147399902 0.28512871265411377 0.4474254846572876
0.7466094493865967 0.24649308621883392 0.3477346897125244
0.6463947296142578 0.15329359471797943 0.4608477056026459
0.7159246206283569 0.1866162270307541 0.37039318680763245
0.6012874841690063 0.3124893605709076 0.4241598844528198
0.7603620290756226 0.19558864831924438 0.5028095841407776
0.7091014385223389 0.23382607102394104 0.524937093257904
0.762206494808197 0.22446785867214203 0.39091944694519043
0.7592318058013916 0.22152961790561676 0.42813798785209656
0.78324955701828 0.12212640792131424 0.46438971161842346
0.7697681188583374 0.15693344175815582 0.4829811453819275
0.7292171120643616 0.2097000926733017 0.3920690715312958
0.6543159484863281 0.12139934301376343 0.4193003177642822
0.7044143080711365 0.27009832859039307 0.49011069536209106
0.7802447080612183 0.1395936757326126 0.46830201148986816
0.7553192377090454 0.14792802929878235 0.459440678358078
0.7582183480262756 0.12550537288188934 0.4696262776851654
0.6070230603218079 0.21090522408485413 0.5060034394264221
0.7002631425857544 0.22333718836307526 0.5007212162017822
0.755403995513916 0.15366604924201965 0.5198460221290588
0.613982617855072 0.15808551013469696 0.5335046052932739
0.655649721622467 0.13723188638687134 0.3863133490085602
0.6316623687744141 0.20392347872257233 0.45257431268692017
0.667118489742279 0.20155932009220123 0.4876888692378998
0.6332010626792908 0.22347591817378998 0.4589901268482208
0.7496798634529114 0.1389346718788147 0.42048317193984985
0.665958046913147 0.24987712502479553 0.3145791292190552
0.5924699902534485 0.2443406730890274 0.4877169132232666
0.7368778586387634 0.3223721385002136 0.4739951491355896
0.7018043994903564 0.25327783823013306 0.4351721405982971
0.6537911295890808 0.1967560350894928 0.5158277153968811
0.6577506065368652 0.2822291851043701 0.43789929151535034
0.6807143092155457 0.23586693406105042 0.3529251217842102
0.7507419586181641 0.2831724286079407 0.41927602887153625
0.6982983946800232 0.12239936739206314 0.3788255453109741
0.8012998104095459 0.2164580225944519 0.44710680842399597
0.7020975947380066 0.11691920459270477 0.40064606070518494
0.6823921203613281 0.26102808117866516 0.5130648016929626
0.6528183817863464 0.2808457314968109 0.43053898215293884
0.7041892409324646 0.18847931921482086 0.35760289430618286
0.7892256379127502 0.3076229691505432 0.4520604908466339
0.7572041749954224 0.2778976857662201 0.36919593811035156
0.7697681188583374 0.15693344175815582 0.4829811453819275
0.7487835884094238 0.11716707795858383 0.40063056349754333
0.7148504257202148 0.23226933181285858 0.42211106419563293
0.6143401265144348 0.14260616898536682 0.5159010887145996
0.669405996799469 0.2745298147201538 0.4968370497226715
0.7780665755271912 0.15476571023464203 0.5009616613388062
0.6383748054504395 0.19359786808490753 0.4370776116847992
0.6714756488800049 0.17435835301876068 0.42193329334259033
0.7179248929023743 0.2695649266242981 0.48612281680107117
0.6255600452423096 0.18522769212722778 0.4319904148578644
0.6869333982467651 0.25666800141334534 0.4461699426174164
0.7710817456245422 0.2663280963897705 0.4627484083175659
0.7933381795883179 0.21742692589759827 0.3817753493785858
0.6860102415084839 0.28299131989479065 0.3385297358036041
0.6519212126731873 0.1960127204656601 0.4944656491279602
0.7055091857910156 0.29530197381973267 0.42012813687324524
0.7516053915023804 0.23695503175258636 0.4425997734069824
0.6459037661552429 0.2404145747423172 0.4853579103946686
0.6226018667221069 0.24319776892662048 0.4446014165878296
0.6918096542358398 0.23547598719596863 0.5395532250404358
0.6045392155647278 0.17878375947475433 0.5107113122940063
0.7923919558525085 0.13874180614948273 0.44954317808151245
0.6652714014053345 0.1475299894809723 0.4057607352733612
0.6273617148399353 0.2384759485721588 0.5138953924179077
0.801866888999939 0.16274617612361908 0.44011029601097107
0.6051117777824402 0.1832028031349182 0.5214828252792358
0.7910090088844299 0.2767234444618225 0.4431133270263672
0.7504206299781799 0.14128439128398895 0.4776275157928467
0.7555432319641113 0.15410329401493073 0.5484335422515869
0.7277283668518066 0.28471270203590393 0.47863513231277466
0.7011996507644653 0.28631243109703064 0.3345823585987091
0.6368601322174072 0.2481725513935089 0.3424377143383026
0.7439004778862 0.2468193918466568 0.36047565937042236
0.7072404026985168 0.27626556158065796 0.3252597451210022
0.7770381569862366 0.261740118265152 0.3590490221977234
0.6252386569976807 0.21192780137062073 0.4320332109928131
0.6957717537879944 0.2649233043193817 0.36943066120147705
0.7948557734489441 0.1597900092601776 0.4028996229171753
0.757524847984314 0.1773225963115692 0.540628969669342
0.7430448532104492 0.21600042283535004 0.5322890877723694
0.6989024877548218 0.18799397349357605 0.34453636407852173
0.7642455101013184 0.18085546791553497 0.544312059879303
0.6946285963058472 0.1723223477602005 0.5152379274368286
0.6468271613121033 0.2588807940483093 0.42181432247161865
0.6730128526687622 0.24617841839790344 0.44853758811950684
0.7866780757904053 0.17280223965644836 0.45527538657188416
0.7183108329772949 0.13101232051849365 0.445625901222229
0.6232449412345886 0.30348625779151917 0.45528286695480347
0.6244109869003296 0.28540661931037903 0.39710286259651184
0.7777031660079956 0.20271073281764984 0.42134883999824524
0.7334587574005127 0.24054749310016632 0.361943781375885
0.7205935120582581 0.1903185099363327 0.4925587773323059
0.7724816203117371 0.27843916416168213 0.4301915764808655
0.6487860083580017 0.19363227486610413 0.4060511887073517
0.6386048793792725 0.13396640121936798 0.4215987026691437
0.7384514212608337 0.12455975264310837 0.42804932594299316
0.6087629199028015 0.19467228651046753 0.4789215624332428
0.679187536239624 0.2858615815639496 0.4281550943851471
0.6963326930999756 0.15379475057125092 0.5561282634735107
0.7098212838172913 0.2524762451648712 0.3572312593460083
0.6926348209381104 0.18644848465919495 0.5289238095283508
0.7478306889533997 0.29286420345306396 0.4005395472049713
0.755584716796875 0.23523405194282532 0.3778115510940552
0.610882580280304 0.29905936121940613 0.48642683029174805
0.6375460028648376 0.13657210767269135 0.4946537911891937
0.7414699196815491 0.23115134239196777 0.4378375709056854
0.7077396512031555 0.22626283764839172 0.43815940618515015
0.6201614737510681 0.20426343381404877 0.469395250082016
0.7834029197692871 0.27914661169052124 0.39475640654563904
0.7090218663215637 0.19716162979602814 0.4920212924480438
0.718390941619873 0.27766555547714233 0.34479770064353943
0.7512452602386475 0.26969072222709656 0.34003642201423645
0.8220693469047546 0.2391161471605301 0.38497135043144226
0.8135854601860046 0.17591387033462524 0.4435369670391083
0.6908233761787415 0.14667253196239471 0.38920581340789795
0.6764634251594543 0.13850440084934235 0.5158247351646423
0.6999119520187378 0.21259982883930206 0.44412726163864136
0.706418514251709 0.1662609875202179 0.3906083106994629
0.6730577349662781 0.2713252305984497 0.3800744116306305
0.6843469738960266 0.22629231214523315 0.4994855225086212
0.7560061812400818 0.2879863381385803 0.41196703910827637
0.716001570224762 0.14666812121868134 0.378755122423172
0.7175000309944153 0.24329179525375366 0.3442322015762329
0.7638925909996033 0.25298652052879333 0.3730427324771881
0.7559233903884888 0.25114306807518005 0.5238568186759949
0.6764009594917297 0.11280681937932968 0.37443485856056213
0.6618403196334839 0.33692339062690735 0.48826542496681213
0.7305470108985901 0.11661402881145477 0.4221610426902771
0.6566710472106934 0.2503632605075836 0.4964403212070465
0.792159378528595 0.15556713938713074 0.4871680736541748
0.6676221489906311 0.1981036365032196 0.366157591342926
0.6973063349723816 0.29073479771614075 0.5157381296157837
0.7279502153396606 0.29837900400161743 0.44485563039779663
0.8079325556755066 0.18187473714351654 0.40799692273139954
0.8098704814910889 0.18000754714012146 0.3953080475330353
0.6619749069213867 0.2599650025367737 0.39377281069755554
0.6482397317886353 0.2873537540435791 0.3539148271083832
0.7033737301826477 0.18152247369289398 0.462942510843277
0.7735402584075928 0.13634398579597473 0.4963492453098297
0.60929936170578 0.1551102101802826 0.5068838596343994
0.6607360243797302 0.20033365488052368 0.5115829110145569
0.6593199968338013 0.2809980809688568 0.44155898690223694
0.6729094982147217 0.2500172555446625 0.3842349350452423
0.7414699196815491 0.23115134239196777 0.4378375709056854
0.7077396512031555 0.22626283764839172 0.43815940618515015
0.6901596188545227 0.19377265870571136 0.45665866136550903
0.7813509106636047 0.12418574839830399 0.45118430256843567
0.6805866956710815 0.1312764585018158 0.4070103168487549
0.7044300436973572 0.18725989758968353 0.5493245124816895
0.7195785641670227 0.23896853625774384 0.3467201590538025
0.6419717073440552 0.29508650302886963 0.415183961391449
0.7950408458709717 0.16895385086536407 0.44755005836486816
0.7049562335014343 0.243782177567482 0.4392966628074646
0.7079246044158936 0.1962476372718811 0.5544468760490417
0.7862074971199036 0.1246669813990593 0.44838735461235046
0.6718057990074158 0.13094371557235718 0.4847629964351654
0.7280053496360779 0.11143118888139725 0.38698846101760864
0.643748939037323 0.30171146988868713 0.4155784547328949
0.7561742663383484 0.18394316732883453 0.49518758058547974
0.6191719770431519 0.14863653481006622 0.49959272146224976
0.6617522239685059 0.31335392594337463 0.4587443768978119
0.6341667771339417 0.2373305857181549 0.3765777349472046
0.6428629755973816 0.19381116330623627 0.5188696384429932
0.7309331893920898 0.24703623354434967 0.4782401919364929
0.7924445271492004 0.2948242425918579 0.4608335793018341
0.6252638101577759 0.1412522792816162 0.4680239260196686
0.8223208785057068 0.23591260612010956 0.386534720659256
0.6526603102684021 0.18405386805534363 0.45248323678970337
0.7576811909675598 0.13032309710979462 0.4320833384990692
0.7152810096740723 0.13578885793685913 0.38016149401664734
0.7523854970932007 0.15945999324321747 0.5465298295021057
0.6789180040359497 0.21638940274715424 0.4102800786495209
0.6707889437675476 0.24312561750411987 0.4665904641151428
0.7804490327835083 0.2731929123401642 0.41262584924697876
0.6655882596969604 0.2512139081954956 0.35910725593566895
0.6488287448883057 0.22175778448581696 0.42694512009620667
0.7534649968147278 0.24157123267650604 0.42252883315086365
0.7347843647003174 0.25765806436538696 0.4883524477481842
0.7144836783409119 0.2634923756122589 0.4463047683238983
0.7909892201423645 0.26470211148262024 0.3968689739704132
0.6294541954994202 0.3071676790714264 0.49057063460350037
0.7642455101013184 0.18085546791553497 0.544312059879303
0.7813137173652649 0.23279857635498047 0.46103549003601074
0.6748466491699219 0.15785986185073853 0.543980062007904
0.7595110535621643 0.29742854833602905 0.510442852973938
0.6840955018997192 0.14672444760799408 0.3645336329936981
0.7051330804824829 0.13676609098911285 0.3916856646537781
0.649323582649231 0.2507721483707428 0.4613097012042999
0.7766428589820862 0.20021550357341766 0.39409422874450684
0.7771868109703064 0.2609393000602722 0.4011533856391907
0.6581431031227112 0.19324031472206116 0.3439183235168457
0.6810683012008667 0.2034691423177719 0.48542478680610657
0.696445882320404 0.2618914842605591 0.39807212352752686
0.7462978959083557 0.23276139795780182 0.5319558382034302
0.6311286091804504 0.11469761282205582 0.3886982500553131
0.5932157635688782 0.30783915519714355 0.4747663736343384
0.7054056525230408 0.18777450919151306 0.44606438279151917
0.6692209839820862 0.2922672927379608 0.46306362748146057
0.6242498159408569 0.27747640013694763 0.4353425204753876
0.734630286693573 0.18316039443016052 0.3720512390136719
0.6805323958396912 0.14117863774299622 0.4566030502319336
0.5887463092803955 0.33246734738349915 0.4605884850025177
0.7493860125541687 0.1812462955713272 0.5234329700469971
0.722389817237854 0.32865527272224426 0.5187994837760925
0.7416256666183472 0.31344547867774963 0.46453404426574707
0.7236706614494324 0.13647900521755219 0.4859696626663208
0.7729882001876831 0.21293047070503235 0.5115428566932678
0.7868602275848389 0.27548205852508545 0.4415628910064697
0.7195871472358704 0.14854301512241364 0.5093653798103333
0.6758416295051575 0.300399512052536 0.4564139246940613
0.6579256653785706 0.2810533344745636 0.3319752812385559
0.7564201354980469 0.126234233379364 0.43177899718284607
0.6624691486358643 0.13435399532318115 0.4239344596862793
0.6125910878181458 0.23860886693000793 0.4302297532558441
0.6315478682518005 0.30021941661834717 0.36239123344421387
0.6902375221252441 0.2070537954568863 0.37605372071266174
0.6779080033302307 0.22726751863956451 0.5352376699447632
0.762044370174408 0.2822421193122864 0.378170907497406
0.6596012711524963 0.26906147599220276 0.48680055141448975
0.7140039205551147 0.1786588579416275 0.4681030809879303
0.721238911151886 0.15347135066986084 0.5197853446006775
0.6540128588676453 0.31318536400794983 0.4066244959831238
0.6560980081558228 0.19401612877845764 0.4455154538154602
0.6576340198516846 0.17749059200286865 0.48402684926986694
0.7589594125747681 0.15201587975025177 0.5061622262001038
0.7322925329208374 0.30186253786087036 0.4933258295059204
0.755584716796875 0.23523405194282532 0.3778115510940552
0.6278396248817444 0.3074862062931061 0.4771648347377777
0.6095430254936218 0.24866501986980438 0.4977191686630249
0.6369509696960449 0.17400671541690826 0.3881482779979706
0.7043992280960083 0.2292221337556839 0.490495502948761
0.7484052181243896 0.21299326419830322 0.5248095989227295
0.6792930960655212 0.16371884942054749 0.5157809257507324
0.7072404026985168 0.27626556158065796 0.3252597451210022
0.7770381569862366 0.261740118265152 0.3590490221977234
0.6252386569976807 0.21192780137062073 0.4320332109928131
0.6957717537879944 0.2649233043193817 0.36943066120147705
0.7948557734489441 0.1597900092601776 0.4028996229171753
0.6666374206542969 0.2903437614440918 0.3390667736530304
0.6629038453102112 0.21696381270885468 0.41957879066467285
0.6946285963058472 0.1723223477602005 0.5152379274368286
0.6468271613121033 0.2588807940483093 0.42181432247161865
0.6730128526687622 0.24617841839790344 0.44853758811950684
0.6129132509231567 0.24866679310798645 0.5068015456199646
0.6232449412345886 0.30348625779151917 0.45528286695480347
0.6244109869003296 0.28540661931037903 0.39710286259651184
0.7777031660079956 0.20271073281764984 0.42134883999824524
0.7334587574005127 0.24054749310016632 0.361943781375885
0.7205935120582581 0.1903185099363327 0.4925587773323059
0.7724816203117371 0.27843916416168213 0.4301915764808655
0.6487860083580017 0.19363227486610413 0.4060511887073517
0.6386048793792725 0.13396640121936798 0.4215987026691437
0.7384514212608337 0.12455975264310837 0.42804932594299316
0.7441070079803467 0.2595314383506775 0.4415706396102905
0.6026207208633423 0.2290685921907425 0.456831693649292
0.7491803765296936 0.291509747505188 0.403621107339859
0.6608508825302124 0.25359976291656494 0.38143011927604675
0.6926348209381104 0.18644848465919495 0.5289238095283508
0.6157393455505371 0.21671074628829956 0.510486364364624
0.7322925329208374 0.30186253786087036 0.4933258295059204
0.7936465740203857 0.13038578629493713 0.4811152517795563
0.6853286623954773 0.24928472936153412 0.5375123620033264
0.7851170897483826 0.24838095903396606 0.4425449073314667
0.8034683465957642 0.1509535163640976 0.47341474890708923
0.6316623687744141 0.20392347872257233 0.45257431268692017
0.7223833203315735 0.21483592689037323 0.3696845471858978
0.7462568283081055 0.13089489936828613 0.5012985467910767
0.6971148252487183 0.16145700216293335 0.4904824197292328
0.7305986881256104 0.1697099804878235 0.5023006200790405
0.7790638208389282 0.13051243126392365 0.45965614914894104
0.737380862236023 0.16372817754745483 0.47762158513069153
0.7809775471687317 0.1719517707824707 0.4405960142612457
0.725373387336731 0.11947210133075714 0.4010583460330963
0.749637246131897 0.26536300778388977 0.3833741545677185
0.7611638903617859 0.13844510912895203 0.464762419462204
0.6511533856391907 0.27524688839912415 0.3576832413673401
0.6640228629112244 0.2452833354473114 0.4943348467350006
0.7741495370864868 0.24320054054260254 0.5152764320373535
0.7241804599761963 0.2976340651512146 0.4481891691684723
0.6154460310935974 0.22248631715774536 0.49208107590675354
0.6184490919113159 0.25046658515930176 0.4395922124385834
0.669787585735321 0.2827777564525604 0.42546120285987854
0.719702422618866 0.1362682431936264 0.5311615467071533
0.7201571464538574 0.11800318956375122 0.3772214651107788
0.649593710899353 0.16828390955924988 0.39541465044021606
0.7498106360435486 0.26102790236473083 0.43520861864089966
0.7492038607597351 0.15364517271518707 0.40439555048942566
0.7734639644622803 0.25203731656074524 0.3976781964302063
0.6820831894874573 0.23506975173950195 0.5260772705078125
0.6735575199127197 0.13544109463691711 0.4685838222503662
0.6559637188911438 0.1302301436662674 0.35036683082580566
0.679791271686554 0.1726236194372177 0.5242634415626526
0.7213186621665955 0.28951728343963623 0.5013935565948486
0.6509241461753845 0.16194956004619598 0.46187064051628113
0.7893595695495605 0.2802180349826813 0.41617631912231445
0.7631487250328064 0.21779334545135498 0.41910552978515625
0.7577545642852783 0.17226393520832062 0.4126802682876587
0.8066802024841309 0.27242833375930786 0.38111814856529236
0.7465910911560059 0.23992420732975006 0.5379573702812195
0.6829996109008789 0.1944536566734314 0.3504004180431366
0.6347318887710571 0.19285188615322113 0.39642664790153503
0.7195579409599304 0.1280754804611206 0.38572704792022705
0.5925731658935547 0.2633484899997711 0.48983263969421387
0.7266742587089539 0.1957389861345291 0.4405743479728699
0.6374924182891846 0.1371999979019165 0.4657835364341736
0.6689227223396301 0.1555720716714859 0.5454780459403992
0.6646548509597778 0.18672128021717072 0.4601382613182068
0.7888295650482178 0.25774675607681274 0.48334699869155884
0.6589959859848022 0.2676182985305786 0.30363547801971436
0.7188991904258728 0.25656282901763916 0.5431255102157593
0.6316114068031311 0.21872065961360931 0.41332563757896423
0.6498017311096191 0.2226569652557373 0.4179200232028961
0.7245728373527527 0.25898635387420654 0.3824276030063629
0.7656707763671875 0.18873605132102966 0.43574967980384827
0.6617769598960876 0.16841773688793182 0.4326882064342499
0.6677917242050171 0.19279764592647552 0.38143035769462585
0.7407955527305603 0.29916587471961975 0.5049079656600952
0.8263562917709351 0.2622324824333191 0.4001353085041046
0.8285688757896423 0.19110503792762756 0.4104883372783661
0.6326293349266052 0.19909828901290894 0.48834526538848877
0.6595126390457153 0.1525346338748932 0.5074257254600525
0.7105743885040283 0.29225268959999084 0.3735594153404236
0.6740768551826477 0.2583445906639099 0.327825665473938
0.7013658881187439 0.14799551665782928 0.5364929437637329
0.6364534497261047 0.20721687376499176 0.3797489106655121
0.737666130065918 0.28541043400764465 0.48309385776519775
0.7143240571022034 0.2670144736766815 0.5358584523200989
0.6870297789573669 0.30510470271110535 0.45713531970977783
0.6902374625205994 0.18537361919879913 0.4792451560497284
0.7368442416191101 0.2090648114681244 0.5524170398712158
0.7714517116546631 0.26176759600639343 0.4678051173686981
0.7072404026985168 0.27626556158065796 0.3252597451210022
0.7878502011299133 0.24831850826740265 0.43092042207717896
0.6594218611717224 0.18769435584545135 0.5095210671424866
0.6843582987785339 0.16998545825481415 0.34767505526542664
0.8141260743141174 0.2824708819389343 0.3698403537273407
0.6145147085189819 0.16334837675094604 0.4860254228115082
0.7266742587089539 0.1957389861345291 0.4405743479728699
0.6374924182891846 0.1371999979019165 0.4657835364341736
0.6689227223396301 0.1555720716714859 0.5454780459403992
0.6646548509597778 0.18672128021717072 0.4601382613182068
0.7888295650482178 0.25774675607681274 0.48334699869155884
0.6752806305885315 0.24850799143314362 0.38483235239982605
0.7400251626968384 0.17196477949619293 0.39203476905822754
0.6804872751235962 0.29623591899871826 0.48337477445602417
0.7112925052642822 0.18495529890060425 0.4275163412094116
0.6086111068725586 0.27204635739326477 0.4143138825893402
0.6382956504821777 0.2011389136314392 0.5137671828269958
0.7501820921897888 0.29481789469718933 0.3895198106765747
0.7322961688041687 0.3269904553890228 0.5134597420692444
0.6644070744514465 0.28601744771003723 0.41436195373535156
0.6448776721954346 0.15956558287143707 0.4524362087249756
0.7707642316818237 0.2744424641132355 0.3973526060581207
0.6274125576019287 0.16578207910060883 0.5056984424591064
0.6252719163894653 0.13433142006397247 0.4871717691421509
0.6253092288970947 0.30861055850982666 0.416534960269928
0.819905161857605 0.1475910246372223 0.428815096616745
0.7750385999679565 0.2107919305562973 0.40014421939849854
0.7042950391769409 0.3407104015350342 0.5084953308105469
0.769981324672699 0.2520015835762024 0.44510364532470703
0.7368442416191101 0.2090648114681244 0.5524170398712158
0.7714517116546631 0.26176759600639343 0.4678051173686981
0.7072404026985168 0.27626556158065796 0.3252597451210022
0.7770381569862366 0.261740118265152 0.3590490221977234
0.6252386569976807 0.21192780137062073 0.4320332109928131
0.6957717537879944 0.2649233043193817 0.36943066120147705
0.7948557734489441 0.1597900092601776 0.4028996229171753
0.757524847984314 0.1773225963115692 0.540628969669342
0.7430448532104492 0.21600042283535004 0.5322890877723694
0.6989024877548218 0.18799397349357605 0.34453636407852173
0.7703120708465576 0.22145399451255798 0.49199461936950684
0.6373436450958252 0.16841886937618256 0.47714972496032715
0.7470090389251709 0.26859036087989807 0.4819343090057373
0.6936601996421814 0.22276277840137482 0.3938869535923004
0.6804872751235962 0.29623591899871826 0.48337477445602417
0.7112925052642822 0.18495529890060425 0.4275163412094116
0.6335358023643494 0.24251876771450043 0.49252161383628845
0.6150210499763489 0.15001317858695984 0.4440149664878845
0.7528283596038818 0.27653247117996216 0.4342438578605652
0.7635977268218994 0.2879122197628021 0.5066331624984741
0.6730016469955444 0.33063188195228577 0.471802294254303
0.614753007888794 0.1590844839811325 0.4620126783847809
0.7461183071136475 0.2652416527271271 0.4255531430244446
0.629874587059021 0.1511457860469818 0.543821394443512
0.6116235256195068 0.19985221326351166 0.49121910333633423
0.7500540614128113 0.20585061609745026 0.47282689809799194
0.7103774547576904 0.25517407059669495 0.3175668716430664
0.7463358044624329 0.19948460161685944 0.5680647492408752
0.7801505923271179 0.3080867826938629 0.42335957288742065
0.7392070889472961 0.2556777894496918 0.4505493938922882
0.7456753849983215 0.19179964065551758 0.405591756105423
0.8123350739479065 0.1957528293132782 0.39479732513427734
0.5925731658935547 0.2633484899997711 0.48983263969421387
0.7888295650482178 0.25774675607681274 0.48334699869155884
0.6752806305885315 0.24850799143314362 0.38483235239982605
0.7400251626968384 0.17196477949619293 0.39203476905822754
0.6804872751235962 0.29623591899871826 0.48337477445602417
0.7112925052642822 0.18495529890060425 0.4275163412094116
0.6086111068725586 0.27204635739326477 0.4143138825893402
0.6382956504821777 0.2011389136314392 0.5137671828269958
0.7501820921897888 0.29481789469718933 0.3895198106765747
0.7322961688041687 0.3269904553890228 0.5134597420692444
0.6644070744514465 0.28601744771003723 0.41436195373535156
0.6448776721954346 0.15956558287143707 0.4524362087249756
0.7707642316818237 0.2744424641132355 0.3973526060581207
0.6274125576019287 0.16578207910060883 0.5056984424591064
0.6252719163894653 0.13433142006397247 0.4871717691421509
0.6253092288970947 0.30861055850982666 0.416534960269928
0.819905161857605 0.1475910246372223 0.428815096616745
0.7750385999679565 0.2107919305562973 0.40014421939849854
0.7042950391769409 0.3407104015350342 0.5084953308105469
0.769981324672699 0.2520015835762024 0.44510364532470703
0.7054926753044128 0.23207373917102814 0.3310374617576599
0.6482359170913696 0.22727487981319427 0.4100096821784973
0.7500433325767517 0.2810963988304138 0.3315664529800415
0.6588507890701294 0.16458988189697266 0.5085119605064392
0.7302183508872986 0.13182850182056427 0.47914260625839233
0.6598591208457947 0.18507130444049835 0.4430709779262543
0.7292242050170898 0.2577084004878998 0.49312835931777954
0.6253854036331177 0.24988184869289398 0.49334681034088135
0.6394073367118835 0.19839411973953247 0.39600077271461487
0.7013947367668152 0.25117844343185425 0.45043498277664185
0.7600063681602478 0.23005659878253937 0.36837369203567505
0.7137618660926819 0.18655122816562653 0.4464084506034851
0.6810683012008667 0.2034691423177719 0.48542478680610657
0.7767528295516968 0.2628226578235626 0.375224769115448
0.7365179657936096 0.2702905535697937 0.489340215921402
0.7784510254859924 0.25436678528785706 0.47396954894065857
0.6642592549324036 0.17174772918224335 0.4717937409877777
0.655737042427063 0.31697070598602295 0.4165801405906677
0.6549648642539978 0.2090931385755539 0.39829114079475403
0.6643329858779907 0.19289390742778778 0.43719571828842163
0.6748621463775635 0.17367172241210938 0.4155932366847992
0.6096563935279846 0.18642260134220123 0.4587203860282898
0.6919640302658081 0.23744960129261017 0.43925750255584717
0.7486974596977234 0.30906033515930176 0.5168770551681519
0.6270920634269714 0.22074352204799652 0.41307303309440613
0.6520194411277771 0.25241172313690186 0.31706011295318604
0.6166574358940125 0.20354028046131134 0.5178899168968201
0.744682252407074 0.1564224809408188 0.42520466446876526
0.6724213361740112 0.3086899220943451 0.40070661902427673
0.6597028374671936 0.12137230485677719 0.4105573892593384
0.7660605907440186 0.19702011346817017 0.40330785512924194
0.8044213056564331 0.12336423993110657 0.4616791009902954
0.8081657290458679 0.25441721081733704 0.4088123142719269
0.7186928391456604 0.22610333561897278 0.4366975724697113
0.7198594808578491 0.2488996386528015 0.3641103506088257
0.7619501352310181 0.18817615509033203 0.45045068860054016
0.7350231409072876 0.16859915852546692 0.5283900499343872
0.6960195899009705 0.1866370141506195 0.3494495451450348
0.7050253748893738 0.283645898103714 0.40002521872520447
0.6742220520973206 0.12197107821702957 0.40528035163879395
0.6900030970573425 0.2773149013519287 0.360801100730896
0.7549490332603455 0.2445221245288849 0.4268835186958313
0.6394280791282654 0.18648868799209595 0.5098876357078552
0.7024615406990051 0.21436426043510437 0.40621691942214966
0.762044370174408 0.2822421193122864 0.378170907497406
0.7877737879753113 0.12272194772958755 0.40596431493759155
0.7427891492843628 0.19955536723136902 0.5670605301856995
0.6869663000106812 0.28270915150642395 0.333201140165329
0.6663753390312195 0.18289580941200256 0.4533868730068207
0.6945891976356506 0.2354699969291687 0.5248560309410095
0.6966717839241028 0.23295322060585022 0.4675436019897461
0.6310425996780396 0.17095907032489777 0.38387978076934814
0.6378540396690369 0.1859063357114792 0.42605048418045044
0.7690046429634094 0.21329104900360107 0.4478852450847626
0.7851170897483826 0.24838095903396606 0.4425449073314667
0.8034683465957642 0.1509535163640976 0.47341474890708923
0.6461015939712524 0.15862372517585754 0.3724321126937866
0.6883872151374817 0.275358647108078 0.32144251465797424
0.657403826713562 0.21605819463729858 0.5349165797233582
0.7589110732078552 0.2510826289653778 0.4399062693119049
0.6438525319099426 0.32494890689849854 0.44912102818489075
0.7804949879646301 0.12128075212240219 0.4456048905849457
0.7583431601524353 0.28646302223205566 0.35681185126304626
0.7386243343353271 0.2783675789833069 0.37372833490371704
0.7709776163101196 0.12853950262069702 0.4614622890949249
0.6516500115394592 0.3045424818992615 0.4252265989780426
0.7162663340568542 0.22835804522037506 0.34291961789131165
0.6420506834983826 0.14048248529434204 0.5207557678222656
0.7396773099899292 0.21157974004745483 0.46702107787132263
0.6863422393798828 0.12158437818288803 0.3635808527469635
0.739773154258728 0.23244911432266235 0.5248949527740479
0.7344162464141846 0.1867738664150238 0.556937038898468
0.7730860710144043 0.2638933062553406 0.4686933159828186
0.7108507752418518 0.26565825939178467 0.4481176435947418
0.6842079758644104 0.21087351441383362 0.3252951502799988
0.7200742363929749 0.25343436002731323 0.5009461641311646
0.7364267110824585 0.2276575267314911 0.38509586453437805
0.790962278842926 0.19399584829807281 0.3924585282802582
0.7068635821342468 0.3145189583301544 0.4643156826496124
0.6485946774482727 0.194518581032753 0.3561094105243683
0.7832143306732178 0.2281448096036911 0.463717520236969
0.7410260438919067 0.24746137857437134 0.5515497922897339
0.8286479115486145 0.26228418946266174 0.3702711760997772
0.6374867558479309 0.23999594151973724 0.4427095651626587
0.8030184507369995 0.20427167415618896 0.4348853826522827
0.6134769916534424 0.25567618012428284 0.4996212422847748
0.7483940720558167 0.25143152475357056 0.5357860326766968
0.6978163719177246 0.2406410276889801 0.36908358335494995
0.6508005857467651 0.20925715565681458 0.4887670576572418
0.7800434231758118 0.14420564472675323 0.5025067329406738
0.7610628008842468 0.2538149058818817 0.4521181881427765
0.6200624108314514 0.29037588834762573 0.436601847410202
0.6466156244277954 0.2938690781593323 0.400706022977829
0.7309253215789795 0.23221124708652496 0.4608778953552246
0.7774384021759033 0.1481429785490036 0.43732497096061707
0.6978370547294617 0.25691547989845276 0.46109193563461304
0.7619495987892151 0.22086839377880096 0.3683847188949585
0.6899830102920532 0.1903066337108612 0.471809983253479
0.8282977938652039 0.21119728684425354 0.4048188030719757
0.7008947134017944 0.13957184553146362 0.504982054233551
0.7530547976493835 0.19351381063461304 0.511949360370636
0.6695755124092102 0.2682796120643616 0.43863552808761597
0.6141990423202515 0.16212674975395203 0.43146324157714844
0.7852551341056824 0.2518197000026703 0.35514670610427856
0.6494913101196289 0.23900388181209564 0.5112323760986328
0.7392598390579224 0.14092101156711578 0.5238591432571411
0.6231987476348877 0.15955884754657745 0.4323178827762604
0.6812936067581177 0.24705465137958527 0.34502270817756653
0.7851170897483826 0.24838095903396606 0.4425449073314667
0.6710028052330017 0.1877126693725586 0.4532238245010376
0.7783352732658386 0.17769867181777954 0.39838334918022156
0.6354284286499023 0.3095761835575104 0.42067745327949524
0.7190821766853333 0.1166255846619606 0.4423828423023224
0.6313196420669556 0.16146843135356903 0.3869316875934601
0.6746100783348083 0.2891639471054077 0.5003628730773926
0.8256149291992188 0.17443978786468506 0.41195565462112427
0.6282269358634949 0.3298921287059784 0.4552657902240753
0.663962185382843 0.23431698977947235 0.3448115587234497
0.740365743637085 0.2274845987558365 0.5245323777198792
0.6626296043395996 0.13857091963291168 0.3792070746421814
0.7279595732688904 0.2952471375465393 0.439226359128952
0.7279595732688904 0.2952471375465393 0.439226359128952
0.6969377398490906 0.29941508173942566 0.49338245391845703
0.8024128675460815 0.21068936586380005 0.4360314905643463
0.7506093382835388 0.19646775722503662 0.380715548992157
0.6344456076622009 0.14690586924552917 0.4557594060897827
0.7106812596321106 0.15136496722698212 0.47426944971084595
0.6380122900009155 0.15037599205970764 0.48496514558792114
0.6366741061210632 0.17050878703594208 0.3595926761627197
0.8075533509254456 0.18944430351257324 0.43593481183052063
0.6467220187187195 0.2994864881038666 0.36286661028862
0.7618269920349121 0.3014819324016571 0.437914103269577
0.6339809894561768 0.19691906869411469 0.5192179679870605
0.6310282349586487 0.2978416085243225 0.43701162934303284
0.6866294741630554 0.2794547975063324 0.3599588871002197
0.7153657078742981 0.24221919476985931 0.41262996196746826
0.7615275979042053 0.26034867763519287 0.48326534032821655
0.7525150179862976 0.31799137592315674 0.48100316524505615
0.6874133348464966 0.20969130098819733 0.3950316309928894
0.7297442555427551 0.23348116874694824 0.5636176466941833
0.8123350739479065 0.1957528293132782 0.39479732513427734
0.8256149291992188 0.17443978786468506 0.41195565462112427
0.6282269358634949 0.3298921287059784 0.4552657902240753
0.663962185382843 0.23431698977947235 0.3448115587234497
0.740365743637085 0.2274845987558365 0.5245323777198792
0.6626296043395996 0.13857091963291168 0.3792070746421814
0.7279595732688904 0.2952471375465393 0.439226359128952
0.77290278673172 0.26896539330482483 0.5119547247886658
0.7054297924041748 0.20650702714920044 0.4818997383117676
0.7278891801834106 0.3027295172214508 0.46696266531944275
0.6778275370597839 0.2570733428001404 0.39186373353004456
0.6712692975997925 0.2685391306877136 0.5172470211982727
0.7293461561203003 0.16753406822681427 0.5051910281181335
0.7473340630531311 0.23032213747501373 0.48549917340278625
