ply
format ascii 1.0
element vertex 823
property float x
property float y
property float z
end_header
0.34800148010253906 0.17864647507667542 0.6325626373291016
0.2385200560092926 0.27078843116760254 0.5637934803962708
0.2954627573490143 0.12498832494020462 0.5790637731552124
0.2872374653816223 0.14425063133239746 0.45851320028305054
0.35987746715545654 0.244905024766922 0.5473337769508362
0.3650150001049042 0.23540587723255157 0.6227352023124695
0.22286459803581238 0.3103756904602051 0.5217805504798889
0.3253748118877411 0.1485355943441391 0.5378260016441345
0.24687643349170685 0.2544592022895813 0.5467263460159302
0.16725191473960876 0.15635386109352112 0.4621119201183319
0.2670554220676422 0.17535313963890076 0.47833552956581116
0.20777536928653717 0.3290259540081024 0.6322126984596252
0.22853605449199677 0.18692755699157715 0.621573269367218
0.34351590275764465 0.1307467818260193 0.5325236320495605
0.22110532224178314 0.12718836963176727 0.5543685555458069
0.26854801177978516 0.14736899733543396 0.600408673286438
0.2744368612766266 0.2591434717178345 0.6069183945655823
0.3513925075531006 0.19909942150115967 0.5328820943832397
0.2727832496166229 0.16435867547988892 0.6257878541946411
0.3061569035053253 0.21493025124073029 0.639687716960907
0.357071191072464 0.2548525035381317 0.6564555764198303
0.2148744761943817 0.1312456727027893 0.49169161915779114
0.2154758721590042 0.2871948182582855 0.506819486618042
0.24259038269519806 0.17422699928283691 0.5998260378837585
0.25479280948638916 0.1742483526468277 0.46128520369529724
0.23140613734722137 0.2804102897644043 0.5432616472244263
0.37795108556747437 0.24509215354919434 0.6157692670822144
0.34543943405151367 0.2559957802295685 0.6150760650634766
0.330666184425354 0.2936161458492279 0.5734957456588745
0.28021958470344543 0.30091509222984314 0.6031371355056763
0.19148340821266174 0.21556414663791656 0.5961117148399353
0.18139462172985077 0.14254313707351685 0.5830963850021362
0.26441729068756104 0.23789994418621063 0.538321316242218
0.24948033690452576 0.24712638556957245 0.49216002225875854
0.276009202003479 0.2717551290988922 0.6202386617660522
0.3017513155937195 0.2786024808883667 0.5120521187782288
0.2075032740831375 0.13786949217319489 0.504555344581604
0.23720580339431763 0.16249097883701324 0.4529131054878235
0.2096937596797943 0.21759682893753052 0.6505325436592102
0.22072556614875793 0.2262485772371292 0.4657417833805084
0.29768654704093933 0.271551251411438 0.6011471152305603
0.21519671380519867 0.23721320927143097 0.4575009047985077
0.30635377764701843 0.12234889715909958 0.5862083435058594
0.31921806931495667 0.13371314108371735 0.5857151746749878
0.33579403162002563 0.22031673789024353 0.5662037134170532
0.18855203688144684 0.1993791162967682 0.5489962697029114
0.2295522540807724 0.27388080954551697 0.6189865469932556
0.2927340567111969 0.13810352981090546 0.49479570984840393
0.32804086804389954 0.1785220205783844 0.5457175970077515
0.18910221755504608 0.23085372149944305 0.6474306583404541
0.33174896240234375 0.25235122442245483 0.5197355151176453
0.3061569035053253 0.21493025124073029 0.639687716960907
0.18934690952301025 0.14203795790672302 0.5187623500823975
0.23467446863651276 0.2979232370853424 0.45511767268180847
0.33079785108566284 0.2384154051542282 0.628446102142334
0.24173201620578766 0.28989776968955994 0.6347628235816956
0.2285214364528656 0.16732020676136017 0.4717214107513428
0.2090093046426773 0.23256459832191467 0.6339660882949829
0.21740971505641937 0.33847692608833313 0.5600232481956482
0.1603221595287323 0.17441211640834808 0.5322224497795105
0.333638995885849 0.15998724102973938 0.6110163927078247
0.17033569514751434 0.15006841719150543 0.558625340461731
0.28176170587539673 0.16653567552566528 0.46267983317375183
0.22354216873645782 0.14046631753444672 0.576719343662262
0.26874905824661255 0.23888395726680756 0.5032658576965332
0.2458662986755371 0.2442229688167572 0.4594956934452057
0.253743976354599 0.289895236492157 0.5995723605155945
0.25297263264656067 0.18153800070285797 0.5554623603820801
0.22566284239292145 0.22257806360721588 0.6102176308631897
0.304093599319458 0.1123865470290184 0.5066001415252686
0.23173026740550995 0.12946733832359314 0.6310039162635803
0.24019655585289001 0.12834441661834717 0.45602741837501526
0.2214752584695816 0.28311023116111755 0.48537981510162354
0.34037670493125916 0.24854864180088043 0.5101287961006165
0.39070558547973633 0.22393952310085297 0.5126100778579712
0.2385491132736206 0.20968852937221527 0.527214527130127
0.3422977328300476 0.2896265685558319 0.48833510279655457
0.22569358348846436 0.16901366412639618 0.4520658254623413
0.334066778421402 0.12195713073015213 0.5347179174423218
0.23304955661296844 0.1550302952528 0.4717141091823578
0.26670482754707336 0.19632142782211304 0.6363705992698669
0.31400442123413086 0.13352146744728088 0.6060951948165894
0.3057985007762909 0.11762439459562302 0.5218337774276733
0.2599928379058838 0.30914679169654846 0.5297316908836365
0.32920393347740173 0.2674251198768616 0.5855634212493896
0.31400442123413086 0.13352146744728088 0.6060951948165894
0.3057985007762909 0.11762439459562302 0.5218337774276733
0.16197268664836884 0.18923132121562958 0.6045474410057068
0.2773614227771759 0.3050611615180969 0.6569827795028687
0.3502068817615509 0.143820658326149 0.5305783748626709
0.31400033831596375 0.19619236886501312 0.5794185996055603
0.22801358997821808 0.33233779668807983 0.5629341006278992
0.20329223573207855 0.14020538330078125 0.46958985924720764
0.19971473515033722 0.19402964413166046 0.5887757539749146
0.2855042517185211 0.1358996331691742 0.5646803379058838
0.31559649109840393 0.20444341003894806 0.587214469909668
0.26627352833747864 0.19731292128562927 0.6183986663818359
0.3413366675376892 0.11520413309335709 0.46185046434402466
0.3129884898662567 0.25576862692832947 0.5956697463989258
0.2956008315086365 0.11377564817667007 0.5463634133338928
0.27455732226371765 0.12924082577228546 0.49812379479408264
0.2595279812812805 0.17991727590560913 0.4560413658618927
0.31847915053367615 0.2043037712574005 0.5426068305969238
0.2147751748561859 0.17551656067371368 0.5040580034255981
0.23464712500572205 0.3129625618457794 0.46982455253601074
0.26207345724105835 0.15078164637088776 0.5929865837097168
0.3150799870491028 0.2941599190235138 0.4724937379360199
0.2591383457183838 0.27528825402259827 0.6273428797721863
0.35850468277931213 0.26400890946388245 0.5555389523506165
0.31842994689941406 0.13973791897296906 0.5802629590034485
0.31842994689941406 0.13973791897296906 0.5802629590034485
0.3035188317298889 0.22577251493930817 0.4964475631713867
0.27639734745025635 0.19733433425426483 0.4677683115005493
0.27639734745025635 0.19733433425426483 0.4677683115005493
0.27995046973228455 0.18846380710601807 0.4764687418937683
0.2128639817237854 0.2808414697647095 0.5684905052185059
0.16197268664836884 0.18923132121562958 0.6045474410057068
0.3064919710159302 0.13215871155261993 0.537834644317627
0.2482089251279831 0.29018014669418335 0.6288499236106873
0.3502068817615509 0.143820658326149 0.5305783748626709
0.31400033831596375 0.19619236886501312 0.5794185996055603
0.22801358997821808 0.33233779668807983 0.5629341006278992
0.20329223573207855 0.14020538330078125 0.46958985924720764
0.19971473515033722 0.19402964413166046 0.5887757539749146
0.25581100583076477 0.23617208003997803 0.534141480922699
0.2914159595966339 0.3019126057624817 0.5294755101203918
0.2621394097805023 0.17488983273506165 0.642362654209137
0.31559649109840393 0.20444341003894806 0.587214469909668
0.26627352833747864 0.19731292128562927 0.6183986663818359
0.3413366675376892 0.11520413309335709 0.46185046434402466
0.3129884898662567 0.25576862692832947 0.5956697463989258
0.27455732226371765 0.12924082577228546 0.49812379479408264
0.2595279812812805 0.17991727590560913 0.4560413658618927
0.31847915053367615 0.2043037712574005 0.5426068305969238
0.2147751748561859 0.17551656067371368 0.5040580034255981
0.23464712500572205 0.3129625618457794 0.46982455253601074
0.26207345724105835 0.15078164637088776 0.5929865837097168
0.3150799870491028 0.2941599190235138 0.4724937379360199
0.2691247761249542 0.13798317313194275 0.5055585503578186
0.2591383457183838 0.27528825402259827 0.6273428797721863
0.35850468277931213 0.26400890946388245 0.5555389523506165
0.31842994689941406 0.13973791897296906 0.5802629590034485
0.3035188317298889 0.22577251493930817 0.4964475631713867
0.27639734745025635 0.19733433425426483 0.4677683115005493
0.37282848358154297 0.2553088963031769 0.5035222768783569
0.27995046973228455 0.18846380710601807 0.4764687418937683
0.37542515993118286 0.2690143585205078 0.6457911729812622
0.2128639817237854 0.2808414697647095 0.5684905052185059
0.2756224572658539 0.1604064404964447 0.59496009349823
0.34391263127326965 0.21650010347366333 0.5497406721115112
0.3303588926792145 0.25761857628822327 0.6099646687507629
0.32195979356765747 0.11742258071899414 0.5856525301933289
0.18099546432495117 0.207834392786026 0.5957004427909851
0.233913391828537 0.1514001339673996 0.5793811678886414
0.2371932566165924 0.16062267124652863 0.6086300015449524
0.289997398853302 0.25914597511291504 0.49271541833877563
0.20738191902637482 0.20323650538921356 0.5375891923904419
0.28934770822525024 0.27045950293540955 0.5985085368156433
0.2322489619255066 0.16514535248279572 0.5511511564254761
0.2646227478981018 0.2023903876543045 0.47205647826194763
0.2511083781719208 0.2577804923057556 0.46389007568359375
0.3294106423854828 0.1700790822505951 0.5970972776412964
0.34854933619499207 0.27407270669937134 0.5885560512542725
0.2326255589723587 0.16868866980075836 0.6213436722755432
0.26496896147727966 0.16567857563495636 0.5686242580413818
0.25397440791130066 0.1599811315536499 0.5621122121810913
0.18102985620498657 0.25386926531791687 0.5961207747459412
0.2596309185028076 0.21614550054073334 0.522951602935791
0.33596181869506836 0.26638519763946533 0.5152441263198853
0.28861692547798157 0.29595741629600525 0.5026243329048157
0.31886374950408936 0.14086468517780304 0.5374274253845215
0.3508009910583496 0.15578514337539673 0.4989263415336609
0.3595839738845825 0.2156968116760254 0.532982587814331
0.32591545581817627 0.2164076864719391 0.5851589441299438
0.2810077965259552 0.1854596734046936 0.47367945313453674
0.40503451228141785 0.25625285506248474 0.5013888478279114
0.20667332410812378 0.2717219293117523 0.49249622225761414
0.34037670493125916 0.24854864180088043 0.5101287961006165
0.39070558547973633 0.22393952310085297 0.5126100778579712
0.29256439208984375 0.13526344299316406 0.5626561641693115
0.19971473515033722 0.19402964413166046 0.5887757539749146
0.25581100583076477 0.23617208003997803 0.534141480922699
0.2914159595966339 0.3019126057624817 0.5294755101203918
0.2621394097805023 0.17488983273506165 0.642362654209137
0.31559649109840393 0.20444341003894806 0.587214469909668
0.26627352833747864 0.19731292128562927 0.6183986663818359
0.14835327863693237 0.1487579643726349 0.5505298972129822
0.2143835872411728 0.2224547266960144 0.5215458869934082
0.33932843804359436 0.2289944291114807 0.4750640094280243
0.2102881520986557 0.14524972438812256 0.5040304064750671
0.32920408248901367 0.14373090863227844 0.5198911428451538
0.2707417905330658 0.20658688247203827 0.5734764337539673
0.2686986029148102 0.249268040060997 0.49425920844078064
0.3347017168998718 0.15280292928218842 0.5590773820877075
0.33024081587791443 0.17410121858119965 0.4705033302307129
0.26619696617126465 0.2918786108493805 0.48675814270973206
0.26813599467277527 0.13240139186382294 0.534023642539978
0.30631396174430847 0.1263452023267746 0.46224460005760193
0.287260502576828 0.26574620604515076 0.46486881375312805
0.35431408882141113 0.18128636479377747 0.6354793906211853
0.34736472368240356 0.23120436072349548 0.5817670226097107
0.2740305960178375 0.17640574276447296 0.5591714382171631
0.2878835201263428 0.29862233996391296 0.6341857314109802
0.19534726440906525 0.1837282031774521 0.48327693343162537
0.3274986445903778 0.29804855585098267 0.5049114227294922
0.35127800703048706 0.14030420780181885 0.5146673917770386
0.3197605311870575 0.2432364523410797 0.5878645181655884
0.21863389015197754 0.22491100430488586 0.4724870026111603
0.3297509253025055 0.14085669815540314 0.6150169372558594
0.36921975016593933 0.19990041851997375 0.5995169878005981
0.29369670152664185 0.1206749975681305 0.6365024447441101
0.29768654704093933 0.271551251411438 0.6011471152305603
0.22384843230247498 0.12363884598016739 0.6322725415229797
0.22925421595573425 0.2353510558605194 0.5195038318634033
0.25668391585350037 0.1712757647037506 0.5678081512451172
0.3432174623012543 0.16674262285232544 0.5429568886756897
0.2836320102214813 0.23393918573856354 0.5855312943458557
0.2063685953617096 0.2756088078022003 0.5374429225921631
0.18651482462882996 0.22543662786483765 0.4888077676296234
0.19421996176242828 0.25337180495262146 0.6435948610305786
0.24772685766220093 0.2965601086616516 0.5006370544433594
0.25867825746536255 0.2461920529603958 0.5937538146972656
0.23311784863471985 0.12244949489831924 0.6201313138008118
0.33736342191696167 0.2864687740802765 0.5338751077651978
0.20568615198135376 0.20834995806217194 0.4779253304004669
0.18997757136821747 0.24820664525032043 0.6375441551208496
0.3599577248096466 0.2298719584941864 0.607996940612793
0.1813502013683319 0.1858600527048111 0.5283551812171936
0.2826966345310211 0.2703816890716553 0.609946072101593
0.276702344417572 0.23239848017692566 0.549132227897644
0.18737643957138062 0.17029313743114471 0.5044106841087341
0.27723291516304016 0.1447671800851822 0.5413644313812256
0.24692338705062866 0.1743393987417221 0.6459559202194214
0.2222791314125061 0.22725661098957062 0.5612524747848511
0.24252158403396606 0.2772214710712433 0.5704546570777893
0.3312246799468994 0.25300467014312744 0.5649610161781311
0.23716700077056885 0.3185488283634186 0.6149672269821167
0.2410494089126587 0.1930990368127823 0.4734525978565216
0.3059868812561035 0.11694257706403732 0.5753481388092041
0.23647649586200714 0.24304905533790588 0.4912031292915344
0.21433033049106598 0.1810102015733719 0.5868807435035706
0.27364006638526917 0.2157336324453354 0.602792501449585
0.14835327863693237 0.1487579643726349 0.5505298972129822
0.20428870618343353 0.2809576392173767 0.6037642955780029
0.28272345662117004 0.14548078179359436 0.641147255897522
0.29438334703445435 0.14347943663597107 0.6433966755867004
0.21668469905853271 0.23997341096401215 0.49885621666908264
0.2372179478406906 0.3031231760978699 0.6491374969482422
0.2725854516029358 0.16892565786838531 0.5678591728210449
0.37238040566444397 0.2302895188331604 0.5659037232398987
0.360654354095459 0.18109861016273499 0.521300196647644
0.3284722566604614 0.2713368535041809 0.5931996703147888
0.2939075231552124 0.15257786214351654 0.4754087030887604
0.34895068407058716 0.19172091782093048 0.46845483779907227
0.2943876087665558 0.11687909811735153 0.6373575329780579
0.28570589423179626 0.19316361844539642 0.5114644169807434
0.2026885598897934 0.23084095120429993 0.5436761379241943
0.2193562537431717 0.2158602476119995 0.49254968762397766
0.20355406403541565 0.2424703985452652 0.47312840819358826
0.24872830510139465 0.13235248625278473 0.4918053448200226
0.23071414232254028 0.26538750529289246 0.5468405485153198
0.3661320209503174 0.18113456666469574 0.5139394402503967
0.33477041125297546 0.1352841556072235 0.520557165145874
0.20715853571891785 0.15347056090831757 0.45192089676856995
0.3689976930618286 0.24452480673789978 0.6238234639167786
0.2770588994026184 0.23076848685741425 0.49918654561042786
0.31619158387184143 0.217672660946846 0.5958976745605469
0.3002159297466278 0.22520281374454498 0.5434843897819519
0.23328278958797455 0.18308091163635254 0.6493198275566101
0.340213418006897 0.2845647931098938 0.6169182658195496
0.2417326420545578 0.24186202883720398 0.5635004043579102
0.2226811945438385 0.15361028909683228 0.5625837445259094
0.23972345888614655 0.1226959154009819 0.5837262272834778
0.31630098819732666 0.21488071978092194 0.4714154899120331
0.2318333089351654 0.31396594643592834 0.500248908996582
0.22110532224178314 0.12718836963176727 0.5543685555458069
0.29946547746658325 0.15838705003261566 0.4680139422416687
0.2902088761329651 0.27617377042770386 0.6393812894821167
0.3625601828098297 0.17724938690662384 0.5300446152687073
0.29231947660446167 0.24601811170578003 0.5728694200515747
0.2654294967651367 0.22433753311634064 0.49866101145744324
0.32431286573410034 0.15134687721729279 0.6095070242881775
0.23690363764762878 0.1344389170408249 0.5767198204994202
0.28148776292800903 0.20907369256019592 0.5256882905960083
0.3161923885345459 0.14079011976718903 0.46412554383277893
0.3001936078071594 0.161235049366951 0.6521206498146057
0.2317739576101303 0.2042904496192932 0.5233304500579834
0.2641957998275757 0.2766585946083069 0.5765670537948608
0.2061808705329895 0.2522505223751068 0.6110788583755493
0.2567313611507416 0.29259273409843445 0.574020504951477
0.3196059763431549 0.22312206029891968 0.5995228290557861
0.22623202204704285 0.16379202902317047 0.5771200060844421
0.21908554434776306 0.1916027069091797 0.5524353384971619
0.232466459274292 0.20735782384872437 0.5616714954376221
0.3221670091152191 0.27513864636421204 0.5609222054481506
0.23675869405269623 0.32484328746795654 0.5606804490089417
0.30833885073661804 0.19832737743854523 0.5640966892242432
0.16717220842838287 0.2068203240633011 0.6076954007148743
0.2621818482875824 0.18760940432548523 0.6308190822601318
0.22604690492153168 0.3132933974266052 0.48034390807151794
0.32457831501960754 0.13951954245567322 0.5433637499809265
0.33221131563186646 0.1853843629360199 0.5353049039840698
0.23595163226127625 0.18506892025470734 0.5518728494644165
0.2178778201341629 0.22991017997264862 0.5251221656799316
0.40165674686431885 0.25060272216796875 0.47470778226852417
0.240901380777359 0.2000051587820053 0.479377418756485
0.27504274249076843 0.14340591430664062 0.5500842928886414
0.2193140834569931 0.20840245485305786 0.5116360783576965
0.34756383299827576 0.15253537893295288 0.6331121921539307
0.31584325432777405 0.14805090427398682 0.6570987105369568
0.2612139582633972 0.22007207572460175 0.6471275091171265
0.22970305383205414 0.17393365502357483 0.6022647619247437
0.3053756654262543 0.23699899017810822 0.5391250848770142
0.17171669006347656 0.17407698929309845 0.6060923933982849
0.23326459527015686 0.12864656746387482 0.4783918857574463
0.2969176471233368 0.22690385580062866 0.48660990595817566
0.3219638764858246 0.255212664604187 0.5411556363105774
0.3898373246192932 0.2697456181049347 0.5961909890174866
0.3739570379257202 0.19027584791183472 0.48502692580223083
0.32199981808662415 0.2994152307510376 0.4802396595478058
0.19858607649803162 0.26879265904426575 0.6000645160675049
0.2248903512954712 0.24814704060554504 0.5557972192764282
0.3239615857601166 0.27957209944725037 0.5547133088111877
0.3106491267681122 0.30292052030563354 0.5594609379768372
0.21697701513767242 0.14669950306415558 0.480625718832016
0.30829325318336487 0.263373464345932 0.6598219275474548
0.3281961977481842 0.2835875451564789 0.5629463791847229
0.27719441056251526 0.20497865974903107 0.6523919105529785
0.1684553623199463 0.19650216400623322 0.5496900677680969
0.23222336173057556 0.13438570499420166 0.6490663886070251
0.32434043288230896 0.21069221198558807 0.5875492691993713
0.20314933359622955 0.17931118607521057 0.5854334235191345
0.1815953552722931 0.2220144420862198 0.4775005877017975
0.212626650929451 0.13125886023044586 0.6136593222618103
0.311180055141449 0.1525404006242752 0.5123541355133057
0.26099318265914917 0.30174100399017334 0.6177860498428345
0.21276143193244934 0.21750278770923615 0.471792608499527
0.35607850551605225 0.23531223833560944 0.5247251987457275
0.29786255955696106 0.18719090521335602 0.4892307221889496
0.2744368612766266 0.2591434717178345 0.6069183945655823
0.3059868812561035 0.11694257706403732 0.5753481388092041
0.23647649586200714 0.24304905533790588 0.4912031292915344
0.21433033049106598 0.1810102015733719 0.5868807435035706
0.14835327863693237 0.1487579643726349 0.5505298972129822
0.2143835872411728 0.2224547266960144 0.5215458869934082
0.33932843804359436 0.2289944291114807 0.4750640094280243
0.2102881520986557 0.14524972438812256 0.5040304064750671
0.32920408248901367 0.14373090863227844 0.5198911428451538
0.2707417905330658 0.20658688247203827 0.5734764337539673
0.2686986029148102 0.249268040060997 0.49425920844078064
0.2707417905330658 0.20658688247203827 0.5734764337539673
0.2686986029148102 0.249268040060997 0.49425920844078064
0.3347017168998718 0.15280292928218842 0.5590773820877075
0.33024081587791443 0.17410121858119965 0.4705033302307129
0.26619696617126465 0.2918786108493805 0.48675814270973206
0.26813599467277527 0.13240139186382294 0.534023642539978
0.30631396174430847 0.1263452023267746 0.46224460005760193
0.287260502576828 0.26574620604515076 0.46486881375312805
0.35431408882141113 0.18128636479377747 0.6354793906211853
0.34736472368240356 0.23120436072349548 0.5817670226097107
0.2740305960178375 0.17640574276447296 0.5591714382171631
0.2878835201263428 0.29862233996391296 0.6341857314109802
0.21125537157058716 0.19752131402492523 0.6412072777748108
0.27485164999961853 0.1410084068775177 0.48316118121147156
0.2994396686553955 0.1334572434425354 0.6139813661575317
0.2804184556007385 0.12525266408920288 0.5700216293334961
0.2925511598587036 0.23192442953586578 0.5837249755859375
0.26146742701530457 0.1193113774061203 0.6191679835319519
0.2615716755390167 0.27229440212249756 0.5878109335899353
0.22012212872505188 0.27504870295524597 0.528773307800293
0.27875107526779175 0.12377610057592392 0.4906672537326813
0.3285157084465027 0.17493267357349396 0.5621382594108582
0.2567313611507416 0.29259273409843445 0.574020504951477
0.3196059763431549 0.22312206029891968 0.5995228290557861
0.2444545030593872 0.18515881896018982 0.5949977040290833
0.26068970561027527 0.2110176533460617 0.5742560625076294
0.3221670091152191 0.27513864636421204 0.5609222054481506
0.23675869405269623 0.32484328746795654 0.5606804490089417
0.30833885073661804 0.19832737743854523 0.5640966892242432
0.3837871551513672 0.2478485256433487 0.47258245944976807
0.2915800213813782 0.1253083348274231 0.5798215866088867
0.20440064370632172 0.13691303133964539 0.5284957885742188
0.2822614908218384 0.30463698506355286 0.5708371996879578
0.32457831501960754 0.13951954245567322 0.5433637499809265
0.2834398150444031 0.2953830361366272 0.5662925243377686
0.33221131563186646 0.1853843629360199 0.5353049039840698
0.23595163226127625 0.18506892025470734 0.5518728494644165
0.40165674686431885 0.25060272216796875 0.47470778226852417
0.28445926308631897 0.11214785277843475 0.6538195610046387
0.240901380777359 0.2000051587820053 0.479377418756485
0.27504274249076843 0.14340591430664062 0.5500842928886414
0.3022456765174866 0.21233655512332916 0.5629938244819641
0.15020982921123505 0.1619807779788971 0.6038362979888916
0.298507422208786 0.1567322164773941 0.5184508562088013
0.22119133174419403 0.18459443747997284 0.46137070655822754
0.18173176050186157 0.14037387073040009 0.5701758861541748
0.2800361216068268 0.25585654377937317 0.61749666929245
0.2838258743286133 0.12650470435619354 0.46552830934524536
0.25350573658943176 0.18298085033893585 0.48308438062667847
0.3790857493877411 0.2327839583158493 0.49262431263923645
0.17826901376247406 0.16678984463214874 0.6345288753509521
0.20209378004074097 0.24068710207939148 0.6345230937004089
0.3665902316570282 0.17723309993743896 0.5150622129440308
0.17941568791866302 0.14774218201637268 0.5762959122657776
0.22970305383205414 0.17393365502357483 0.6022647619247437
0.3053756654262543 0.23699899017810822 0.5391250848770142
0.17171669006347656 0.17407698929309845 0.6060923933982849
0.3101501762866974 0.27455827593803406 0.48701220750808716
0.25074127316474915 0.23993444442749023 0.6020228266716003
0.2969176471233368 0.22690385580062866 0.48660990595817566
0.20197582244873047 0.16646474599838257 0.6048278212547302
0.21114474534988403 0.20333443582057953 0.5260424017906189
0.19692181050777435 0.20321714878082275 0.6113441586494446
0.20161591470241547 0.135035440325737 0.6123130321502686
0.2385048270225525 0.30330890417099 0.6438741087913513
0.39579474925994873 0.23914586007595062 0.502519965171814
0.22873397171497345 0.180436372756958 0.4716018736362457
0.23451991379261017 0.21419566869735718 0.5696336627006531
0.20850220322608948 0.2100292146205902 0.5262622237205505
0.3150530159473419 0.28449127078056335 0.5848069190979004
0.2938618063926697 0.12738172709941864 0.6123687624931335
0.30707913637161255 0.22544297575950623 0.6145782470703125
0.20257607102394104 0.17903952300548553 0.585762083530426
0.28069281578063965 0.22671650350093842 0.6213825345039368
0.2504611611366272 0.3142072856426239 0.6176530122756958
0.24442780017852783 0.29826492071151733 0.5407936573028564
0.2638557255268097 0.14934557676315308 0.6517609357833862
0.21013957262039185 0.24480502307415009 0.4719184935092926
0.2522779703140259 0.24650269746780396 0.49706727266311646
0.37458428740501404 0.27572742104530334 0.5826395750045776
0.2807772159576416 0.11876533925533295 0.5131998062133789
0.22270740568637848 0.2998282015323639 0.5310988426208496
0.28049302101135254 0.21010586619377136 0.5056869387626648
0.22626473009586334 0.22482742369174957 0.5506158471107483
0.254241019487381 0.2669348120689392 0.5517547130584717
0.3422977328300476 0.2896265685558319 0.48833510279655457
0.16721348464488983 0.17378216981887817 0.5036439895629883
0.22700421512126923 0.137139692902565 0.4903373122215271
0.1733865886926651 0.15906117856502533 0.49470028281211853
0.20835202932357788 0.18461821973323822 0.5583320260047913
0.21094492077827454 0.30857211351394653 0.5495406985282898
0.33554333448410034 0.156773179769516 0.5200830698013306
0.30166858434677124 0.1339113563299179 0.47292739152908325
0.24340933561325073 0.270191490650177 0.5986928343772888
0.34756383299827576 0.15253537893295288 0.6331121921539307
0.31584325432777405 0.14805090427398682 0.6570987105369568
0.2612139582633972 0.22007207572460175 0.6471275091171265
0.22970305383205414 0.17393365502357483 0.6022647619247437
0.3053756654262543 0.23699899017810822 0.5391250848770142
0.17171669006347656 0.17407698929309845 0.6060923933982849
0.3101501762866974 0.27455827593803406 0.48701220750808716
0.23546190559864044 0.3122729957103729 0.6157224178314209
0.24711786210536957 0.19258655607700348 0.4805147349834442
0.2586911916732788 0.14948029816150665 0.5114713907241821
0.30190709233283997 0.160238578915596 0.6377770900726318
0.22865644097328186 0.1570855975151062 0.6247671842575073
0.24222947657108307 0.1326070874929428 0.5849786400794983
0.3135813772678375 0.15556560456752777 0.6003511548042297
0.26950380206108093 0.27309972047805786 0.6125409007072449
0.26613983511924744 0.24123013019561768 0.6267248392105103
0.30147501826286316 0.3061768710613251 0.5853267312049866
0.27150073647499084 0.2466364949941635 0.5120297074317932
0.3803615868091583 0.26466020941734314 0.4901941120624542
0.268923282623291 0.2735365033149719 0.530712366104126
0.2856827974319458 0.14753128588199615 0.5102773904800415
0.34750160574913025 0.13184307515621185 0.5395687818527222
0.20551294088363647 0.16611534357070923 0.5300206542015076
0.16197268664836884 0.18923132121562958 0.6045474410057068
0.22865644097328186 0.1570855975151062 0.6247671842575073
0.24222947657108307 0.1326070874929428 0.5849786400794983
0.3135813772678375 0.15556560456752777 0.6003511548042297
0.26950380206108093 0.27309972047805786 0.6125409007072449
0.26613983511924744 0.24123013019561768 0.6267248392105103
0.30147501826286316 0.3061768710613251 0.5853267312049866
0.27150073647499084 0.2466364949941635 0.5120297074317932
0.3803615868091583 0.26466020941734314 0.4901941120624542
0.268923282623291 0.2735365033149719 0.530712366104126
0.2856827974319458 0.14753128588199615 0.5102773904800415
0.3388919234275818 0.13646189868450165 0.5474511981010437
0.1800851672887802 0.17117957770824432 0.49548712372779846
0.28026047348976135 0.15653397142887115 0.5212702751159668
0.38098204135894775 0.25148871541023254 0.49956023693084717
0.30371832847595215 0.2268586903810501 0.65367591381073
0.2937762439250946 0.1777157187461853 0.6377390027046204
0.16422981023788452 0.19084897637367249 0.5476158857345581
0.18056337535381317 0.15943849086761475 0.45029208064079285
0.20425060391426086 0.17588403820991516 0.5575806498527527
0.20358893275260925 0.16494320333003998 0.5218645930290222
0.33347898721694946 0.2528219521045685 0.5253710746765137
0.30585214495658875 0.11941664665937424 0.5007669925689697
0.3406466245651245 0.17902767658233643 0.4698125123977661
0.26370736956596375 0.18784356117248535 0.5501872897148132
0.19975341856479645 0.1451503336429596 0.6429773569107056
0.21877029538154602 0.16371716558933258 0.4630794823169708
0.31406962871551514 0.15820196270942688 0.5143539905548096
0.23720210790634155 0.23306147754192352 0.45360276103019714
0.22679373621940613 0.22515980899333954 0.5428332686424255
0.2837269902229309 0.12430785596370697 0.5685520768165588
0.2098875492811203 0.1818753033876419 0.5740221738815308
0.23265095055103302 0.228061705827713 0.5961673259735107
0.20314933359622955 0.17931118607521057 0.5854334235191345
0.3047054409980774 0.28681305050849915 0.6227725148200989
0.2125343680381775 0.25218498706817627 0.5619962215423584
0.22879955172538757 0.2960021495819092 0.46282482147216797
0.22087782621383667 0.3333646357059479 0.5368243455886841
0.19975341856479645 0.1451503336429596 0.6429773569107056
0.21877029538154602 0.16371716558933258 0.4630794823169708
0.33150824904441833 0.16018050909042358 0.5311886668205261
0.21877029538154602 0.16371716558933258 0.4630794823169708
0.31406962871551514 0.15820196270942688 0.5143539905548096
0.23720210790634155 0.23306147754192352 0.45360276103019714
0.37458428740501404 0.27572742104530334 0.5826395750045776
0.2807772159576416 0.11876533925533295 0.5131998062133789
0.22270740568637848 0.2998282015323639 0.5310988426208496
0.28049302101135254 0.21010586619377136 0.5056869387626648
0.22626473009586334 0.22482742369174957 0.5506158471107483
0.254241019487381 0.2669348120689392 0.5517547130584717
0.28436046838760376 0.2962801456451416 0.6545200943946838
0.2567538022994995 0.17834173142910004 0.5025885105133057
0.25374698638916016 0.24889469146728516 0.49470993876457214
0.3328914940357208 0.23311859369277954 0.4787297546863556
0.307641863822937 0.2629782557487488 0.6502453684806824
0.2400365024805069 0.23685146868228912 0.4881340265274048
0.3504508435726166 0.2927873432636261 0.4658234119415283
0.19453826546669006 0.24722187221050262 0.5238066911697388
0.2106797695159912 0.32906076312065125 0.5961626172065735
0.32351598143577576 0.11783979833126068 0.5354558825492859
0.2138584405183792 0.18020810186862946 0.5417386889457703
0.35544025897979736 0.238779217004776 0.6040114760398865
0.35329270362854004 0.17103523015975952 0.6174322962760925
0.1679587960243225 0.2066124677658081 0.5373186469078064
0.1709918975830078 0.1473696380853653 0.6440936923027039
0.3301348388195038 0.15864905714988708 0.6014995574951172
0.31364354491233826 0.23556119203567505 0.5772678852081299
0.17538276314735413 0.1806919425725937 0.5221613049507141
0.2983219027519226 0.23812700808048248 0.583706259727478
0.2532489597797394 0.20840652287006378 0.607215166091919
0.3054506480693817 0.2044883817434311 0.46904683113098145
0.24702084064483643 0.3270089626312256 0.482621431350708
0.24889907240867615 0.3231169581413269 0.5684627294540405
0.24889907240867615 0.3231169581413269 0.5684627294540405
0.2272304743528366 0.25806930661201477 0.5841042995452881
0.26664289832115173 0.3113608658313751 0.500856876373291
0.15332293510437012 0.15418770909309387 0.6078055500984192
0.31000539660453796 0.24320292472839355 0.5395526885986328
0.19691811501979828 0.18486453592777252 0.5047587156295776
0.34660977125167847 0.13057447969913483 0.5719022154808044
0.34660977125167847 0.13057447969913483 0.5719022154808044
0.2638034224510193 0.1513671725988388 0.6101933121681213
0.31243497133255005 0.1357177495956421 0.5950462222099304
0.21964047849178314 0.1605333685874939 0.5043007135391235
0.388482928276062 0.24000437557697296 0.5594626665115356
0.35284826159477234 0.18401633203029633 0.591831624507904
0.3274962902069092 0.21429073810577393 0.5770036578178406
0.35208630561828613 0.2340133637189865 0.6022307872772217
0.32643944025039673 0.2486095130443573 0.5598651170730591
0.35208630561828613 0.2340133637189865 0.6022307872772217
0.32643944025039673 0.2486095130443573 0.5598651170730591
0.32643944025039673 0.2486095130443573 0.5598651170730591
0.2337513417005539 0.20564091205596924 0.5767903327941895
0.1602354645729065 0.15322938561439514 0.5216373801231384
0.33646902441978455 0.26439136266708374 0.48626410961151123
0.20850251615047455 0.17940551042556763 0.5405207872390747
0.33932843804359436 0.2289944291114807 0.4750640094280243
0.18173176050186157 0.14037387073040009 0.5701758861541748
0.2800361216068268 0.25585654377937317 0.61749666929245
0.2838258743286133 0.12650470435619354 0.46552830934524536
0.2838258743286133 0.12650470435619354 0.46552830934524536
0.25350573658943176 0.18298085033893585 0.48308438062667847
0.31211498379707336 0.22232548892498016 0.6432287096977234
0.23845486342906952 0.31418102979660034 0.5542569756507874
0.31335747241973877 0.2695382833480835 0.5911542177200317
0.3427731692790985 0.25379493832588196 0.5557403564453125
0.2656654715538025 0.17632679641246796 0.5417604446411133
0.329530268907547 0.17077673971652985 0.5535547137260437
0.20669487118721008 0.1772276759147644 0.6036345958709717
0.185141459107399 0.1561187207698822 0.4739980697631836
0.23494106531143188 0.14075475931167603 0.6257355213165283
0.241795152425766 0.17457473278045654 0.6357699632644653
0.23750945925712585 0.25639960169792175 0.5051165223121643
0.33319273591041565 0.29430779814720154 0.5373245477676392
0.18107949197292328 0.15137572586536407 0.450886607170105
0.26174676418304443 0.20540015399456024 0.4864817261695862
0.189189612865448 0.21538957953453064 0.623657763004303
0.24572472274303436 0.3098978102207184 0.6490368247032166
0.3627079427242279 0.16366399824619293 0.5262892842292786
0.3200260400772095 0.14063431322574615 0.6020117402076721
0.23527789115905762 0.28227242827415466 0.6357036232948303
0.3719245493412018 0.22518394887447357 0.548399806022644
0.3526289165019989 0.16409718990325928 0.5934441089630127
0.3301348388195038 0.15864905714988708 0.6014995574951172
0.31364354491233826 0.23556119203567505 0.5772678852081299
0.3312508463859558 0.21077857911586761 0.547752320766449
0.3034917116165161 0.24996116757392883 0.6355774402618408
0.23803870379924774 0.1354086548089981 0.5503036975860596
0.22012212872505188 0.27504870295524597 0.528773307800293
0.19691811501979828 0.18486453592777252 0.5047587156295776
0.34660977125167847 0.13057447969913483 0.5719022154808044
0.2638034224510193 0.1513671725988388 0.6101933121681213
0.31243497133255005 0.1357177495956421 0.5950462222099304
0.21964047849178314 0.1605333685874939 0.5043007135391235
0.388482928276062 0.24000437557697296 0.5594626665115356
0.35284826159477234 0.18401633203029633 0.591831624507904
0.3274962902069092 0.21429073810577393 0.5770036578178406
0.35208630561828613 0.2340133637189865 0.6022307872772217
0.32643944025039673 0.2486095130443573 0.5598651170730591
0.2337513417005539 0.20564091205596924 0.5767903327941895
0.1602354645729065 0.15322938561439514 0.5216373801231384
0.33646902441978455 0.26439136266708374 0.48626410961151123
0.20850251615047455 0.17940551042556763 0.5405207872390747
0.18949982523918152 0.15871521830558777 0.5564261674880981
0.33114731311798096 0.122478187084198 0.5504636168479919
0.22004860639572144 0.15353401005268097 0.6429317593574524
0.2706470787525177 0.18392181396484375 0.5231533050537109
0.325038880109787 0.1894475519657135 0.6520357728004456
0.3315005898475647 0.20027972757816315 0.6022933721542358
0.16721348464488983 0.17378216981887817 0.5036439895629883
0.18663600087165833 0.21859107911586761 0.5817193984985352
0.22106973826885223 0.24632351100444794 0.4520828425884247
0.2825168967247009 0.14331597089767456 0.6547214388847351
0.21665021777153015 0.21293894946575165 0.5374629497528076
0.22266200184822083 0.3121603727340698 0.6222638487815857
0.318464994430542 0.24087294936180115 0.6062907576560974
0.1824333518743515 0.14266446232795715 0.6188167929649353
0.29069674015045166 0.2655874788761139 0.6081644296646118
0.26196378469467163 0.13010120391845703 0.4908187985420227
0.2151922583580017 0.17074209451675415 0.5999788641929626
0.3153316378593445 0.19588825106620789 0.5384370684623718
0.3022456765174866 0.21233655512332916 0.5629938244819641
0.15020982921123505 0.1619807779788971 0.6038362979888916
0.298507422208786 0.1567322164773941 0.5184508562088013
0.22119133174419403 0.18459443747997284 0.46137070655822754
0.18173176050186157 0.14037387073040009 0.5701758861541748
0.2800361216068268 0.25585654377937317 0.61749666929245
0.2838258743286133 0.12650470435619354 0.46552830934524536
0.2836412787437439 0.12641365826129913 0.46563559770584106
0.2996830940246582 0.2963458299636841 0.4879995584487915
0.2656225264072418 0.27466967701911926 0.5530981421470642
0.31211498379707336 0.22232548892498016 0.6432287096977234
0.23032772541046143 0.3162297010421753 0.6329261660575867
0.28147780895233154 0.2519990801811218 0.5084058046340942
0.18949982523918152 0.15871521830558777 0.5564261674880981
0.33114731311798096 0.122478187084198 0.5504636168479919
0.22004860639572144 0.15353401005268097 0.6429317593574524
0.2706470787525177 0.18392181396484375 0.5231533050537109
0.325038880109787 0.1894475519657135 0.6520357728004456
0.3315005898475647 0.20027972757816315 0.6022933721542358
0.16721348464488983 0.17378216981887817 0.5036439895629883
0.22700421512126923 0.137139692902565 0.4903373122215271
0.1733865886926651 0.15906117856502533 0.49470028281211853
0.20835202932357788 0.18461821973323822 0.5583320260047913
0.21094492077827454 0.30857211351394653 0.5495406985282898
0.33554333448410034 0.156773179769516 0.5200830698013306
0.30166858434677124 0.1339113563299179 0.47292739152908325
0.24340933561325073 0.270191490650177 0.5986928343772888
0.34756383299827576 0.15253537893295288 0.6331121921539307
0.31584325432777405 0.14805090427398682 0.6570987105369568
0.2612139582633972 0.22007207572460175 0.6471275091171265
0.22970305383205414 0.17393365502357483 0.6022647619247437
0.17847320437431335 0.20399914681911469 0.5617296695709229
0.2825168967247009 0.14331597089767456 0.6547214388847351
0.21665021777153015 0.21293894946575165 0.5374629497528076
0.22266200184822083 0.3121603727340698 0.6222638487815857
0.318464994430542 0.24087294936180115 0.6062907576560974
0.1824333518743515 0.14266446232795715 0.6188167929649353
0.29069674015045166 0.2655874788761139 0.6081644296646118
0.26196378469467163 0.13010120391845703 0.4908187985420227
0.2151922583580017 0.17074209451675415 0.5999788641929626
0.27185142040252686 0.15120267868041992 0.5456634163856506
0.36924245953559875 0.2802009582519531 0.5240308046340942
0.1863371580839157 0.2287425994873047 0.6385065317153931
0.34944623708724976 0.14233937859535217 0.5310432314872742
0.3472703993320465 0.23984122276306152 0.5483072996139526
0.2142324149608612 0.14124518632888794 0.5298364758491516
0.18209746479988098 0.2340252846479416 0.631321370601654
0.30104684829711914 0.20620937645435333 0.5578634142875671
0.2637540400028229 0.1982916295528412 0.5916160941123962
0.22934038937091827 0.2282935380935669 0.5830191373825073
0.26243287324905396 0.19129438698291779 0.5648680329322815
0.2724094092845917 0.15589478611946106 0.6316286325454712
0.3195597231388092 0.25211039185523987 0.46508175134658813
0.3590846657752991 0.24060986936092377 0.6504610776901245
0.31118088960647583 0.22714000940322876 0.6330609917640686
0.28307807445526123 0.12523731589317322 0.5238390564918518
0.3288284242153168 0.2755468189716339 0.6259300112724304
0.24624967575073242 0.2710316777229309 0.5425273776054382
0.2462623417377472 0.2767338454723358 0.4849923253059387
0.307823121547699 0.3043939471244812 0.5101427435874939
0.22087782621383667 0.3333646357059479 0.5368243455886841
0.3517746031284332 0.26822948455810547 0.5502799153327942
0.3309843838214874 0.13841411471366882 0.6101966500282288
0.298507422208786 0.1567322164773941 0.5184508562088013
0.3346443772315979 0.24523429572582245 0.5088533759117126
0.2018718719482422 0.1627814769744873 0.5826097130775452
0.2838175296783447 0.14645440876483917 0.46573740243911743
0.3085784912109375 0.21984785795211792 0.5359968543052673
0.3220578134059906 0.19126145541667938 0.5107609033584595
0.2853967249393463 0.2729736268520355 0.6199095845222473
0.28569406270980835 0.11843551695346832 0.49904337525367737
0.14805984497070312 0.17305973172187805 0.6435429453849792
0.18189983069896698 0.14929679036140442 0.5745515823364258
0.30341237783432007 0.13366159796714783 0.6325864195823669
0.29495304822921753 0.3030599355697632 0.5420072674751282
0.3298139274120331 0.27123579382896423 0.5691980719566345
0.21195994317531586 0.13131526112556458 0.6034861207008362
0.3479474186897278 0.17524127662181854 0.5248042345046997
0.3230707347393036 0.10894118249416351 0.5705644488334656
0.29464834928512573 0.16952326893806458 0.530925989151001
0.3590846657752991 0.24060986936092377 0.6504610776901245
0.31118088960647583 0.22714000940322876 0.6330609917640686
0.28307807445526123 0.12523731589317322 0.5238390564918518
0.3288284242153168 0.2755468189716339 0.6259300112724304
0.24624967575073242 0.2710316777229309 0.5425273776054382
0.2462623417377472 0.2767338454723358 0.4849923253059387
0.307823121547699 0.3043939471244812 0.5101427435874939
0.22087782621383667 0.3333646357059479 0.5368243455886841
0.3517746031284332 0.26822948455810547 0.5502799153327942
0.3309843838214874 0.13841411471366882 0.6101966500282288
0.20501121878623962 0.17237241566181183 0.5849940180778503
0.23993107676506042 0.164165198802948 0.49946147203445435
0.2920492887496948 0.21900589764118195 0.4732772409915924
0.22629638016223907 0.2399161458015442 0.47822055220603943
0.2336670309305191 0.18429702520370483 0.49489665031433105
0.3427731692790985 0.25379493832588196 0.5557403564453125
0.35208630561828613 0.2340133637189865 0.6022307872772217
0.32643944025039673 0.2486095130443573 0.5598651170730591
0.2337513417005539 0.20564091205596924 0.5767903327941895
0.1602354645729065 0.15322938561439514 0.5216373801231384
0.33646902441978455 0.26439136266708374 0.48626410961151123
0.20850251615047455 0.17940551042556763 0.5405207872390747
0.18949982523918152 0.15871521830558777 0.5564261674880981
0.33114731311798096 0.122478187084198 0.5504636168479919
0.22004860639572144 0.15353401005268097 0.6429317593574524
0.2176487147808075 0.24857544898986816 0.45376116037368774
0.24047523736953735 0.12542778253555298 0.4808768332004547
0.21185387670993805 0.27917978167533875 0.4830474257469177
0.28430914878845215 0.1732608526945114 0.4926094114780426
0.3121989667415619 0.18692541122436523 0.5422396659851074
0.2559813857078552 0.28829720616340637 0.6220213770866394
0.25500690937042236 0.13425759971141815 0.5986226201057434
0.2233588993549347 0.32771584391593933 0.528275191783905
0.2115892767906189 0.2274276465177536 0.6456820964813232
0.2561734914779663 0.22647199034690857 0.6317741274833679
0.18544717133045197 0.1398959457874298 0.6484220623970032
0.23775415122509003 0.2374219298362732 0.534669041633606
0.3304751217365265 0.2617954909801483 0.6259205341339111
0.3627554774284363 0.26409241557121277 0.6113303303718567
0.33187413215637207 0.24633702635765076 0.5336555242538452
0.2544279396533966 0.11725351214408875 0.554548978805542
0.24886253476142883 0.27330219745635986 0.6322885751724243
0.29744407534599304 0.305528461933136 0.5828132033348083
0.33422791957855225 0.14472298324108124 0.5671041011810303
0.2604774534702301 0.3024959862232208 0.6078532934188843
0.2730974555015564 0.22102266550064087 0.6468964219093323
0.23993107676506042 0.164165198802948 0.49946147203445435
0.24702084064483643 0.3270089626312256 0.482621431350708
0.3504508435726166 0.2927873432636261 0.4658234119415283
0.19453826546669006 0.24722187221050262 0.5238066911697388
0.2106797695159912 0.32906076312065125 0.5961626172065735
0.29280155897140503 0.12048099935054779 0.5884125828742981
0.16094684600830078 0.14737430214881897 0.6272220611572266
0.23037859797477722 0.1242210641503334 0.6214509606361389
0.3172939121723175 0.2344965785741806 0.5815034508705139
0.35544025897979736 0.238779217004776 0.6040114760398865
0.35329270362854004 0.17103523015975952 0.6174322962760925
0.1679587960243225 0.2066124677658081 0.5373186469078064
0.3645467162132263 0.21274730563163757 0.6601801514625549
0.31069210171699524 0.22858169674873352 0.5606036186218262
0.21438166499137878 0.19634871184825897 0.6320270299911499
0.3650141656398773 0.27221959829330444 0.5565310716629028
0.3534117043018341 0.20625390112400055 0.5757150053977966
0.18852369487285614 0.2207927107810974 0.6313868165016174
0.19122545421123505 0.2230573147535324 0.5857113003730774
0.21681293845176697 0.15256568789482117 0.6505330801010132
0.3233336806297302 0.2781139016151428 0.4634242057800293
0.18503311276435852 0.2207961082458496 0.6107290387153625
0.28664228320121765 0.11317744106054306 0.5421385169029236
0.34325483441352844 0.23556676506996155 0.5934048295021057
0.23055119812488556 0.13791760802268982 0.6007887125015259
0.18941469490528107 0.16495876014232635 0.5903045535087585
0.24150070548057556 0.18209001421928406 0.49222561717033386
0.33589354157447815 0.12431022524833679 0.46190351247787476
0.360714852809906 0.25674301385879517 0.525719404220581
0.29904404282569885 0.18337905406951904 0.5034096240997314
0.203846737742424 0.14571478962898254 0.5038723945617676
0.19598902761936188 0.24550750851631165 0.4808043837547302
0.24391429126262665 0.3156730830669403 0.5052539706230164
0.22004860639572144 0.15353401005268097 0.6429317593574524
0.2807772159576416 0.11876533925533295 0.5131998062133789
0.22270740568637848 0.2998282015323639 0.5310988426208496
0.28049302101135254 0.21010586619377136 0.5056869387626648
0.22626473009586334 0.22482742369174957 0.5506158471107483
0.254241019487381 0.2669348120689392 0.5517547130584717
0.28436046838760376 0.2962801456451416 0.6545200943946838
0.2567538022994995 0.17834173142910004 0.5025885105133057
0.307641863822937 0.2629782557487488 0.6502453684806824
0.2400365024805069 0.23685146868228912 0.4881340265274048
0.3504508435726166 0.2927873432636261 0.4658234119415283
0.19453826546669006 0.24722187221050262 0.5238066911697388
0.2106797695159912 0.32906076312065125 0.5961626172065735
0.29280155897140503 0.12048099935054779 0.5884125828742981
0.16094684600830078 0.14737430214881897 0.6272220611572266
0.23037859797477722 0.1242210641503334 0.6214509606361389
0.3172939121723175 0.2344965785741806 0.5815034508705139
0.35544025897979736 0.238779217004776 0.6040114760398865
0.35329270362854004 0.17103523015975952 0.6174322962760925
0.1679587960243225 0.2066124677658081 0.5373186469078064
0.3645467162132263 0.21274730563163757 0.6601801514625549
0.31069210171699524 0.22858169674873352 0.5606036186218262
0.21438166499137878 0.19634871184825897 0.6320270299911499
0.3650141656398773 0.27221959829330444 0.5565310716629028
0.3379378616809845 0.2812117636203766 0.6171659827232361
0.37025076150894165 0.27485400438308716 0.5480510592460632
0.19532938301563263 0.2632844150066376 0.47354215383529663
0.3041822016239166 0.2894410789012909 0.5656161308288574
0.2897559106349945 0.2377789169549942 0.5021815299987793
0.27119559049606323 0.26476046442985535 0.619537353515625
0.32671430706977844 0.11931242793798447 0.6256240010261536
0.34649789333343506 0.19459772109985352 0.4815683662891388
0.29472815990448 0.2513640224933624 0.5262250900268555
0.22671106457710266 0.2116459161043167 0.6350104212760925
0.1796209216117859 0.13993535935878754 0.5030294060707092
0.2866348624229431 0.25980082154273987 0.6505439877510071
