ply
format ascii 1.0
element vertex 824
property float x
property float y
property float z
end_header
0.4420330822467804 0.1375751495361328 0.5788670778274536
0.4800132215023041 0.1387331336736679 0.4310486614704132
0.46432480216026306 0.13039346039295197 0.4645410180091858
0.34713369607925415 0.11718045175075531 0.4543302655220032
0.37973469495773315 0.11643703281879425 0.4891246557235718
0.46129271388053894 0.16023652255535126 0.440832257270813
0.35604336857795715 0.21177920699119568 0.466154545545578
0.4889177083969116 0.1465790867805481 0.560822069644928
0.3659008741378784 0.1157912164926529 0.46497201919555664
0.37707194685935974 0.13108469545841217 0.47059524059295654
0.3509054183959961 0.12871523201465607 0.4727576971054077
0.42001429200172424 0.2189585417509079 0.5889769196510315
0.4385407865047455 0.1492515355348587 0.5557488799095154
0.3661249577999115 0.11529556661844254 0.5313425660133362
0.3614972233772278 0.20900726318359375 0.5968455076217651
0.38211533427238464 0.2202720195055008 0.44000494480133057
0.42981287837028503 0.21443945169448853 0.5297235250473022
0.4192671477794647 0.17623518407344818 0.5486602187156677
0.44666457176208496 0.20999187231063843 0.5412497520446777
0.37945157289505005 0.14658989012241364 0.43422389030456543
0.5204899311065674 0.22865484654903412 0.41308140754699707
0.45563140511512756 0.23479492962360382 0.5882450342178345
0.5512393712997437 0.13205000758171082 0.5534338355064392
0.4886273741722107 0.16412091255187988 0.5057734251022339
0.4057878851890564 0.17895139753818512 0.5782480835914612
0.512003481388092 0.19381093978881836 0.5347944498062134
0.4949140250682831 0.20436246693134308 0.43548405170440674
0.529779851436615 0.13621626794338226 0.48288506269454956
0.3698071241378784 0.19227001070976257 0.41143202781677246
0.455370157957077 0.10611597448587418 0.46117180585861206
0.35655665397644043 0.18372546136379242 0.4275548756122589
0.4706402122974396 0.156464084982872 0.5867201089859009
0.5123449563980103 0.1999995857477188 0.5295799970626831
0.4481368958950043 0.189348503947258 0.41295650601387024
0.551162838935852 0.10887370258569717 0.5073755383491516
0.5416568517684937 0.14690808951854706 0.43322551250457764
0.37973469495773315 0.11643703281879425 0.4891246557235718
0.359271764755249 0.15573440492153168 0.40905648469924927
0.4727920591831207 0.15969568490982056 0.4814131259918213
0.35218849778175354 0.2142285704612732 0.5761715173721313
0.48728564381599426 0.16904482245445251 0.581048309803009
0.37241968512535095 0.10896674543619156 0.5026069283485413
0.4244506061077118 0.21425651013851166 0.5100014805793762
0.4105841815471649 0.19419774413108826 0.4779706597328186
0.49124106764793396 0.13854806125164032 0.5521079897880554
0.416424423456192 0.22769933938980103 0.5071195363998413
0.4872208833694458 0.1710212379693985 0.522541880607605
0.501293957233429 0.1129930391907692 0.5086595416069031
0.479051798582077 0.12413173913955688 0.40649011731147766
0.5465152859687805 0.20271171629428864 0.43747958540916443
0.4113384783267975 0.18620513379573822 0.5587917566299438
0.5357007384300232 0.16552293300628662 0.5057750344276428
0.47539612650871277 0.1298917979001999 0.4867412745952606
0.45581042766571045 0.19056947529315948 0.566580593585968
0.46930018067359924 0.22214479744434357 0.5390564203262329
0.4381522536277771 0.1457984447479248 0.5993480086326599
0.38753360509872437 0.222055584192276 0.5844005942344666
0.3690592050552368 0.11457762867212296 0.4405647814273834
0.38770875334739685 0.20578515529632568 0.4570517838001251
0.4437620937824249 0.19778850674629211 0.5984025597572327
0.39761045575141907 0.11000359058380127 0.4342322051525116
0.38883063197135925 0.21814864873886108 0.5955986976623535
0.521233081817627 0.10837531834840775 0.48651930689811707
0.3651680052280426 0.1297176033258438 0.4886682629585266
0.35718023777008057 0.10991315543651581 0.5594416856765747
0.5101961493492126 0.13422082364559174 0.547368049621582
0.5530263185501099 0.19310972094535828 0.42908400297164917
0.5069580674171448 0.24375084042549133 0.4477301836013794
0.5110857486724854 0.15791019797325134 0.42025813460350037
0.5471204519271851 0.1918993443250656 0.4149000644683838
0.5315764546394348 0.13800454139709473 0.41006311774253845
0.44334468245506287 0.22612130641937256 0.5163691639900208
0.5198031067848206 0.186745285987854 0.4542867839336395
0.40867406129837036 0.12308315932750702 0.403125137090683
0.38304513692855835 0.10966960340738297 0.5575839281082153
0.42453014850616455 0.11611313372850418 0.567464292049408
0.45241644978523254 0.197450190782547 0.40352827310562134
0.38573816418647766 0.10630974173545837 0.5593538880348206
0.38303065299987793 0.15192382037639618 0.5558574795722961
0.4931195378303528 0.20838704705238342 0.5162447690963745
0.4748585820198059 0.1807834655046463 0.5259961485862732
0.4036330580711365 0.11275600641965866 0.4590555429458618
0.3635130524635315 0.15974169969558716 0.4694284200668335
0.5239808559417725 0.21522988379001617 0.5701217651367188
0.5252684354782104 0.2339451014995575 0.5121930241584778
0.4474503695964813 0.12333602458238602 0.4430560767650604
0.5029103755950928 0.1642676442861557 0.4237438142299652
0.40929603576660156 0.13984182476997375 0.5297092795372009
0.5245557427406311 0.1197076216340065 0.4823896586894989
0.43360427021980286 0.21555455029010773 0.47858211398124695
0.36974743008613586 0.22230805456638336 0.47799789905548096
0.36130839586257935 0.1531478762626648 0.44213029742240906
0.4124786853790283 0.22668308019638062 0.5585617423057556
0.5207922458648682 0.18098904192447662 0.5195065140724182
0.35239189863204956 0.14408087730407715 0.5892263054847717
0.5132259130477905 0.18092022836208344 0.43355754017829895
0.39312249422073364 0.1493617445230484 0.5737614631652832
0.5450520515441895 0.14404693245887756 0.4704355299472809
0.49504154920578003 0.1454968899488449 0.42631226778030396
0.5083276629447937 0.2159135937690735 0.6007982492446899
0.3534420430660248 0.2012857347726822 0.5474341511726379
0.469767689704895 0.13799110054969788 0.4844449460506439
0.46122461557388306 0.16037529706954956 0.4964373707771301
0.42494702339172363 0.21907693147659302 0.5490460991859436
0.5383702516555786 0.12239992618560791 0.4455704092979431
0.41580522060394287 0.1468343734741211 0.5357640981674194
0.5435077548027039 0.1786278635263443 0.4278271496295929
0.542016327381134 0.16043949127197266 0.40713635087013245
0.5036047101020813 0.10789891332387924 0.4042653441429138
0.4113660752773285 0.10445782542228699 0.4365706741809845
0.3922286629676819 0.19251325726509094 0.43195074796676636
0.3492496609687805 0.16710907220840454 0.5542015433311462
0.4452017843723297 0.16464561223983765 0.5000911355018616
0.413401335477829 0.1798076629638672 0.43315958976745605
0.5201237201690674 0.20017293095588684 0.4745886027812958
0.4406254291534424 0.15998178720474243 0.5613694787025452
0.5377345681190491 0.13516418635845184 0.47582340240478516
0.398214727640152 0.17850688099861145 0.4125165045261383
0.5094430446624756 0.18042565882205963 0.41552120447158813
0.5157839059829712 0.14117968082427979 0.4249708950519562
0.4645357131958008 0.10967147350311279 0.5669648051261902
0.35640743374824524 0.21043452620506287 0.41199883818626404
0.5502334237098694 0.17816582322120667 0.598444938659668
0.35219061374664307 0.16072531044483185 0.4369240403175354
0.4629785716533661 0.1789320856332779 0.5764927864074707
0.37702110409736633 0.10604746639728546 0.48224136233329773
0.45209839940071106 0.21313005685806274 0.4383687376976013
0.5004719495773315 0.14614658057689667 0.5947802066802979
0.5343985557556152 0.14375796914100647 0.5209189653396606
0.4311903715133667 0.11296841502189636 0.4090328514575958
0.4350437819957733 0.11543753743171692 0.3961569666862488
0.5037432909011841 0.20498335361480713 0.4866127073764801
0.542003870010376 0.22807881236076355 0.4665631055831909
0.40801724791526794 0.1592080444097519 0.5056514739990234
0.35551783442497253 0.11276552081108093 0.49534177780151367
0.3668155074119568 0.220426544547081 0.5728813409805298
0.4107666611671448 0.17449304461479187 0.5729270577430725
0.5098646879196167 0.19153697788715363 0.537049412727356
0.4977482855319977 0.19973336160182953 0.47071516513824463
0.469767689704895 0.13799110054969788 0.4844449460506439
0.46122461557388306 0.16037529706954956 0.4964373707771301
0.42183902859687805 0.16895721852779388 0.5089659690856934
0.35291802883148193 0.12163624167442322 0.44318336248397827
0.3708633482456207 0.1953597068786621 0.4474264085292816
0.38844016194343567 0.13782253861427307 0.589427649974823
0.504630982875824 0.1784157156944275 0.41531604528427124
0.5305967330932617 0.21252261102199554 0.5248088240623474
0.4019218683242798 0.11086344718933105 0.44649505615234375
0.4782010316848755 0.16126401722431183 0.5048571825027466
0.39587774872779846 0.13419939577579498 0.5958958268165588
0.35381609201431274 0.11981093138456345 0.4382239878177643
0.3513377010822296 0.17966072261333466 0.5247031450271606
0.3537957966327667 0.17223452031612396 0.4023333191871643
0.5370408892631531 0.21063083410263062 0.5266891717910767
0.40341681241989136 0.11887196451425552 0.5153278112411499
0.36298689246177673 0.21441666781902313 0.5612515807151794
0.5364325046539307 0.18468253314495087 0.5628634691238403
0.4846307337284088 0.2352142333984375 0.47375720739364624
0.4016786217689514 0.1871650069952011 0.5839738249778748
0.4722522795200348 0.1327633261680603 0.5316444635391235
0.5355138182640076 0.10564365983009338 0.5099515914916992
0.36473068594932556 0.21865184605121613 0.5279885530471802
0.49962547421455383 0.10774409025907516 0.4043234884738922
0.41094377636909485 0.19847795367240906 0.515948474407196
0.36728236079216003 0.1399383246898651 0.4388693869113922
0.38668954372406006 0.17948341369628906 0.41065940260887146
0.3629600703716278 0.11153686046600342 0.560515284538269
0.4569486975669861 0.18902923166751862 0.47922033071517944
0.4661612808704376 0.17729246616363525 0.5417841672897339
0.5259125828742981 0.11957718431949615 0.46100741624832153
0.5066620111465454 0.21325334906578064 0.45219022035598755
0.4554487466812134 0.20695634186267853 0.5066778063774109
0.4866870045661926 0.13398174941539764 0.4694109857082367
0.4803222715854645 0.1272219568490982 0.5435599088668823
0.49697065353393555 0.15208569169044495 0.5145262479782104
0.5236437916755676 0.11765604466199875 0.43885597586631775
0.5164499282836914 0.1996142566204071 0.6010720729827881
0.38573816418647766 0.10630974173545837 0.5593538880348206
0.46686816215515137 0.1103198379278183 0.48934638500213623
0.3598751425743103 0.16052411496639252 0.5865160226821899
0.518095850944519 0.11066580563783646 0.5713550448417664
0.4008132219314575 0.20475566387176514 0.4126923680305481
0.3828226923942566 0.18277546763420105 0.4253741204738617
0.4733828902244568 0.19466270506381989 0.5474259853363037
0.4544824957847595 0.1321825385093689 0.41836461424827576
0.5166292786598206 0.1243886724114418 0.44722703099250793
0.4538406431674957 0.22913722693920135 0.4209706783294678
0.422250360250473 0.16686971485614777 0.54207843542099
0.5078455805778503 0.1779254525899887 0.47785812616348267
0.44182702898979187 0.11349910497665405 0.5715334415435791
0.35323625802993774 0.2411677986383438 0.44342663884162903
0.5189288258552551 0.2346974015235901 0.5995722413063049
0.41931402683258057 0.16214832663536072 0.4913342595100403
0.5151543021202087 0.1780778467655182 0.5566815733909607
0.5055585503578186 0.22184032201766968 0.5428875088691711
0.44041797518730164 0.16598714888095856 0.41100576519966125
0.3689996302127838 0.1802666336297989 0.4974827468395233
0.5464494228363037 0.24217398464679718 0.596834659576416
0.3919285237789154 0.11653801798820496 0.5450907349586487
0.54144686460495 0.1322624832391739 0.6034221053123474
0.5457489490509033 0.13071972131729126 0.5395582318305969
0.35656440258026123 0.14406552910804749 0.5068296194076538
0.4301444888114929 0.1065206453204155 0.5340246558189392
0.5198016166687012 0.11026174575090408 0.48618289828300476
0.3623262643814087 0.13929422199726105 0.5341290235519409
0.5260475873947144 0.17529024183750153 0.5511444211006165
0.5438703894615173 0.2275954633951187 0.44206422567367554
0.3626536726951599 0.14148545265197754 0.4379151463508606
0.36978232860565186 0.2031281590461731 0.47121521830558777
0.468769907951355 0.2360747754573822 0.5281356573104858
0.550704300403595 0.2389683574438095 0.4837758541107178
0.4597548842430115 0.19169951975345612 0.4414028227329254
0.43089959025382996 0.15579885244369507 0.5976203083992004
0.5437166690826416 0.1410336047410965 0.44069957733154297
0.48411545157432556 0.17882607877254486 0.5732821822166443
0.4037601947784424 0.15106205642223358 0.5052884817123413
0.3636196553707123 0.13539958000183105 0.5449707508087158
0.5518472790718079 0.20504064857959747 0.5186954736709595
0.42306748032569885 0.19722498953342438 0.5115386247634888
0.39608675241470337 0.1861974447965622 0.5413990020751953
0.36853551864624023 0.11667464673519135 0.5158479809761047
0.5240271091461182 0.12901771068572998 0.5660977959632874
0.49504154920578003 0.1454968899488449 0.42631226778030396
0.5210124254226685 0.20481418073177338 0.5896087884902954
0.4571649730205536 0.21648873388767242 0.5930066108703613
0.4179595112800598 0.2329632192850113 0.4600584805011749
0.44791170954704285 0.14857997000217438 0.546657383441925
0.4240887463092804 0.11489246785640717 0.5570456385612488
0.3742065131664276 0.1630200743675232 0.5599533915519714
0.5471204519271851 0.1918993443250656 0.4149000644683838
0.5315764546394348 0.13800454139709473 0.41006311774253845
0.44334468245506287 0.22612130641937256 0.5163691639900208
0.5198031067848206 0.186745285987854 0.4542867839336395
0.40867406129837036 0.12308315932750702 0.403125137090683
0.5515838265419006 0.21776406466960907 0.4479639232158661
0.45375940203666687 0.19823165237903595 0.4934491813182831
0.38303065299987793 0.15192382037639618 0.5558574795722961
0.4931195378303528 0.20838704705238342 0.5162447690963745
0.4748585820198059 0.1807834655046463 0.5259961485862732
0.4543135166168213 0.21098722517490387 0.6001411080360413
0.5239808559417725 0.21522988379001617 0.5701217651367188
0.5252684354782104 0.2339451014995575 0.5121930241584778
0.4474503695964813 0.12333602458238602 0.4430560767650604
0.5029103755950928 0.1642676442861557 0.4237438142299652
0.40929603576660156 0.13984182476997375 0.5297092795372009
0.5245557427406311 0.1197076216340065 0.4823896586894989
0.43360427021980286 0.21555455029010773 0.47858211398124695
0.36974743008613586 0.22230805456638336 0.47799789905548096
0.36130839586257935 0.1531478762626648 0.44213029742240906
0.4979536831378937 0.13399355113506317 0.49730348587036133
0.45140430331230164 0.23697613179683685 0.5519668459892273
0.542896568775177 0.14220546185970306 0.47220879793167114
0.5012053847312927 0.20990429818630219 0.47412654757499695
0.39312249422073364 0.1493617445230484 0.5737614631652832
0.42431432008743286 0.2097500115633011 0.5921177864074707
0.5240271091461182 0.12901771068572998 0.5660977959632874
0.3528592884540558 0.10790342837572098 0.46864959597587585
0.45169389247894287 0.14988534152507782 0.6043696999549866
0.49010276794433594 0.11130893230438232 0.4766521453857422
0.376006156206131 0.10462421923875809 0.4620368480682373
0.42981287837028503 0.21443945169448853 0.5297235250473022
0.47311586141586304 0.17095351219177246 0.4259646236896515
0.34822824597358704 0.1256270557641983 0.5107530355453491
0.3798883259296417 0.15736842155456543 0.528259813785553
0.3848523199558258 0.13261540234088898 0.5286447405815125
0.3583780527114868 0.11956138908863068 0.4545125365257263
0.3857973515987396 0.1354633867740631 0.5002913475036621
0.4075380563735962 0.1189454197883606 0.44771403074264526
0.36139196157455444 0.1688089668750763 0.4198804199695587
0.523235559463501 0.14698168635368347 0.4445823132991791
0.3661368489265442 0.12714257836341858 0.47040432691574097
0.5291965007781982 0.22457166016101837 0.4648236036300659
0.4592278301715851 0.17427031695842743 0.570229709148407
0.46025899052619934 0.10433745384216309 0.5483728051185608
0.5321205854415894 0.14525848627090454 0.5251619219779968
0.4352933466434479 0.2149920016527176 0.5770339965820312
0.47771528363227844 0.2270418405532837 0.5386307835578918
0.5175711512565613 0.18857359886169434 0.5194924473762512
0.34325307607650757 0.1349361389875412 0.5518636703491211
0.36748501658439636 0.17864295840263367 0.39972230792045593
0.41071513295173645 0.21996654570102692 0.46004897356033325
0.502181887626648 0.13205017149448395 0.48972028493881226
0.3990030288696289 0.15003564953804016 0.4236907362937927
0.5079293847084045 0.12781992554664612 0.44230586290359497
0.4413783550262451 0.15490850806236267 0.5899690985679626
0.3600260317325592 0.1825714111328125 0.5099570155143738
0.38760894536972046 0.23283353447914124 0.40600940585136414
0.3805575668811798 0.1600695699453354 0.5701923370361328
0.5072889924049377 0.13338227570056915 0.5727695822715759
0.3869687616825104 0.1986737847328186 0.5187038779258728
0.5332471132278442 0.11427087336778641 0.4632323384284973
0.4635164141654968 0.13087500631809235 0.4532199203968048
0.4165678024291992 0.1408933401107788 0.43327948451042175
0.5387775301933289 0.11321861296892166 0.4205646812915802
0.4475153088569641 0.11221954971551895 0.579839825630188
0.45474427938461304 0.20659828186035156 0.41739532351493835
0.434922456741333 0.23081360757350922 0.4748978316783905
0.37677085399627686 0.17556056380271912 0.4113626182079315
0.47220057249069214 0.23285050690174103 0.5970200300216675
0.4304255247116089 0.1494024097919464 0.480243057012558
0.36204472184181213 0.20971550047397614 0.5207312703132629
0.3568784296512604 0.16450996696949005 0.5892859101295471
0.41215550899505615 0.1870213747024536 0.5193983316421509
0.48745107650756836 0.10333283990621567 0.5173784494400024
0.5407014489173889 0.23748889565467834 0.41249796748161316
0.4601442217826843 0.12685851752758026 0.6003699898719788
0.4555395543575287 0.22623303532600403 0.49979525804519653
0.4589719772338867 0.20895354449748993 0.4986708164215088
0.5134935975074768 0.16348497569561005 0.45207124948501587
0.42686769366264343 0.12758056819438934 0.456469863653183
0.4012084901332855 0.1984580010175705 0.48950454592704773
0.4416993260383606 0.20846600830554962 0.44957754015922546
0.5189855098724365 0.12130877375602722 0.5731805562973022
0.5235924124717712 0.10294365137815475 0.42563900351524353
0.4417647421360016 0.10430479794740677 0.40514838695526123
0.41505053639411926 0.20302893221378326 0.5607067942619324
0.36567428708076477 0.18016740679740906 0.556106686592102
0.5476983189582825 0.17561112344264984 0.46137434244155884
0.525115966796875 0.21654267609119415 0.42424124479293823
0.3534421920776367 0.1452004462480545 0.5672265291213989
0.4548937976360321 0.2341570258140564 0.4648493230342865
0.5109514594078064 0.12680041790008545 0.5482838749885559
0.47255486249923706 0.13084255158901215 0.5989087224006653
0.5318706631660461 0.16759099066257477 0.549415647983551
0.4064449965953827 0.1632988601922989 0.5271202325820923
0.41135719418525696 0.11642791330814362 0.5872313380241394
0.49492618441581726 0.11189347505569458 0.5114544034004211
0.5471204519271851 0.1918993443250656 0.4149000644683838
0.49422529339790344 0.11236047744750977 0.4647907614707947
0.398837149143219 0.1770235300064087 0.56760174036026
0.4310700297355652 0.20872847735881805 0.40570732951164246
0.5538055896759033 0.1122235655784607 0.41059383749961853
0.3800411820411682 0.22143985331058502 0.5539981126785278
0.4304255247116089 0.1494024097919464 0.480243057012558
0.36204472184181213 0.20971550047397614 0.5207312703132629
0.3568784296512604 0.16450996696949005 0.5892859101295471
0.41215550899505615 0.1870213747024536 0.5193983316421509
0.48745107650756836 0.10333283990621567 0.5173784494400024
0.4963117837905884 0.19776339828968048 0.46978604793548584
0.4212299585342407 0.15790939331054688 0.42235061526298523
0.5139447450637817 0.16495369374752045 0.5726510286331177
0.4220888316631317 0.1641325056552887 0.47096264362335205
0.5059560537338257 0.24294476211071014 0.5283156633377075
0.4101243317127228 0.19158045947551727 0.5830098390579224
0.5508509278297424 0.1458853781223297 0.46025460958480835
0.5431075692176819 0.12650637328624725 0.5945855975151062
0.5234913229942322 0.19587303698062897 0.5127578973770142
0.38719016313552856 0.206340029835701 0.5113780498504639
0.5309238433837891 0.12942788004875183 0.4515775442123413
0.3776773512363434 0.20467813313007355 0.5687040686607361
0.3526875674724579 0.21350406110286713 0.5440282821655273
0.5416915416717529 0.22539682686328888 0.536622941493988
0.3857531249523163 0.10665630549192429 0.4106716215610504
0.4634241461753845 0.1299809217453003 0.4283655285835266
0.5538386702537537 0.14801561832427979 0.6038534641265869
0.49189576506614685 0.11773362755775452 0.48690950870513916
0.41135719418525696 0.11642791330814362 0.5872313380241394
0.49492618441581726 0.11189347505569458 0.5114544034004211
0.5471204519271851 0.1918993443250656 0.4149000644683838
0.5315764546394348 0.13800454139709473 0.41006311774253845
0.44334468245506287 0.22612130641937256 0.5163691639900208
0.5198031067848206 0.186745285987854 0.4542867839336395
0.40867406129837036 0.12308315932750702 0.403125137090683
0.38304513692855835 0.10966960340738297 0.5575839281082153
0.42453014850616455 0.11611313372850418 0.567464292049408
0.45241644978523254 0.197450190782547 0.40352827310562134
0.44480201601982117 0.11011172086000443 0.5193079113960266
0.38840922713279724 0.20450636744499207 0.5394898056983948
0.4950326085090637 0.12112432718276978 0.5372190475463867
0.4698624014854431 0.1827968806028366 0.46145591139793396
0.5139447450637817 0.16495369374752045 0.5726510286331177
0.4220888316631317 0.1641325056552887 0.47096264362335205
0.45467811822891235 0.19827809929847717 0.5780693292617798
0.37834832072257996 0.23495891690254211 0.5112829804420471
0.5186362862586975 0.13028183579444885 0.49334320425987244
0.5100266933441162 0.10904570668935776 0.5624792575836182
0.5506787300109863 0.17461350560188293 0.5768940448760986
0.3821388781070709 0.22885249555110931 0.5303972363471985
0.5090476870536804 0.1372169703245163 0.4839458167552948
0.35211580991744995 0.19375865161418915 0.5992155075073242
0.4141208529472351 0.2200683206319809 0.570472240447998
0.4331597685813904 0.1257196068763733 0.5041542649269104
0.5294589400291443 0.19323967397212982 0.39924055337905884
0.3974708020687103 0.10955517739057541 0.5957428216934204
0.5583391785621643 0.11886376887559891 0.48362159729003906
0.49067923426628113 0.13473206758499146 0.5060292482376099
0.4386342167854309 0.14856311678886414 0.43914103507995605
0.45232731103897095 0.11316181719303131 0.4005836844444275
0.47220057249069214 0.23285050690174103 0.5970200300216675
0.48745107650756836 0.10333283990621567 0.5173784494400024
0.4963117837905884 0.19776339828968048 0.46978604793548584
0.4212299585342407 0.15790939331054688 0.42235061526298523
0.5139447450637817 0.16495369374752045 0.5726510286331177
0.4220888316631317 0.1641325056552887 0.47096264362335205
0.5059560537338257 0.24294476211071014 0.5283156633377075
0.4101243317127228 0.19158045947551727 0.5830098390579224
0.5508509278297424 0.1458853781223297 0.46025460958480835
0.5431075692176819 0.12650637328624725 0.5945855975151062
0.5234913229942322 0.19587303698062897 0.5127578973770142
0.38719016313552856 0.206340029835701 0.5113780498504639
0.5309238433837891 0.12942788004875183 0.4515775442123413
0.3776773512363434 0.20467813313007355 0.5687040686607361
0.3526875674724579 0.21350406110286713 0.5440282821655273
0.5416915416717529 0.22539682686328888 0.536622941493988
0.3857531249523163 0.10665630549192429 0.4106716215610504
0.4634241461753845 0.1299809217453003 0.4283655285835266
0.5538386702537537 0.14801561832427979 0.6038534641265869
0.49189576506614685 0.11773362755775452 0.48690950870513916
0.5014790892601013 0.19375458359718323 0.4049617648124695
0.4656645655632019 0.21246469020843506 0.49391332268714905
0.5558511018753052 0.16428081691265106 0.40441420674324036
0.3766842484474182 0.17953462898731232 0.5605297684669495
0.35366079211235046 0.14227552711963654 0.496355265378952
0.4149623215198517 0.1956566423177719 0.5050325393676758
0.47827091813087463 0.12965525686740875 0.5501077175140381
0.46080803871154785 0.20432746410369873 0.584166944026947
0.440799355506897 0.22659695148468018 0.47481948137283325
0.48195838928222656 0.16021685302257538 0.5189322233200073
0.4936622083187103 0.14616967737674713 0.4142022132873535
0.41833242774009705 0.15674391388893127 0.48784977197647095
0.422250360250473 0.16686971485614777 0.54207843542099
0.527193546295166 0.13231797516345978 0.42488598823547363
0.49323606491088867 0.1256641149520874 0.5486994385719299
0.485750287771225 0.10812334716320038 0.5113770961761475
0.39399054646492004 0.18505454063415527 0.5258054733276367
0.5526624321937561 0.20070967078208923 0.5282562971115112
0.45151546597480774 0.21200980246067047 0.47479739785194397
0.4247249960899353 0.1934819519519806 0.5005888938903809
0.41192564368247986 0.19380302727222443 0.47069260478019714
0.40959182381629944 0.2331133335828781 0.5371333360671997
0.4705161154270172 0.17039841413497925 0.5075638294219971
0.5263977646827698 0.11546622961759567 0.5858135223388672
0.45740166306495667 0.23016884922981262 0.5018682479858398
0.5209099054336548 0.23964889347553253 0.42149126529693604
0.409870445728302 0.2079872339963913 0.5946617722511292
0.3955174386501312 0.14640724658966064 0.4457111060619354
0.5512137413024902 0.1936853975057602 0.5051376223564148
0.35793188214302063 0.2103748768568039 0.4557802379131317
0.44687914848327637 0.13621443510055542 0.43011578917503357
0.34849193692207336 0.10839685052633286 0.44165781140327454
0.5102449059486389 0.1077982634305954 0.43828514218330383
0.46266165375709534 0.15341722965240479 0.49077165126800537
0.508695662021637 0.1721213310956955 0.4342940151691437
0.42127153277397156 0.12585988640785217 0.47151267528533936
0.3765315115451813 0.12408707290887833 0.5521020889282227
0.4485800266265869 0.19794344902038574 0.4084964990615845
0.5300488471984863 0.1716466099023819 0.48394185304641724
0.3600345849990845 0.20124268531799316 0.44519662857055664
0.5341057777404785 0.19316139817237854 0.4533815085887909
0.4885755181312561 0.13168664276599884 0.47384873032569885
0.39681437611579895 0.19266295433044434 0.5745289325714111
0.45874300599098206 0.17342227697372437 0.4658794403076172
0.5437166690826416 0.1410336047410965 0.44069957733154297
0.36543333530426025 0.13159288465976715 0.3985246419906616
0.3976714015007019 0.11135407537221909 0.5961484909057617
0.5482025146484375 0.20371398329734802 0.432364821434021
0.4102940857410431 0.18795567750930786 0.5113351941108704
0.4428897500038147 0.1470756083726883 0.5844869017601013
0.45810210704803467 0.15951843559741974 0.5297341346740723
0.4155670702457428 0.24003824591636658 0.4573145806789398
0.4196546673774719 0.21875649690628052 0.49768608808517456
0.44972726702690125 0.12052983045578003 0.4752157926559448
0.49010276794433594 0.11130893230438232 0.4766521453857422
0.376006156206131 0.10462421923875809 0.4620368480682373
0.4072708785533905 0.2311549186706543 0.4379611909389496
0.5453054308891296 0.20668630301952362 0.41895321011543274
0.419127881526947 0.17046436667442322 0.6007816195487976
0.4916573464870453 0.12530359625816345 0.4865173399448395
0.5488452315330505 0.2003784030675888 0.5646900534629822
0.3508380055427551 0.12427124381065369 0.4373076260089874
0.5544635057449341 0.1505957394838333 0.4249431788921356
0.5378102660179138 0.15715079009532928 0.4453095495700836
0.35619887709617615 0.12357649952173233 0.4596409797668457
0.5372464656829834 0.20144905149936676 0.5333545804023743
0.4951156675815582 0.18255972862243652 0.40955987572669983
0.34909528493881226 0.1901913434267044 0.5709455013275146
0.44064661860466003 0.13289770483970642 0.5051119327545166
0.37378090620040894 0.20561493933200836 0.4025208652019501
0.44322100281715393 0.11815010756254196 0.5670239925384521
0.3872266709804535 0.1178922951221466 0.5855738520622253
0.4970792233943939 0.11097197234630585 0.5124961137771606
0.49817776679992676 0.1538723260164261 0.5183224678039551
0.4807393550872803 0.2131062000989914 0.4013947546482086
0.47042253613471985 0.13409565389156342 0.5591734051704407
0.48266610503196716 0.155990868806839 0.43818962574005127
0.449622243642807 0.12505057454109192 0.40791934728622437
0.5417734384536743 0.15331313014030457 0.5522744655609131
0.45051848888397217 0.23264800012111664 0.4355185627937317
0.4612049162387848 0.10937905311584473 0.48927080631256104
0.45057520270347595 0.11305359750986099 0.5977550745010376
0.5344864130020142 0.10689875483512878 0.39691755175590515
0.46766844391822815 0.21045787632465363 0.5310654044151306
0.4461524188518524 0.10805443674325943 0.4444723129272461
0.4632391929626465 0.21211999654769897 0.5959340929985046
0.4604588747024536 0.11149771511554718 0.5813981890678406
0.4962230920791626 0.1861123889684677 0.44449445605278015
0.4255932867527008 0.18770025670528412 0.5579091310501099
0.36153745651245117 0.10839510709047318 0.5004813075065613
0.49070093035697937 0.12078907340765 0.49789413809776306
0.5175445675849915 0.2243141382932663 0.5500978827476501
0.5343828201293945 0.21341349184513092 0.5098598599433899
0.4628452956676483 0.1384482979774475 0.5102213025093079
0.38359832763671875 0.12421232461929321 0.4391365349292755
0.4840969741344452 0.15930666029453278 0.5319499373435974
0.4845741391181946 0.1459161341190338 0.410063236951828
0.41370633244514465 0.16512373089790344 0.521914541721344
0.4664844572544098 0.10425416380167007 0.40847522020339966
0.3549293279647827 0.15327037870883942 0.5350633859634399
0.4084356427192688 0.11629080027341843 0.5361859202384949
0.4994222819805145 0.1851869821548462 0.5261852145195007
0.3931651711463928 0.23909248411655426 0.5029423832893372
0.5242361426353455 0.13447503745555878 0.3994006812572479
0.447025328874588 0.1809619963169098 0.5886948704719543
0.35136955976486206 0.12352239340543747 0.5382715463638306
0.3910338580608368 0.23079128563404083 0.5001701712608337
0.5088865756988525 0.20578576624393463 0.43244093656539917
0.49010276794433594 0.11130893230438232 0.4766521453857422
0.4155080318450928 0.18422792851924896 0.5109956860542297
0.42912113666534424 0.13234825432300568 0.41309690475463867
0.5423213243484497 0.21549837291240692 0.5369221568107605
0.3464871942996979 0.16214583814144135 0.4615228772163391
0.4050920009613037 0.23905114829540253 0.4566747844219208
0.5008981227874756 0.16462717950344086 0.5878242254257202
0.4220937192440033 0.10580986738204956 0.4014972746372223
0.5498847961425781 0.21085244417190552 0.5775810480117798
0.49507981538772583 0.22038665413856506 0.43442589044570923
0.4383426904678345 0.11818481236696243 0.5647666454315186
0.38613173365592957 0.21711482107639313 0.43136292695999146
0.5329282879829407 0.14527100324630737 0.5146030783653259
0.5329282879829407 0.14527100324630737 0.5146030783653259
0.5160248279571533 0.1517639309167862 0.5772696137428284
0.4527677595615387 0.1077449843287468 0.44823017716407776
0.45319151878356934 0.15213151276111603 0.4168696403503418
0.3739777207374573 0.21447619795799255 0.5148783922195435
0.37428566813468933 0.15389809012413025 0.5047793984413147
0.36942729353904724 0.20270997285842896 0.5419051051139832
0.4220719337463379 0.24424970149993896 0.4343605637550354
0.4292714297771454 0.10697375982999802 0.437660276889801
0.551058292388916 0.22582852840423584 0.47847047448158264
0.5444375276565552 0.12476272135972977 0.502311110496521
0.404267281293869 0.194024920463562 0.5882167816162109
0.5253381729125977 0.2146390676498413 0.5491307973861694
0.5360731482505798 0.1957765370607376 0.4547075629234314
0.4856719672679901 0.16153286397457123 0.47630664706230164
0.4875856339931488 0.11339874565601349 0.5296027660369873
0.5472770929336548 0.12057589739561081 0.5530967116355896
0.4558170437812805 0.1877547800540924 0.46012499928474426
0.43124762177467346 0.11777806282043457 0.6084383726119995
0.45232731103897095 0.11316181719303131 0.4005836844444275
0.4220937192440033 0.10580986738204956 0.4014972746372223
0.5498847961425781 0.21085244417190552 0.5775810480117798
0.49507981538772583 0.22038665413856506 0.43442589044570923
0.4383426904678345 0.11818481236696243 0.5647666454315186
0.38613173365592957 0.21711482107639313 0.43136292695999146
0.5329282879829407 0.14527100324630737 0.5146030783653259
0.489413321018219 0.10463026911020279 0.5562579035758972
0.4280873239040375 0.1511126160621643 0.5306989550590515
0.5320903062820435 0.13817819952964783 0.543087363243103
0.5028723478317261 0.1933395117521286 0.47796425223350525
0.47509679198265076 0.16306623816490173 0.5972762703895569
0.38177230954170227 0.13283805549144745 0.53132563829422
0.4543173015117645 0.12206504493951797 0.5260198712348938
0.3712560832500458 0.23218511044979095 0.5485698580741882
0.4875856339931488 0.11339874565601349 0.5296027660369873
0.5472770929336548 0.12057589739561081 0.5530967116355896
0.47117093205451965 0.18931971490383148 0.4627193510532379
0.449622243642807 0.12505057454109192 0.40791934728622437
0.5417734384536743 0.15331313014030457 0.5522744655609131
0.45051848888397217 0.23264800012111664 0.4355185627937317
0.4612049162387848 0.10937905311584473 0.48927080631256104
0.45057520270347595 0.11305359750986099 0.5977550745010376
0.5344864130020142 0.10689875483512878 0.39691755175590515
0.46766844391822815 0.21045787632465363 0.5310654044151306
0.4461524188518524 0.10805443674325943 0.4444723129272461
0.4632391929626465 0.21211999654769897 0.5959340929985046
0.4604588747024536 0.11149771511554718 0.5813981890678406
0.4962230920791626 0.1861123889684677 0.44449445605278015
0.4255932867527008 0.18770025670528412 0.5579091310501099
0.36153745651245117 0.10839510709047318 0.5004813075065613
0.49070093035697937 0.12078907340765 0.49789413809776306
0.3782670497894287 0.21899715065956116 0.45748370885849
0.3872266709804535 0.1178922951221466 0.5855738520622253
0.4970792233943939 0.11097197234630585 0.5124961137771606
0.49817776679992676 0.1538723260164261 0.5183224678039551
0.4807393550872803 0.2131062000989914 0.4013947546482086
0.3643697202205658 0.16992667317390442 0.5260960459709167
0.5048119425773621 0.13021962344646454 0.4847124516963959
0.4456714689731598 0.17256562411785126 0.4396366775035858
0.3981854319572449 0.22707709670066833 0.4547049403190613
0.47263771295547485 0.21913063526153564 0.5599249005317688
0.3549404740333557 0.22406689822673798 0.5113916993141174
0.4299459159374237 0.23292860388755798 0.4875793159008026
0.45092034339904785 0.11505099385976791 0.506679356098175
0.41441747546195984 0.1251046061515808 0.4230252504348755
0.43430596590042114 0.10343831777572632 0.469252347946167
0.41130468249320984 0.23480680584907532 0.5559501051902771
0.44706398248672485 0.19120199978351593 0.427471399307251
0.3967995345592499 0.21459151804447174 0.5372059345245361
0.4133201241493225 0.19651392102241516 0.5635347366333008
0.4394960403442383 0.17378008365631104 0.4407721757888794
0.5322875380516052 0.20641681551933289 0.5590118169784546
0.4205971658229828 0.2252563089132309 0.4363738000392914
0.37865981459617615 0.10613314807415009 0.5621783137321472
0.5100632309913635 0.23374152183532715 0.5962669849395752
0.34216615557670593 0.11439231783151627 0.5774639844894409
0.408674955368042 0.10386988520622253 0.4490697681903839
0.44497302174568176 0.179889976978302 0.508874773979187
0.5350989699363708 0.21129386126995087 0.4383145570755005
0.44708216190338135 0.1832892894744873 0.6029418706893921
0.3995376527309418 0.1973477452993393 0.5726374387741089
0.40625694394111633 0.2127152383327484 0.4272013008594513
0.4416293799877167 0.10241209715604782 0.4999399483203888
0.3857531249523163 0.10665630549192429 0.4106716215610504
0.4155080318450928 0.18422792851924896 0.5109956860542297
0.42912113666534424 0.13234825432300568 0.41309690475463867
0.5302056074142456 0.209842249751091 0.5433303117752075
0.36676424741744995 0.16813066601753235 0.4225550889968872
0.5008981227874756 0.16462717950344086 0.5878242254257202
0.4220937192440033 0.10580986738204956 0.4014972746372223
0.5498847961425781 0.21085244417190552 0.5775810480117798
0.4394679069519043 0.10793605446815491 0.5909173488616943
0.35884910821914673 0.23857064545154572 0.5424675941467285
0.5007526278495789 0.2396150827407837 0.5916123390197754
0.47358572483062744 0.21659576892852783 0.4506898522377014
0.47271764278411865 0.17671851813793182 0.4218115508556366
0.5400542616844177 0.22987695038318634 0.44692665338516235
0.36942729353904724 0.20270997285842896 0.5419051051139832
0.46024468541145325 0.17044615745544434 0.5844427943229675
0.3977982699871063 0.20330436527729034 0.5427422523498535
0.4543173015117645 0.12206504493951797 0.5260198712348938
0.3712560832500458 0.23218511044979095 0.5485698580741882
0.4875856339931488 0.11339874565601349 0.5296027660369873
0.5472770929336548 0.12057589739561081 0.5530967116355896
0.47117093205451965 0.18931971490383148 0.4627193510532379
0.449622243642807 0.12505057454109192 0.40791934728622437
0.5417734384536743 0.15331313014030457 0.5522744655609131
0.45051848888397217 0.23264800012111664 0.4355185627937317
0.4612049162387848 0.10937905311584473 0.48927080631256104
0.45057520270347595 0.11305359750986099 0.5977550745010376
0.5344864130020142 0.10689875483512878 0.39691755175590515
0.5349628925323486 0.18861868977546692 0.5729252696037292
0.5105864405632019 0.15298929810523987 0.5963703989982605
0.5420570969581604 0.11702312529087067 0.42189833521842957
0.390848845243454 0.14513985812664032 0.538766622543335
0.5263977646827698 0.11546622961759567 0.5858135223388672
0.36153745651245117 0.10839510709047318 0.5004813075065613
0.49070093035697937 0.12078907340765 0.49789413809776306
0.4962230920791626 0.1861123889684677 0.44449445605278015
0.4255932867527008 0.18770025670528412 0.5579091310501099
0.36153745651245117 0.10839510709047318 0.5004813075065613
0.4255932867527008 0.18770025670528412 0.5579091310501099
0.36153745651245117 0.10839510709047318 0.5004813075065613
0.49070093035697937 0.12078907340765 0.49789413809776306
0.49070093035697937 0.12078907340765 0.49789413809776306
0.5175445675849915 0.2243141382932663 0.5500978827476501
0.5343828201293945 0.21341349184513092 0.5098598599433899
0.4628452956676483 0.1384482979774475 0.5102213025093079
0.4628452956676483 0.1384482979774475 0.5102213025093079
0.38359832763671875 0.12421232461929321 0.4391365349292755
0.4840969741344452 0.15930666029453278 0.5319499373435974
0.4994222819805145 0.1851869821548462 0.5261852145195007
0.3931651711463928 0.23909248411655426 0.5029423832893372
0.4111446738243103 0.11924932152032852 0.4180321991443634
0.49682748317718506 0.11000537127256393 0.5368918776512146
0.34429413080215454 0.1523195505142212 0.4392867386341095
0.5316867828369141 0.10629799962043762 0.5608193874359131
0.5272380709648132 0.19496320188045502 0.5545629262924194
0.5085417628288269 0.11673177033662796 0.4615490734577179
0.5036433935165405 0.2339065670967102 0.4524582326412201
0.3595414161682129 0.15601259469985962 0.49745044112205505
0.3669733703136444 0.11284349858760834 0.40529531240463257
0.3614887297153473 0.12282178550958633 0.4385678172111511
0.35783281922340393 0.13429582118988037 0.5106737017631531
0.4443803131580353 0.1035546064376831 0.5016440153121948
0.4768374562263489 0.13501228392124176 0.4712613523006439
0.47612816095352173 0.19954806566238403 0.5672880411148071
0.5399972200393677 0.15746332705020905 0.4375954866409302
0.4628452956676483 0.1384482979774475 0.5102213025093079
0.38359832763671875 0.12421232461929321 0.4391365349292755
0.4840969741344452 0.15930666029453278 0.5319499373435974
0.4845741391181946 0.1459161341190338 0.410063236951828
0.41370633244514465 0.16512373089790344 0.521914541721344
0.4664844572544098 0.10425416380167007 0.40847522020339966
0.3549293279647827 0.15327037870883942 0.5350633859634399
0.4084356427192688 0.11629080027341843 0.5361859202384949
0.4994222819805145 0.1851869821548462 0.5261852145195007
0.3931651711463928 0.23909248411655426 0.5029423832893372
0.5242361426353455 0.13447503745555878 0.3994006812572479
0.447025328874588 0.1809619963169098 0.5886948704719543
0.35136955976486206 0.12352239340543747 0.5382715463638306
0.3910338580608368 0.23079128563404083 0.5001701712608337
0.5088865756988525 0.20578576624393463 0.43244093656539917
0.40402740240097046 0.2034219652414322 0.4507805407047272
0.35689210891723633 0.11645232141017914 0.5884167551994324
0.4768374562263489 0.13501228392124176 0.4712613523006439
0.47612816095352173 0.19954806566238403 0.5672880411148071
0.41891947388648987 0.10897301137447357 0.4356083571910858
0.3887946903705597 0.16827566921710968 0.5847627520561218
0.5538105964660645 0.1147940382361412 0.47521987557411194
0.5381699204444885 0.1783173680305481 0.4438942074775696
0.40898406505584717 0.1481022983789444 0.4545537531375885
0.5363587141036987 0.10338695347309113 0.5218986868858337
0.43916386365890503 0.1236681416630745 0.4356701374053955
0.37859922647476196 0.165909081697464 0.5077928900718689
0.4778604209423065 0.20204731822013855 0.4394319951534271
0.4162464141845703 0.20643533766269684 0.5578044056892395
0.45281359553337097 0.22360999882221222 0.5626583695411682
0.5465826392173767 0.2350901961326599 0.5698962807655334
0.45980551838874817 0.14577265083789825 0.46896010637283325
0.3641849458217621 0.18084998428821564 0.5579483509063721
0.5064797401428223 0.1860676109790802 0.5379769206047058
0.4628452956676483 0.1384482979774475 0.5102213025093079
0.38359832763671875 0.12421232461929321 0.4391365349292755
0.4840969741344452 0.15930666029453278 0.5319499373435974
0.4845741391181946 0.1459161341190338 0.410063236951828
0.41370633244514465 0.16512373089790344 0.521914541721344
0.4664844572544098 0.10425416380167007 0.40847522020339966
0.3549293279647827 0.15327037870883942 0.5350633859634399
0.4084356427192688 0.11629080027341843 0.5361859202384949
0.5019330382347107 0.1847589761018753 0.43183833360671997
0.3955109417438507 0.1592361181974411 0.5079731345176697
0.5270003080368042 0.2195696383714676 0.5398938655853271
0.43927040696144104 0.2399592250585556 0.435454398393631
0.49045783281326294 0.11497600376605988 0.5017390251159668
0.546746551990509 0.23609286546707153 0.5000657439231873
0.3988884389400482 0.21769404411315918 0.4166230857372284
0.5472736358642578 0.14190858602523804 0.5473529100418091
0.5290216207504272 0.2311067432165146 0.4421834349632263
0.48758214712142944 0.15133029222488403 0.5256885886192322
0.4358634352684021 0.24279451370239258 0.40219011902809143
0.5483106374740601 0.10262981802225113 0.5422368049621582
0.46778014302253723 0.21626123785972595 0.5995783805847168
0.5552812814712524 0.1538761407136917 0.4310929775238037
0.3714439868927002 0.23298567533493042 0.581257700920105
0.3673069477081299 0.1598484069108963 0.5937293171882629
0.5144060850143433 0.16759629547595978 0.5421714782714844
0.49112287163734436 0.2309592068195343 0.43859338760375977
0.400248646736145 0.15491849184036255 0.5667927265167236
0.4157150089740753 0.20173516869544983 0.5194138288497925
0.42636358737945557 0.15813647210597992 0.4768182337284088
0.5441720485687256 0.11155536770820618 0.4816536009311676
0.40258750319480896 0.15467695891857147 0.5309499502182007
0.3737010061740875 0.2370474636554718 0.4640376567840576
0.4152212142944336 0.12865324318408966 0.4315299987792969
0.3610379099845886 0.15858684480190277 0.4467238485813141
0.4026060998439789 0.1044919416308403 0.49189767241477966
0.4526960253715515 0.15989932417869568 0.5437753200531006
0.47792842984199524 0.17455288767814636 0.5345094799995422
0.48309120535850525 0.21228422224521637 0.5893208980560303
0.40713146328926086 0.11207807809114456 0.4418678283691406
0.4740869402885437 0.19355201721191406 0.5623812675476074
0.4531722664833069 0.15621317923069 0.5952160358428955
0.38566309213638306 0.24294918775558472 0.39980679750442505
0.397889643907547 0.10648924112319946 0.5618951916694641
0.5247797966003418 0.11784502118825912 0.44104769825935364
0.3534524440765381 0.19296357035636902 0.5789403915405273
0.465509295463562 0.12707680463790894 0.43527036905288696
0.42912760376930237 0.13343150913715363 0.43431833386421204
0.3823287785053253 0.1258801519870758 0.5924085378646851
0.5498800277709961 0.23193515837192535 0.42070305347442627
0.48577645421028137 0.12339812517166138 0.5405064821243286
0.43958592414855957 0.16708634793758392 0.4516509175300598
0.48340314626693726 0.20265543460845947 0.5537765622138977
0.5383797287940979 0.15040458738803864 0.4191622734069824
0.5221660733222961 0.12926025688648224 0.43692657351493835
0.3570050895214081 0.21659588813781738 0.4762239158153534
0.36762189865112305 0.22296880185604095 0.48029398918151855
0.46148115396499634 0.16129352152347565 0.4132536053657532
0.4904548227787018 0.11315131932497025 0.5478215217590332
0.48664575815200806 0.12389832735061646 0.49514126777648926
0.3872266709804535 0.1178922951221466 0.5855738520622253
0.4970792233943939 0.11097197234630585 0.5124961137771606
0.39681437611579895 0.19266295433044434 0.5745289325714111
0.4255932867527008 0.18770025670528412 0.5579091310501099
0.36153745651245117 0.10839510709047318 0.5004813075065613
0.49070093035697937 0.12078907340765 0.49789413809776306
0.5175445675849915 0.2243141382932663 0.5500978827476501
0.5343828201293945 0.21341349184513092 0.5098598599433899
0.4628452956676483 0.1384482979774475 0.5102213025093079
0.38359832763671875 0.12421232461929321 0.4391365349292755
0.4840969741344452 0.15930666029453278 0.5319499373435974
0.4845741391181946 0.1459161341190338 0.410063236951828
0.41370633244514465 0.16512373089790344 0.521914541721344
0.4664844572544098 0.10425416380167007 0.40847522020339966
0.3549293279647827 0.15327037870883942 0.5350633859634399
0.4084356427192688 0.11629080027341843 0.5361859202384949
0.4994222819805145 0.1851869821548462 0.5261852145195007
0.3931651711463928 0.23909248411655426 0.5029423832893372
0.5242361426353455 0.13447503745555878 0.3994006812572479
0.447025328874588 0.1809619963169098 0.5886948704719543
0.35136955976486206 0.12352239340543747 0.5382715463638306
0.3910338580608368 0.23079128563404083 0.5001701712608337
0.5088865756988525 0.20578576624393463 0.43244093656539917
0.40402740240097046 0.2034219652414322 0.4507805407047272
0.35689210891723633 0.11645232141017914 0.5884167551994324
0.4768374562263489 0.13501228392124176 0.4712613523006439
0.47612816095352173 0.19954806566238403 0.5672880411148071
0.41891947388648987 0.10897301137447357 0.4356083571910858
0.3887946903705597 0.16827566921710968 0.5847627520561218
0.5538105964660645 0.1147940382361412 0.47521987557411194
0.5381699204444885 0.1783173680305481 0.4438942074775696
0.40898406505584717 0.1481022983789444 0.4545537531375885
0.4217221736907959 0.10430672764778137 0.41002997756004333
0.35916486382484436 0.20201878249645233 0.4331663250923157
0.5399630665779114 0.21272340416908264 0.4560450613498688
0.37192684412002563 0.1366264671087265 0.5839200019836426
0.4364698827266693 0.11466654390096664 0.402097225189209
0.43576672673225403 0.12355198711156845 0.4195857048034668
0.5134439468383789 0.21021971106529236 0.4658423066139221
0.3627846837043762 0.2135307341814041 0.4364051818847656
0.5181005597114563 0.20088718831539154 0.4436010718345642
0.5348524451255798 0.10660094767808914 0.4761052131652832
0.4547191560268402 0.126134991645813 0.5205541253089905
0.5047061443328857 0.1438520848751068 0.5873404741287231
0.44140440225601196 0.21325549483299255 0.40465396642684937
0.3581221401691437 0.24049513041973114 0.40867745876312256
0.4559524953365326 0.12755924463272095 0.44956013560295105
0.38630107045173645 0.11136440187692642 0.49261316657066345
0.4167121946811676 0.12750834226608276 0.4606432318687439
0.3943290412425995 0.16788899898529053 0.4825502634048462
0.5142914652824402 0.14918600022792816 0.6008878350257874
0.3398178517818451 0.1147422045469284 0.3979125916957855
0.49120670557022095 0.16827422380447388 0.5796774625778198
0.5333957076072693 0.1640501320362091 0.42307448387145996
