ply
format ascii 1.0
element vertex 830
property float x
property float y
property float z
end_header
0.7003630995750427 0.3019213080406189 0.3301790654659271
0.7684904336929321 0.29016634821891785 0.3647054433822632
0.6181591749191284 0.22860245406627655 0.42368778586387634
0.6880819797515869 0.2871531546115875 0.37234121561050415
0.7901092171669006 0.18218174576759338 0.4015425741672516
0.7478176355361938 0.20181535184383392 0.5370160341262817
0.7324356436729431 0.23909755051136017 0.5279294848442078
0.6967152953147888 0.2101358026266098 0.34209781885147095
0.7545657753944397 0.20544999837875366 0.5406855940818787
0.6853986382484436 0.19425635039806366 0.5094993114471436
0.6379203796386719 0.2775084674358368 0.41919776797294617
0.6633960008621216 0.2649628520011902 0.4450662136077881
0.7795482277870178 0.1924120932817459 0.4531363546848297
0.7129085659980774 0.1501159965991974 0.4419691860675812
0.6114057302474976 0.3214596211910248 0.45393967628479004
0.6155965328216553 0.30512452125549316 0.396156370639801
0.7706847786903381 0.22518223524093628 0.42133405804634094
0.7268428206443787 0.2651671767234802 0.3648528754711151
0.7119064331054688 0.21122996509075165 0.48767775297164917
0.7606899738311768 0.30337122082710266 0.4342976212501526
0.6440500020980835 0.20947061479091644 0.39942142367362976
0.6369699835777283 0.1479044258594513 0.4139632284641266
0.7341375350952148 0.14216764271259308 0.4244946837425232
0.5996090173721313 0.21150915324687958 0.4673416018486023
0.6683967709541321 0.30624550580978394 0.4285312294960022
0.6855912208557129 0.17839443683624268 0.5515092611312866
0.7030726671218872 0.2759563624858856 0.360271692276001
0.6825040578842163 0.20863117277622223 0.5227966904640198
0.7364099621772766 0.31764456629753113 0.40511563420295715
0.7483801245689392 0.26037928462028503 0.3807019293308258
0.59809809923172 0.3148006498813629 0.4839369058609009
0.6298855543136597 0.1571442186832428 0.48710450530052185
0.732617974281311 0.25305208563804626 0.4371550977230072
0.699389636516571 0.24626092612743378 0.43560653924942017
0.6112779378890991 0.2214115709066391 0.4591425359249115
0.772464394569397 0.3062174320220947 0.400613933801651
0.7000795602798462 0.2178214192390442 0.486665278673172
0.7104610204696655 0.3027805984020233 0.34961116313934326
0.7433643341064453 0.29739588499069214 0.3454575538635254
0.813517153263092 0.26823896169662476 0.3907213807106018
0.8067059516906738 0.19574837386608124 0.44292083382606506
0.6893936395645142 0.16259834170341492 0.38378241658210754
0.6673141717910767 0.16181862354278564 0.5108530521392822
0.6921237111091614 0.23200170695781708 0.44010215997695923
0.7034559845924377 0.18352194130420685 0.3863410949707031
0.6649937033653259 0.2921554744243622 0.3819141983985901
0.6736367344856262 0.24571289122104645 0.4937003254890442
0.7443739175796509 0.31279224157333374 0.41633811593055725
0.7145600318908691 0.1653129607439041 0.3744959831237793
0.7117253541946411 0.26801738142967224 0.3471824824810028
0.7555779814720154 0.27941253781318665 0.3774605393409729
0.7438291907310486 0.27368760108947754 0.5215846300125122
0.6794477701187134 0.12274780869483948 0.367489218711853
0.6465166211128235 0.35490167140960693 0.48960205912590027
0.7274959683418274 0.13131387531757355 0.41831088066101074
0.6449783444404602 0.26799476146698 0.4908968210220337
0.7839178442955017 0.1767870932817459 0.4846970736980438
0.6641958951950073 0.21659930050373077 0.3626949191093445
0.6826938390731812 0.30955058336257935 0.5147153735160828
0.7150520086288452 0.3210241496562958 0.44709309935569763
0.8022769093513489 0.20494116842746735 0.4082026481628418
0.8048200607299805 0.20463812351226807 0.39556482434272766
0.6540307402610779 0.2795541286468506 0.3936658501625061
0.6407041549682617 0.30858707427978516 0.35640594363212585
0.6962600946426392 0.20023049414157867 0.45762938261032104
0.7647509574890137 0.15960052609443665 0.4944469630718231
0.5999153256416321 0.17413994669914246 0.49586421251296997
0.6502040028572083 0.22031550109386444 0.5035882592201233
0.6484947204589844 0.30030328035354614 0.4403246343135834
0.6657735705375671 0.26984527707099915 0.3845643997192383
0.732617974281311 0.25305208563804626 0.4371550977230072
0.699389636516571 0.24626092612743378 0.43560653924942017
0.6828209757804871 0.2122236043214798 0.45093250274658203
0.7742674946784973 0.14132490754127502 0.4485640525817871
0.6793103218078613 0.14538758993148804 0.4010485112667084
0.6936118602752686 0.21095401048660278 0.5437760949134827
0.7139343023300171 0.26362043619155884 0.3493909537792206
0.6319404244422913 0.3148631751537323 0.4149192273616791
0.7881925106048584 0.18845969438552856 0.4457892179489136
0.695578932762146 0.2639036774635315 0.43771660327911377
0.6967416405677795 0.2199835330247879 0.5488485097885132
0.7791370749473572 0.14154000580310822 0.44578269124031067
0.6644013524055481 0.15224814414978027 0.479799747467041
0.7285969257354736 0.12352264672517776 0.38228902220726013
0.6334474682807922 0.3216165602207184 0.41564810276031494
0.7475119829177856 0.20561078190803528 0.4915078580379486
0.6106753945350647 0.16816112399101257 0.48975324630737305
0.6487923264503479 0.33256080746650696 0.45908045768737793
0.6282862424850464 0.2555496096611023 0.37391939759254456
0.6317210793495178 0.21354450285434723 0.5096955299377441
0.7199721336364746 0.2684308588504791 0.4762909710407257
0.7787156701087952 0.3201942443847656 0.46565213799476624
0.6195565462112427 0.15904341638088226 0.4591677188873291
0.8139245510101318 0.264847993850708 0.3920508027076721
0.6458232402801514 0.20087988674640656 0.44445252418518066
0.7523598074913025 0.14894278347492218 0.4289335012435913
0.7144763469696045 0.15367785096168518 0.3755641281604767
0.7425059676170349 0.18495120108127594 0.5435552597045898
0.6725231409072876 0.2348444014787674 0.4069496989250183
0.6606231331825256 0.26165392994880676 0.4619792699813843
0.7693789005279541 0.2991468906402588 0.4174811542034149
0.6594624519348145 0.27202507853507996 0.3603740334510803
0.641473114490509 0.2391817420721054 0.42121967673301697
0.7444126605987549 0.2646411061286926 0.4237772524356842
0.7229695916175842 0.27928683161735535 0.48687589168548584
0.7036489844322205 0.2846091389656067 0.44610151648521423
0.7807767391204834 0.2918412685394287 0.4023151695728302
0.6160483956336975 0.32333239912986755 0.4893796741962433
0.7545657753944397 0.20544999837875366 0.5406855940818787
0.7715334296226501 0.25574129819869995 0.4611894488334656
0.6641563177108765 0.18139348924160004 0.5379446744918823
0.7440681457519531 0.3203859329223633 0.5121890902519226
0.6840462684631348 0.16399921476840973 0.359127402305603
0.7038861513137817 0.15309348702430725 0.3866032063961029
0.6391342878341675 0.26863884925842285 0.45631274580955505
0.7707726359367371 0.22424522042274475 0.394703209400177
0.7672582864761353 0.28691139817237854 0.40560880303382874
0.6559280157089233 0.21263942122459412 0.3402419984340668
0.6719669103622437 0.22291125357151031 0.47886914014816284
0.6878214478492737 0.28294724225997925 0.39945369958877563
0.7350409030914307 0.2552231550216675 0.528231143951416
0.6340235471725464 0.12269569933414459 0.3809289336204529
0.5807209610939026 0.323852002620697 0.47242987155914307
0.6987364888191223 0.20598141849040985 0.44122397899627686
0.656898021697998 0.31148502230644226 0.4622892439365387
0.6141599416732788 0.29603397846221924 0.43241748213768005
0.7311887741088867 0.20470651984214783 0.3701130151748657
0.6747966408729553 0.16031934320926666 0.45101040601730347
0.5758920311927795 0.3492107391357422 0.45987069606781006
0.7399260997772217 0.20458097755908966 0.5195130109786987
0.704872727394104 0.3489077091217041 0.5207920670509338
0.7271153330802917 0.33660146594047546 0.46714305877685547
0.7159035801887512 0.15839186310768127 0.4828648567199707
0.763228714466095 0.23639340698719025 0.5083112716674805
0.7748531103134155 0.30068472027778625 0.4458079934120178
0.7108482718467712 0.17190377414226532 0.5055707097053528
0.6633022427558899 0.3201981782913208 0.45649388432502747
0.6512981653213501 0.3037017285823822 0.33555009961128235
0.7512324452400208 0.14424344897270203 0.4286137521266937
0.6600334644317627 0.1492919921875 0.4174240529537201
0.6044805645942688 0.255675733089447 0.4230097830295563
0.6234633326530457 0.32094305753707886 0.3635956645011902
0.6856968998908997 0.22688038647174835 0.3741847574710846
0.6657143831253052 0.24707704782485962 0.5289036631584167
0.7517134547233582 0.30874595046043396 0.3837086856365204
0.6474577188491821 0.28700312972068787 0.48325884342193604
0.7067434787750244 0.1978168487548828 0.4632565975189209
0.7120762467384338 0.1772543340921402 0.5159161686897278
0.6435747146606445 0.33368828892707825 0.4076502323150635
0.6492062211036682 0.21098431944847107 0.43806686997413635
0.6491904854774475 0.196353018283844 0.4760502278804779
0.7501072287559509 0.1756678819656372 0.5033330917358398
0.7174104452133179 0.3236970901489258 0.4945293068885803
0.7483801245689392 0.26037928462028503 0.3807019293308258
0.6149454712867737 0.32441386580467224 0.4760545492172241
0.5977195501327515 0.2641466557979584 0.4894707202911377
0.634610652923584 0.18798984587192535 0.3804595172405243
0.6939384341239929 0.24941709637641907 0.4859871566295624
0.7381534576416016 0.23615853488445282 0.5206223726272583
0.6699063181877136 0.18591950833797455 0.5095670819282532
0.7003630995750427 0.3019213080406189 0.3301790654659271
0.7684904336929321 0.29016634821891785 0.3647054433822632
0.6181591749191284 0.22860245406627655 0.42368778586387634
0.6880819797515869 0.2871531546115875 0.37234121561050415
0.7901092171669006 0.18218174576759338 0.4015425741672516
0.6592000722885132 0.3130399286746979 0.34312814474105835
0.6560978293418884 0.23470157384872437 0.4148297607898712
0.6853986382484436 0.19425635039806366 0.5094993114471436
0.6379203796386719 0.2775084674358368 0.41919776797294617
0.6633960008621216 0.2649628520011902 0.4450662136077881
0.6006282567977905 0.26379629969596863 0.49869006872177124
0.6114057302474976 0.3214596211910248 0.45393967628479004
0.6155965328216553 0.30512452125549316 0.396156370639801
0.7706847786903381 0.22518223524093628 0.42133405804634094
0.7268428206443787 0.2651671767234802 0.3648528754711151
0.7119064331054688 0.21122996509075165 0.48767775297164917
0.7606899738311768 0.30337122082710266 0.4342976212501526
0.6440500020980835 0.20947061479091644 0.39942142367362976
0.6369699835777283 0.1479044258594513 0.4139632284641266
0.7341375350952148 0.14216764271259308 0.4244946837425232
0.7334027886390686 0.28224289417266846 0.44268539547920227
0.5935913324356079 0.24612371623516083 0.4470105767250061
0.7377150654792786 0.31624794006347656 0.4081026315689087
0.6537454128265381 0.2731702923774719 0.3815392851829529
0.6825040578842163 0.20863117277622223 0.5227966904640198
0.6040180325508118 0.23406341671943665 0.5000295042991638
0.7174104452133179 0.3236970901489258 0.4945293068885803
0.7849575877189636 0.1510613113641739 0.4791696071624756
0.6721320748329163 0.2679279148578644 0.532728374004364
0.7748379111289978 0.2723860740661621 0.44479265809059143
0.7954057455062866 0.1710885912179947 0.47120973467826843
0.62381511926651 0.22082723677158356 0.44357240200042725
0.7171590328216553 0.2377457320690155 0.37008804082870483
0.7375149130821228 0.15471409261226654 0.499502569437027
0.6891726851463318 0.18253235518932343 0.48504582047462463
0.721991777420044 0.19154605269432068 0.49805256724357605
0.7716214060783386 0.14947792887687683 0.45708581805229187
0.7298014760017395 0.1841844767332077 0.47375407814979553
0.7744796276092529 0.1916435807943344 0.4385589063167572
0.7241986393928528 0.13422462344169617 0.3964667320251465
0.74038165807724 0.2904980182647705 0.38754504919052124
0.7538428902626038 0.15894663333892822 0.4619726240634918
0.6439998745918274 0.2962246239185333 0.35975003242492676
0.6526418328285217 0.26336827874183655 0.4887818396091461
0.7628591656684875 0.26634398102760315 0.513425886631012
0.7112607955932617 0.3200036883354187 0.4501229524612427
0.6046590209007263 0.2395881563425064 0.48204004764556885
0.6093674302101135 0.2678695619106293 0.43349000811576843
0.6594119668006897 0.3028043508529663 0.4254031777381897
0.7100463509559631 0.16125105321407318 0.5284452438354492
0.7208619713783264 0.13323388993740082 0.37235528230667114
0.6471364498138428 0.1827758252620697 0.3881961703300476
0.7391601800918579 0.2842262089252472 0.43697425723075867
0.7453242540359497 0.17336472868919373 0.4012267589569092
0.7642732858657837 0.27765026688575745 0.4015900194644928
0.669937789440155 0.2543751001358032 0.5203591585159302
0.6671662926673889 0.15539686381816864 0.4631410539150238
0.6587432026863098 0.14575770497322083 0.34321218729019165
0.6698848605155945 0.19480416178703308 0.5178284049034119
0.7070663571357727 0.3103921711444855 0.5012578964233398
0.644428014755249 0.17986437678337097 0.45376259088516235
0.7776909470558167 0.3066422641277313 0.42169368267059326
0.7555152177810669 0.2405875027179718 0.4194556772708893
0.7527569532394409 0.19207675755023956 0.41026806831359863
0.7963491678237915 0.30155476927757263 0.38809025287628174
0.7348070740699768 0.26223015785217285 0.5344951748847961
0.6802822351455688 0.2150047868490219 0.34785735607147217
0.630609393119812 0.2081458568572998 0.38911956548690796
0.7188816666603088 0.14501716196537018 0.3810673952102661
0.5806367993354797 0.27860984206199646 0.48233211040496826
0.7197405695915222 0.21515199542045593 0.4371786117553711
0.6319557428359985 0.1554454118013382 0.4580802321434021
0.6581044793128967 0.17893767356872559 0.5391753911972046
0.6573169231414795 0.20434816181659698 0.4527784287929535
0.7771424055099487 0.2816244065761566 0.4845779538154602
0.6540607810020447 0.2921603322029114 0.30697476863861084
0.7056033611297607 0.2767355442047119 0.5396888256072998
0.625109076499939 0.23561394214630127 0.4068008363246918
0.6428096890449524 0.24009057879447937 0.4127865433692932
0.7161744832992554 0.2822518050670624 0.38545677065849304
0.758965790271759 0.20907266438007355 0.43390509486198425
0.6568871736526489 0.18466301262378693 0.4254140853881836
0.6641237139701843 0.20990478992462158 0.3769940435886383
0.7255581021308899 0.3211572468280792 0.5060703754425049
0.8158560991287231 0.29110187292099 0.40706557035446167
0.822184681892395 0.21572116017341614 0.4122861921787262
0.6228835582733154 0.21714279055595398 0.4786270558834076
0.6504649519920349 0.17431877553462982 0.5004795789718628
0.7008860111236572 0.3156672418117523 0.3777986466884613
0.6686497926712036 0.28189411759376526 0.33085012435913086
0.6914197206497192 0.1724412590265274 0.5323182940483093
0.6321736574172974 0.22436551749706268 0.37443456053733826
0.7241613864898682 0.30765271186828613 0.48382750153541565
0.700542151927948 0.2867696285247803 0.53309166431427
0.6740244626998901 0.3254683315753937 0.4577660858631134
0.6822441816329956 0.2046063095331192 0.4730733633041382
0.7258853912353516 0.23299668729305267 0.5476575493812561
0.7598146200180054 0.2852535545825958 0.4692063331604004
0.7003630995750427 0.3019213080406189 0.3301790654659271
0.7778286933898926 0.27287301421165466 0.4338361918926239
0.649319052696228 0.20780767500400543 0.5014793872833252
0.6834160089492798 0.18987645208835602 0.3433384597301483
0.8035561442375183 0.31283116340637207 0.3778283894062042
0.6062841415405273 0.1810864508152008 0.4751349985599518
0.7197405695915222 0.21515199542045593 0.4371786117553711
0.6319557428359985 0.1554454118013382 0.4580802321434021
0.6581044793128967 0.17893767356872559 0.5391753911972046
0.6573169231414795 0.20434816181659698 0.4527784287929535
0.7771424055099487 0.2816244065761566 0.4845779538154602
0.6681816577911377 0.26836398243904114 0.3851376473903656
0.7362245321273804 0.1916409283876419 0.3892773389816284
0.667015016078949 0.31529468297958374 0.48276978731155396
0.7055127620697021 0.20272663235664368 0.42329609394073486
0.5996570587158203 0.2909097671508789 0.4108729064464569
0.6271262764930725 0.22028037905693054 0.5043343305587769
0.7389539480209351 0.3201664090156555 0.3946445882320404
0.715019166469574 0.34812086820602417 0.5157083868980408
0.654458224773407 0.30615296959877014 0.41469812393188477
0.6391942501068115 0.17669785022735596 0.44399988651275635
0.7601873278617859 0.30052632093429565 0.4023309051990509
0.6177574992179871 0.1852455884218216 0.4958292245864868
0.6184195280075073 0.15370497107505798 0.4788777828216553
0.6149160861968994 0.3281906843185425 0.4160856604576111
0.8131780624389648 0.16764391958713531 0.4276954233646393
0.7683220505714417 0.23484046757221222 0.4013368785381317
0.6868118643760681 0.3603503704071045 0.5105376839637756
0.7594873905181885 0.2755638062953949 0.44676995277404785
0.7258853912353516 0.23299668729305267 0.5476575493812561
0.7598146200180054 0.2852535545825958 0.4692063331604004
0.7003630995750427 0.3019213080406189 0.3301790654659271
0.7684904336929321 0.29016634821891785 0.3647054433822632
0.6181591749191284 0.22860245406627655 0.42368778586387634
0.6880819797515869 0.2871531546115875 0.37234121561050415
0.7901092171669006 0.18218174576759338 0.4015425741672516
0.7478176355361938 0.20181535184383392 0.5370160341262817
0.7324356436729431 0.23909755051136017 0.5279294848442078
0.6967152953147888 0.2101358026266098 0.34209781885147095
0.7605354189872742 0.24440997838974 0.4896486699581146
0.6295374631881714 0.18643270432949066 0.4679688811302185
0.734626293182373 0.2910868525505066 0.4820297062397003
0.6874786615371704 0.24257294833660126 0.3926678001880646
0.667015016078949 0.31529468297958374 0.48276978731155396
0.7055127620697021 0.20272663235664368 0.42329609394073486
0.6222802400588989 0.2592664361000061 0.48511138558387756
0.6107820868492126 0.1651500016450882 0.43382319808006287
0.7412206530570984 0.3002787232398987 0.43709930777549744
0.7490015625953674 0.31123268604278564 0.5080308318138123
0.6584067940711975 0.34991851449012756 0.4730367064476013
0.608566164970398 0.1753438115119934 0.4513334631919861
0.735557496547699 0.2885843515396118 0.4278356730937958
0.6188454031944275 0.17261089384555817 0.5348228216171265
0.6015065908432007 0.21729867160320282 0.47988009452819824
0.7413311004638672 0.22765743732452393 0.4698249399662018
0.7050181031227112 0.2814478874206543 0.32149288058280945
0.7355169653892517 0.22472243010997772 0.5634775757789612
0.7669351696968079 0.3340917229652405 0.42917025089263916
0.7285029292106628 0.2778753936290741 0.45076578855514526
0.7401947379112244 0.2122800648212433 0.40389272570610046
0.8064085841178894 0.2216392606496811 0.39648565649986267
0.5806367993354797 0.27860984206199646 0.48233211040496826
0.7771424055099487 0.2816244065761566 0.4845779538154602
0.6681816577911377 0.26836398243904114 0.3851376473903656
0.7362245321273804 0.1916409283876419 0.3892773389816284
0.667015016078949 0.31529468297958374 0.48276978731155396
0.7055127620697021 0.20272663235664368 0.42329609394073486
0.5996570587158203 0.2909097671508789 0.4108729064464569
0.6271262764930725 0.22028037905693054 0.5043343305587769
0.7389539480209351 0.3201664090156555 0.3946445882320404
0.715019166469574 0.34812086820602417 0.5157083868980408
0.654458224773407 0.30615296959877014 0.41469812393188477
0.6391942501068115 0.17669785022735596 0.44399988651275635
0.7601873278617859 0.30052632093429565 0.4023309051990509
0.6177574992179871 0.1852455884218216 0.4958292245864868
0.6184195280075073 0.15370497107505798 0.4788777828216553
0.6149160861968994 0.3281906843185425 0.4160856604576111
0.8131780624389648 0.16764391958713531 0.4276954233646393
0.7683220505714417 0.23484046757221222 0.4013368785381317
0.6868118643760681 0.3603503704071045 0.5105376839637756
0.7594873905181885 0.2755638062953949 0.44676995277404785
0.701056182384491 0.2569500207901001 0.3330739140510559
0.6413729190826416 0.24479623138904572 0.405549556016922
0.7418234944343567 0.30926403403282166 0.3376147150993347
0.6494085192680359 0.1856989860534668 0.5010049939155579
0.7226888537406921 0.153132826089859 0.4764745831489563
0.6535388827323914 0.20172464847564697 0.435698002576828
0.7172818183898926 0.27900993824005127 0.49124667048454285
0.6138083934783936 0.2660970091819763 0.4861488938331604
0.6349095702171326 0.21442076563835144 0.38942402601242065
0.6912001967430115 0.2712540030479431 0.44864219427108765
0.7534367442131042 0.2561175525188446 0.3713344633579254
0.7070838809013367 0.2049463391304016 0.4419460594654083
0.6719669103622437 0.22291125357151031 0.47886914014816284
0.7675422430038452 0.2902596592903137 0.3806050717830658
0.723856508731842 0.2921866178512573 0.4888002872467041
0.7671728134155273 0.27776405215263367 0.47487542033195496
0.656796932220459 0.19026727974414825 0.46433308720588684
0.6446661949157715 0.33733049035072327 0.4175371825695038
0.649587869644165 0.226392462849617 0.393462210893631
0.657953679561615 0.20979160070419312 0.4304693043231964
0.6705839037895203 0.18967482447624207 0.4094889163970947
0.6021860241889954 0.20194892585277557 0.4473362863063812
0.6830353140830994 0.256803959608078 0.43663135170936584
0.7322306632995605 0.331069678068161 0.5187695622444153
0.6205272674560547 0.23761402070522308 0.40637868642807007
0.6474611163139343 0.27566492557525635 0.3189865052700043
0.6048204302787781 0.2216372787952423 0.506969690322876
0.7396222949028015 0.1756673902273178 0.4217723309993744
0.6620067954063416 0.32983672618865967 0.402579128742218
0.6595098376274109 0.13298991322517395 0.4041905105113983
0.7601498365402222 0.21940214931964874 0.4029550850391388
0.7961371541023254 0.14042606949806213 0.45947548747062683
0.7980890274047852 0.28145912289619446 0.4141136407852173
0.7103400230407715 0.2466958463191986 0.43470677733421326
0.7128508687019348 0.27254846692085266 0.3670569658279419
0.7547268271446228 0.20830069482326508 0.44801604747772217
0.7254788279533386 0.19236983358860016 0.5244753360748291
0.6937606930732727 0.20780958235263824 0.3467347323894501
0.6949951648712158 0.3057662546634674 0.4026222825050354
0.6740613579750061 0.133959099650383 0.39917218685150146
0.6820892095565796 0.29991668462753296 0.3644329011440277
0.7455502152442932 0.26767033338546753 0.4281848669052124
0.6289293169975281 0.2058594524860382 0.5005255341529846
0.696175754070282 0.23409835994243622 0.4041660726070404
0.7517134547233582 0.30874595046043396 0.3837086856365204
0.7831324338912964 0.14045725762844086 0.40363559126853943
0.7319183945655823 0.22467568516731262 0.5623965263366699
0.6798105239868164 0.30673766136169434 0.3378171920776367
0.6595766544342041 0.20018845796585083 0.4461926221847534
0.6825944781303406 0.2553236782550812 0.5196770429611206
0.6868491768836975 0.2525542974472046 0.4636034071445465
0.6292298436164856 0.18439078330993652 0.37581631541252136
0.6325241923332214 0.20113515853881836 0.4175800085067749
0.7606189846992493 0.23556795716285706 0.44698962569236755
0.7748379111289978 0.2723860740661621 0.44479265809059143
0.7954057455062866 0.1710885912179947 0.47120973467826843
0.6456473469734192 0.1728857010602951 0.3653859496116638
0.682012140750885 0.3002195358276367 0.3259526789188385
0.6452259421348572 0.23592519760131836 0.527015209197998
0.7486715912818909 0.2743299603462219 0.4412231743335724
0.6311406493186951 0.34391507506370544 0.4496766924858093
0.773762047290802 0.1373751014471054 0.4429074227809906
0.748551607131958 0.3138081431388855 0.36289164423942566
0.7290928959846497 0.3034055829048157 0.37839406728744507
0.7636093497276306 0.14779721200466156 0.4589341878890991
0.6406992077827454 0.3244144320487976 0.425471693277359
0.7114586234092712 0.2530151307582855 0.34479278326034546
0.632792592048645 0.16220885515213013 0.5133472681045532
0.7308841943740845 0.23325441777706146 0.4640216827392578
0.6884285807609558 0.13643792271614075 0.3573305904865265
0.728602945804596 0.254565954208374 0.5210604071617126
0.7238683104515076 0.21161003410816193 0.5523889064788818
0.7612834572792053 0.28749746084213257 0.4702889621257782
0.6998656392097473 0.2866245210170746 0.4478071630001068
0.6813125610351562 0.2349599003791809 0.3248760402202606
0.7081480622291565 0.27416837215423584 0.4981597661972046
0.7296776175498962 0.2508307099342346 0.38646936416625977
0.7854121327400208 0.21871908009052277 0.3931518793106079
0.6927348375320435 0.3358006179332733 0.4657514691352844
0.6459550857543945 0.21231546998023987 0.3516308069229126
0.7736001014709473 0.2510497272014618 0.4635547697544098
0.7283427715301514 0.26926758885383606 0.5482180714607239
0.8190796971321106 0.29337143898010254 0.37790340185165405
0.6286365985870361 0.2573693096637726 0.4368234872817993
0.7952169179916382 0.22724419832229614 0.43563973903656006
0.6013607978820801 0.2710109055042267 0.4923218786716461
0.7359434366226196 0.27360081672668457 0.5330276489257812
0.6915028095245361 0.2623007595539093 0.37054064869880676
0.640937328338623 0.22790095210075378 0.48053720593452454
0.7711993455886841 0.16756369173526764 0.5003202557563782
0.7503208518028259 0.27696138620376587 0.4531635046005249
0.6094725131988525 0.3090337812900543 0.4344879984855652
0.6371913552284241 0.3140236437320709 0.4010980725288391
0.7212693095207214 0.25362300872802734 0.45876917243003845
0.7712782025337219 0.16757430136203766 0.4347204566001892
0.6869829297065735 0.2768808603286743 0.4590466022491455
0.7559387683868408 0.24697424471378326 0.37073686718940735
0.6821340918540955 0.209258034825325 0.4657335579395294
0.8208224773406982 0.23804926872253418 0.4083757698535919
0.6922153234481812 0.1629491001367569 0.5009768605232239
0.7437074184417725 0.21633721888065338 0.5079184174537659
0.6593028903007507 0.2877297103404999 0.43709537386894226
0.6101147532463074 0.17608165740966797 0.42080751061439514
0.7774162888526917 0.28097787499427795 0.36062315106391907
0.6375443935394287 0.256413996219635 0.504247784614563
0.7299069166183472 0.16603083908557892 0.5213912129402161
0.6191754341125488 0.17424242198467255 0.42244744300842285
0.6757679581642151 0.2695528566837311 0.34711581468582153
0.7748379111289978 0.2723860740661621 0.44479265809059143
0.6640275716781616 0.20521380007266998 0.4463702142238617
0.7735445499420166 0.20008645951747894 0.39725619554519653
0.6247157454490662 0.32925936579704285 0.4206151068210602
0.714343786239624 0.1328146606683731 0.4394015669822693
0.6301543712615967 0.1745377779006958 0.3786185085773468
0.6608928442001343 0.3072379529476166 0.49881672859191895
0.8198810815811157 0.19728215038776398 0.4124058187007904
0.6153088212013245 0.3480405807495117 0.45566433668136597
0.6592706441879272 0.2557435929775238 0.3451881408691406
0.7294390797615051 0.24982920289039612 0.5205269455909729
0.6630508303642273 0.1526244729757309 0.3724712133407593
0.7154236435890198 0.3179514408111572 0.4415617883205414
0.7154236435890198 0.3179514408111572 0.4415617883205414
0.6826767325401306 0.319018691778183 0.49328258633613586
0.7942401766777039 0.23406913876533508 0.43708300590515137
0.7457777261734009 0.21962153911590576 0.3802967965602875
0.6292597055435181 0.16412632167339325 0.44714799523353577
0.7035953998565674 0.17188243567943573 0.4697413146495819
0.6304277777671814 0.16992896795272827 0.4764774739742279
0.6359230875968933 0.1849822700023651 0.35268434882164
0.8004891872406006 0.21086889505386353 0.43597912788391113
0.6384872198104858 0.320549339056015 0.36500540375709534
0.7486104965209961 0.3260441720485687 0.4420832693576813
0.6225312352180481 0.21613503992557526 0.5094397068023682
0.6200530529022217 0.3167695999145508 0.4358917474746704
0.678700864315033 0.3019545078277588 0.36359909176826477
0.7070829272270203 0.26315757632255554 0.412791907787323
0.7496617436408997 0.28331851959228516 0.4833984673023224
0.7370638251304626 0.3413988947868347 0.48386910557746887
0.6819992065429688 0.2286527156829834 0.39240631461143494
0.7173736095428467 0.25550347566604614 0.559319794178009
0.8064085841178894 0.2216392606496811 0.39648565649986267
0.8198810815811157 0.19728215038776398 0.4124058187007904
0.6153088212013245 0.3480405807495117 0.45566433668136597
0.6592706441879272 0.2557435929775238 0.3451881408691406
0.7294390797615051 0.24982920289039612 0.5205269455909729
0.6630508303642273 0.1526244729757309 0.3724712133407593
0.7154236435890198 0.3179514408111572 0.4415617883205414
0.7597099542617798 0.29262229800224304 0.512149453163147
0.696435809135437 0.22693324089050293 0.4767434298992157
0.7139899730682373 0.3249799311161041 0.4686276316642761
0.6699504256248474 0.27720871567726135 0.3924836218357086
0.6578868627548218 0.28615978360176086 0.5136569738388062
0.7206591367721558 0.1896507292985916 0.5009635090827942
0.7371731400489807 0.25250011682510376 0.4829670488834381
0.5978435277938843 0.16959641873836517 0.46861937642097473
0.7496617436408997 0.28331851959228516 0.4833984673023224
0.7370638251304626 0.3413988947868347 0.48386910557746887
0.6795219779014587 0.2435428351163864 0.3899160325527191
0.7854121327400208 0.21871908009052277 0.3931518793106079
0.6927348375320435 0.3358006179332733 0.4657514691352844
0.6459550857543945 0.21231546998023987 0.3516308069229126
0.7736001014709473 0.2510497272014618 0.4635547697544098
0.7283427715301514 0.26926758885383606 0.5482180714607239
0.8190796971321106 0.29337143898010254 0.37790340185165405
0.6286365985870361 0.2573693096637726 0.4368234872817993
0.7952169179916382 0.22724419832229614 0.43563973903656006
0.6013607978820801 0.2710109055042267 0.4923218786716461
0.7359434366226196 0.27360081672668457 0.5330276489257812
0.6915028095245361 0.2623007595539093 0.37054064869880676
0.640937328338623 0.22790095210075378 0.48053720593452454
0.7711993455886841 0.16756369173526764 0.5003202557563782
0.7503208518028259 0.27696138620376587 0.4531635046005249
0.6493121385574341 0.1511698067188263 0.3956770598888397
0.7238683104515076 0.21161003410816193 0.5523889064788818
0.7612834572792053 0.28749746084213257 0.4702889621257782
0.6998656392097473 0.2866245210170746 0.4478071630001068
0.6813125610351562 0.2349599003791809 0.3248760402202606
0.6750752925872803 0.1659519076347351 0.4814574420452118
0.7436708211898804 0.2854098379611969 0.43363070487976074
0.7088955044746399 0.21506401896476746 0.3871246874332428
0.642472505569458 0.16908739507198334 0.383849173784256
0.6086131930351257 0.2695651352405548 0.4561372995376587
0.621224582195282 0.1436985582113266 0.4462418854236603
0.6232951283454895 0.2067335844039917 0.4001322090625763
0.7562054395675659 0.24554112553596497 0.4743613004684448
0.7774415016174316 0.19100093841552734 0.41352757811546326
0.7963182926177979 0.22388090193271637 0.462548166513443
0.5927426218986511 0.20876197516918182 0.4620119333267212
0.6924923062324524 0.2115066945552826 0.366207093000412
0.6201650500297546 0.19225959479808807 0.4590805470943451
0.6288534998893738 0.21706947684288025 0.48448801040649414
0.707038938999176 0.2093338519334793 0.38894107937812805
0.6253945231437683 0.32671356201171875 0.4462588131427765
0.6521563529968262 0.1854579895734787 0.363106369972229
0.7539460062980652 0.20024344325065613 0.5451564788818359
0.582245409488678 0.314488023519516 0.47215816378593445
0.731240451335907 0.1710452437400818 0.5620843768119812
0.8028560280799866 0.19654715061187744 0.45370420813560486
0.6702790260314941 0.23253300786018372 0.439048171043396
0.6684951186180115 0.2954042851924896 0.3424329459667206
0.6300094723701477 0.26006776094436646 0.5153146982192993
0.6243704557418823 0.2070944458246231 0.495927095413208
0.6690301299095154 0.17145033180713654 0.36553215980529785
0.7873445153236389 0.2383193075656891 0.48467957973480225
0.8131780624389648 0.16764391958713531 0.4276954233646393
0.6640275716781616 0.20521380007266998 0.4463702142238617
0.7735445499420166 0.20008645951747894 0.39725619554519653
0.627530038356781 0.3200894594192505 0.4318700432777405
0.7235179543495178 0.13979756832122803 0.3975125551223755
0.6608928442001343 0.3072379529476166 0.49881672859191895
0.8198810815811157 0.19728215038776398 0.4124058187007904
0.6153088212013245 0.3480405807495117 0.45566433668136597
0.7403449416160583 0.2588258683681488 0.5491687059402466
0.5944019556045532 0.1549491286277771 0.4650096297264099
0.5776594877243042 0.3040216267108917 0.4680289924144745
0.6555104851722717 0.24019549787044525 0.365935355424881
0.7122288942337036 0.23587308824062347 0.36345937848091125
0.6468945741653442 0.30129823088645935 0.3396272659301758
0.6304277777671814 0.16992896795272827 0.4764774739742279
0.6522345542907715 0.2683022618293762 0.5025036931037903
0.6295595169067383 0.19599294662475586 0.4684350788593292
0.7371731400489807 0.25250011682510376 0.4829670488834381
0.5978435277938843 0.16959641873836517 0.46861937642097473
0.7496617436408997 0.28331851959228516 0.4833984673023224
0.7370638251304626 0.3413988947868347 0.48386910557746887
0.6795219779014587 0.2435428351163864 0.3899160325527191
0.7854121327400208 0.21871908009052277 0.3931518793106079
0.6927348375320435 0.3358006179332733 0.4657514691352844
0.6459550857543945 0.21231546998023987 0.3516308069229126
0.7736001014709473 0.2510497272014618 0.4635547697544098
0.7283427715301514 0.26926758885383606 0.5482180714607239
0.8190796971321106 0.29337143898010254 0.37790340185165405
0.6404064297676086 0.33373576402664185 0.4660249948501587
0.6745142340660095 0.31893086433410645 0.510197103023529
0.7900002598762512 0.304314523935318 0.3852425515651703
0.7007722854614258 0.1971735954284668 0.49715957045555115
0.7322306632995605 0.331069678068161 0.5187695622444153
0.7711993455886841 0.16756369173526764 0.5003202557563782
0.7503208518028259 0.27696138620376587 0.4531635046005249
0.6915028095245361 0.2623007595539093 0.37054064869880676
0.640937328338623 0.22790095210075378 0.48053720593452454
0.7711993455886841 0.16756369173526764 0.5003202557563782
0.640937328338623 0.22790095210075378 0.48053720593452454
0.7711993455886841 0.16756369173526764 0.5003202557563782
0.7503208518028259 0.27696138620376587 0.4531635046005249
0.7503208518028259 0.27696138620376587 0.4531635046005249
0.6094725131988525 0.3090337812900543 0.4344879984855652
0.6371913552284241 0.3140236437320709 0.4010980725288391
0.7212693095207214 0.25362300872802734 0.45876917243003845
0.7212693095207214 0.25362300872802734 0.45876917243003845
0.7712782025337219 0.16757430136203766 0.4347204566001892
0.6869829297065735 0.2768808603286743 0.4590466022491455
0.6593028903007507 0.2877297103404999 0.43709537386894226
0.6101147532463074 0.17608165740966797 0.42080751061439514
0.7879500389099121 0.18842852115631104 0.4149684011936188
0.7539690136909485 0.29339009523391724 0.48975127935409546
0.7380031943321228 0.12671665847301483 0.4286194145679474
0.7585672736167908 0.3296148180961609 0.504796028137207
0.639197826385498 0.32133615016937256 0.44911977648735046
0.7721686959266663 0.2840516269207001 0.42411884665489197
0.6387110948562622 0.26779937744140625 0.3517972528934479
0.704772412776947 0.1558934599161148 0.4676101505756378
0.8047934174537659 0.14779503643512726 0.42239949107170105
0.7746198177337646 0.1478152871131897 0.4416681230068207
0.7268233299255371 0.16224180161952972 0.4911600649356842
0.7832605838775635 0.2408558875322342 0.48371657729148865
0.7421544790267944 0.2562040388584137 0.4269971549510956
0.6261072754859924 0.2763262093067169 0.4701734781265259
0.7322770357131958 0.3034619987010956 0.3715607523918152
0.7212693095207214 0.25362300872802734 0.45876917243003845
0.7712782025337219 0.16757430136203766 0.4347204566001892
0.6869829297065735 0.2768808603286743 0.4590466022491455
0.7559387683868408 0.24697424471378326 0.37073686718940735
0.6821340918540955 0.209258034825325 0.4657335579395294
0.8208224773406982 0.23804926872253418 0.4083757698535919
0.6922153234481812 0.1629491001367569 0.5009768605232239
0.7437074184417725 0.21633721888065338 0.5079184174537659
0.6593028903007507 0.2877297103404999 0.43709537386894226
0.6101147532463074 0.17608165740966797 0.42080751061439514
0.7774162888526917 0.28097787499427795 0.36062315106391907
0.6375443935394287 0.256413996219635 0.504247784614563
0.7299069166183472 0.16603083908557892 0.5213912129402161
0.6191754341125488 0.17424242198467255 0.42244744300842285
0.6757679581642151 0.2695528566837311 0.34711581468582153
0.6683812141418457 0.17640167474746704 0.3902943432331085
0.7241345047950745 0.18637369573116302 0.5645244717597961
0.7421544790267944 0.2562040388584137 0.4269971549510956
0.6261072754859924 0.2763262093067169 0.4701734781265259
0.7969869375228882 0.20080122351646423 0.43493854999542236
0.6541645526885986 0.2052934169769287 0.5233792662620544
0.7754718661308289 0.3279677629470825 0.42650455236434937
0.7036476135253906 0.30199846625328064 0.36417156457901
0.7332872748374939 0.1895807534456253 0.4239855706691742
0.7805431485176086 0.32397422194480896 0.4775119423866272
0.7737210392951965 0.2159576565027237 0.41768375039100647
0.6873778700828552 0.17431116104125977 0.46421337127685547
0.6756478548049927 0.24255897104740143 0.3626837432384491
0.6204608082771301 0.2170022875070572 0.4743560254573822
0.6022515296936035 0.25133636593818665 0.46145835518836975
0.5933577418327332 0.34191545844078064 0.4393760561943054
0.7291615605354309 0.2393154501914978 0.422816663980484
0.6489628553390503 0.1734093427658081 0.5021565556526184
0.6540217995643616 0.297708660364151 0.4446428418159485
0.7212693095207214 0.25362300872802734 0.45876917243003845
0.7712782025337219 0.16757430136203766 0.4347204566001892
0.6869829297065735 0.2768808603286743 0.4590466022491455
0.7559387683868408 0.24697424471378326 0.37073686718940735
0.6821340918540955 0.209258034825325 0.4657335579395294
0.8208224773406982 0.23804926872253418 0.4083757698535919
0.6922153234481812 0.1629491001367569 0.5009768605232239
0.7437074184417725 0.21633721888065338 0.5079184174537659
0.6988437175750732 0.264566034078598 0.35958123207092285
0.6951753497123718 0.1901976764202118 0.463042676448822
0.6185949444770813 0.31536242365837097 0.42536479234695435
0.6391791701316833 0.20112448930740356 0.3510145843029022
0.7579436898231506 0.27845051884651184 0.46044036746025085
0.619254469871521 0.32202064990997314 0.37929514050483704
0.66863614320755 0.16109713912010193 0.3562797009944916
0.710065484046936 0.33991187810897827 0.4666973352432251
0.6469824910163879 0.28953489661216736 0.33797886967658997
0.6994722485542297 0.27900588512420654 0.4576033353805542
0.6516497731208801 0.18980000913143158 0.32263079285621643
0.7776679992675781 0.3395020365715027 0.4916655421257019
0.595910370349884 0.2760636806488037 0.4925667941570282
0.7418833374977112 0.31600069999694824 0.36544203758239746
0.5840649604797363 0.1790703535079956 0.49610620737075806
0.6627171039581299 0.19016724824905396 0.5419620275497437
0.6747719645500183 0.3074291944503784 0.4557400345802307
0.6471600532531738 0.2525356709957123 0.3448937237262726
0.6775765419006348 0.21193979680538177 0.5118615627288818
0.6409109830856323 0.20588095486164093 0.44444748759269714
0.7102237343788147 0.2092246115207672 0.4302555322647095
0.7774550914764404 0.3209741711616516 0.4361540675163269
0.6914602518081665 0.2035294622182846 0.4820765554904938
0.6290831565856934 0.14615638554096222 0.39444977045059204
0.7688026428222656 0.19262126088142395 0.4173334240913391
0.7250785827636719 0.1421385407447815 0.4247310161590576
0.7840851545333862 0.20181801915168762 0.48652228713035583
0.680600643157959 0.25162386894226074 0.47615551948547363
0.6672912240028381 0.2707623839378357 0.4544377326965332
0.6047052145004272 0.28796181082725525 0.4816700220108032
0.7881306409835815 0.19153109192848206 0.4398210048675537
0.6344444155693054 0.2734594941139221 0.46926814317703247
0.6665804982185364 0.26598408818244934 0.5210427045822144
0.6520218253135681 0.14110812544822693 0.33386942744255066
0.7534182071685791 0.21664589643478394 0.5388717651367188
0.7796689867973328 0.29335981607437134 0.40358617901802063
0.626680850982666 0.16795389354228973 0.5174177885055542
0.7687456011772156 0.23877954483032227 0.407968670129776
0.7618573904037476 0.20467959344387054 0.4126916229724884
0.7093464732170105 0.2081097960472107 0.5546048283576965
0.6563511490821838 0.30339786410331726 0.31389951705932617
0.7296062707901001 0.2836451828479767 0.48539817333221436
0.7103082537651062 0.2130206823348999 0.4015827476978302
0.6284351944923401 0.27928876876831055 0.45559558272361755
0.749519407749176 0.29761192202568054 0.36216405034065247
0.765540361404419 0.28893348574638367 0.39301854372024536
0.643876314163208 0.13640636205673218 0.41905954480171204
0.6353428959846497 0.14645105600357056 0.4162539541721344
0.7352609038352966 0.22511011362075806 0.3691081702709198
0.7437498569488525 0.29050588607788086 0.4970928132534027
0.7469031810760498 0.2722680866718292 0.44995880126953125
0.7238683104515076 0.21161003410816193 0.5523889064788818
0.7612834572792053 0.28749746084213257 0.4702889621257782
0.6289293169975281 0.2058594524860382 0.5005255341529846
0.640937328338623 0.22790095210075378 0.48053720593452454
0.7711993455886841 0.16756369173526764 0.5003202557563782
0.7503208518028259 0.27696138620376587 0.4531635046005249
0.6094725131988525 0.3090337812900543 0.4344879984855652
0.6371913552284241 0.3140236437320709 0.4010980725288391
0.7212693095207214 0.25362300872802734 0.45876917243003845
0.7712782025337219 0.16757430136203766 0.4347204566001892
0.6869829297065735 0.2768808603286743 0.4590466022491455
0.7559387683868408 0.24697424471378326 0.37073686718940735
0.6821340918540955 0.209258034825325 0.4657335579395294
0.8208224773406982 0.23804926872253418 0.4083757698535919
0.6922153234481812 0.1629491001367569 0.5009768605232239
0.7437074184417725 0.21633721888065338 0.5079184174537659
0.6593028903007507 0.2877297103404999 0.43709537386894226
0.6101147532463074 0.17608165740966797 0.42080751061439514
0.7774162888526917 0.28097787499427795 0.36062315106391907
0.6375443935394287 0.256413996219635 0.504247784614563
0.7299069166183472 0.16603083908557892 0.5213912129402161
0.6191754341125488 0.17424242198467255 0.42244744300842285
0.6757679581642151 0.2695528566837311 0.34711581468582153
0.6683812141418457 0.17640167474746704 0.3902943432331085
0.7241345047950745 0.18637369573116302 0.5645244717597961
0.7421544790267944 0.2562040388584137 0.4269971549510956
0.6261072754859924 0.2763262093067169 0.4701734781265259
0.7969869375228882 0.20080122351646423 0.43493854999542236
0.6541645526885986 0.2052934169769287 0.5233792662620544
0.7754718661308289 0.3279677629470825 0.42650455236434937
0.7036476135253906 0.30199846625328064 0.36417156457901
0.7332872748374939 0.1895807534456253 0.4239855706691742
0.8193904161453247 0.19924518465995789 0.4207303524017334
0.6787453889846802 0.1304410696029663 0.3889663815498352
0.6601771712303162 0.30462485551834106 0.3552189767360687
0.697267472743988 0.19484753906726837 0.5450466871261597
0.803057074546814 0.207506462931633 0.40028852224349976
0.7815183401107788 0.209293395280838 0.4065062403678894
0.6573771834373474 0.28232553601264954 0.37148889899253845
0.6649814248085022 0.1326330006122589 0.38488760590553284
0.6767137050628662 0.28171640634536743 0.3564731478691101
0.7884951829910278 0.3115929663181305 0.4386817514896393
0.7334262728691101 0.25081363320350647 0.47611063718795776
0.6885011196136475 0.3115692436695099 0.5086663365364075
0.6792304515838623 0.1989108920097351 0.33737051486968994
0.6498827934265137 0.1196151077747345 0.3498900234699249
0.761811375617981 0.2335590422153473 0.42102837562561035
0.768833577632904 0.18627698719501495 0.4847257435321808
0.7570685148239136 0.2010621577501297 0.4398329555988312
0.6960346102714539 0.1805945783853531 0.4381349980831146
0.6789470314979553 0.32358425855636597 0.5154532194137573
0.806775689125061 0.1227167472243309 0.4224604070186615
0.6582621932029724 0.2959256172180176 0.49228164553642273
0.7299010753631592 0.29344359040260315 0.3573635518550873
0.7238683104515076 0.21161003410816193 0.5523889064788818
0.7496617436408997 0.28331851959228516 0.4833984673023224
0.7370638251304626 0.3413988947868347 0.48386910557746887
0.6795219779014587 0.2435428351163864 0.3899160325527191
0.7854121327400208 0.21871908009052277 0.3931518793106079
0.6927348375320435 0.3358006179332733 0.4657514691352844
0.6459550857543945 0.21231546998023987 0.3516308069229126
0.7736001014709473 0.2510497272014618 0.4635547697544098
0.7283427715301514 0.26926758885383606 0.5482180714607239
0.8190796971321106 0.29337143898010254 0.37790340185165405
0.6286365985870361 0.2573693096637726 0.4368234872817993
0.7952169179916382 0.22724419832229614 0.43563973903656006
0.6813125610351562 0.2349599003791809 0.3248760402202606
0.7952169179916382 0.22724419832229614 0.43563973903656006
0.6013607978820801 0.2710109055042267 0.4923218786716461
0.7359434366226196 0.27360081672668457 0.5330276489257812
0.6915028095245361 0.2623007595539093 0.37054064869880676
0.640937328338623 0.22790095210075378 0.48053720593452454
0.7711993455886841 0.16756369173526764 0.5003202557563782
0.7503208518028259 0.27696138620376587 0.4531635046005249
0.6094725131988525 0.3090337812900543 0.4344879984855652
0.6371913552284241 0.3140236437320709 0.4010980725288391
0.7212693095207214 0.25362300872802734 0.45876917243003845
0.6931770443916321 0.2457089126110077 0.44753456115722656
0.7553604245185852 0.2820667028427124 0.49005165696144104
0.7336840033531189 0.3292640745639801 0.473049521446228
0.7212159633636475 0.22756816446781158 0.5288910865783691
0.6956478953361511 0.20561160147190094 0.45971715450286865
0.6996399164199829 0.252983033657074 0.4325641095638275
0.6791018843650818 0.2665811777114868 0.4894018769264221
0.6174963116645813 0.23773093521595 0.3946211636066437
0.7096291184425354 0.21169781684875488 0.46900543570518494
0.7358171343803406 0.3071121573448181 0.3871111273765564
0.7132384777069092 0.14031216502189636 0.39469441771507263
0.7402289509773254 0.21622422337532043 0.536674976348877
0.6630842685699463 0.1432800143957138 0.3818260133266449
0.7040672898292542 0.15196053683757782 0.4570104777812958
0.7977723479270935 0.15940654277801514 0.4270400404930115
0.6692363619804382 0.13520433008670807 0.39008307456970215
0.7250943183898926 0.3451842963695526 0.4707634150981903
0.6175673007965088 0.2825832962989807 0.40261900424957275
0.7218920588493347 0.19484387338161469 0.4422798156738281
0.7392836213111877 0.31288430094718933 0.47569143772125244
0.7130622863769531 0.1655067652463913 0.3592802584171295
0.771764874458313 0.29756733775138855 0.4118560552597046
0.7212693095207214 0.25362300872802734 0.45876917243003845
0.6931770443916321 0.2457089126110077 0.44753456115722656
0.7464057207107544 0.24625249207019806 0.4736096262931824
0.7817654013633728 0.1593879610300064 0.4679986834526062
0.7555265426635742 0.22855819761753082 0.44282814860343933
0.6999157071113586 0.29106780886650085 0.5054381489753723
0.6664551496505737 0.29429200291633606 0.4148857593536377
0.6463575959205627 0.1644003838300705 0.45177677273750305
0.7344902753829956 0.19432128965854645 0.464101642370224
0.7028260231018066 0.23438747227191925 0.4002653956413269
0.6681205630302429 0.2483430951833725 0.3419012427330017
0.7717036604881287 0.25269079208374023 0.3692556917667389
0.6568396687507629 0.307693213224411 0.35623040795326233
0.6968048810958862 0.3180280327796936 0.47636377811431885
0.7370571494102478 0.17104795575141907 0.39028581976890564
0.7140454649925232 0.20380961894989014 0.5760967135429382
0.7205930352210999 0.3054977357387543 0.4379374086856842
0.6433056592941284 0.24315014481544495 0.3394375145435333
0.6306074261665344 0.23658840358257294 0.4006980359554291
0.7094442844390869 0.2491300404071808 0.4408119320869446
0.7139936685562134 0.22879283130168915 0.4348595440387726
0.6685038805007935 0.2826114892959595 0.4547642469406128
0.6475478410720825 0.32696959376335144 0.4007631540298462
0.7538175582885742 0.32444071769714355 0.48133420944213867
0.600307047367096 0.17116190493106842 0.42982521653175354
0.717465341091156 0.3454059958457947 0.504176914691925
0.6539850234985352 0.13712838292121887 0.3992493450641632
0.6889934539794922 0.18071074783802032 0.4212460219860077
0.72162926197052 0.31983518600463867 0.4802646338939667
0.6593783497810364 0.2624087333679199 0.47576576471328735
