ply
format ascii 1.0
element vertex 829
property float x
property float y
property float z
end_header
0.8059535026550293 0.3205930292606354 0.3630095422267914
0.5994239449501038 0.17665153741836548 0.45345136523246765
0.6402067542076111 0.2660307288169861 0.48528802394866943
0.7161284685134888 0.23968641459941864 0.34126928448677063
0.7230657935142517 0.26465126872062683 0.45663028955459595
0.6115694642066956 0.18204714357852936 0.4862469732761383
0.7211810350418091 0.30601605772972107 0.3628491461277008
0.7224549055099487 0.35319727659225464 0.49103355407714844
0.6195076107978821 0.20740412175655365 0.47774457931518555
0.7233021855354309 0.35451334714889526 0.5164997577667236
0.653620719909668 0.33072155714035034 0.4866843819618225
0.597554087638855 0.18782779574394226 0.4398137927055359
0.7735311985015869 0.2657721936702728 0.4970724284648895
0.5775601863861084 0.31933069229125977 0.4424419105052948
0.7178186178207397 0.2565698027610779 0.37721946835517883
0.6910752654075623 0.28890401124954224 0.45897457003593445
0.6301813721656799 0.2278665006160736 0.4461360573768616
0.6143664717674255 0.3218705654144287 0.4257905185222626
0.6511677503585815 0.18931944668293 0.45773789286613464
0.6908523440361023 0.3054516911506653 0.4844934940338135
0.5898626446723938 0.3510691523551941 0.44562339782714844
0.6662865281105042 0.19456590712070465 0.5040236711502075
0.7157374024391174 0.27647969126701355 0.4873267412185669
0.7256536483764648 0.20753313601016998 0.5777974724769592
0.6192674040794373 0.20562013983726501 0.5114964842796326
0.6384496092796326 0.18031738698482513 0.5134834051132202
0.7664775848388672 0.2742998003959656 0.4170064628124237
0.7883321642875671 0.27370914816856384 0.4656483232975006
0.5883471965789795 0.17573127150535583 0.47192394733428955
0.7034817337989807 0.23220734298229218 0.472307413816452
0.6582299470901489 0.3015928864479065 0.36518290638923645
0.6505036950111389 0.22778022289276123 0.4802435040473938
0.7558801174163818 0.33244532346725464 0.5028845071792603
0.6938233971595764 0.29421716928482056 0.42638882994651794
0.7827351093292236 0.28300541639328003 0.39171549677848816
0.786381721496582 0.27861276268959045 0.42688584327697754
0.724414587020874 0.17986102402210236 0.4335591495037079
0.7646883130073547 0.2993306517601013 0.475419282913208
0.6147315502166748 0.33066192269325256 0.417164146900177
0.7735311985015869 0.2657721936702728 0.4970724284648895
0.5775601863861084 0.31933069229125977 0.4424419105052948
0.7178186178207397 0.2565698027610779 0.37721946835517883
0.6910752654075623 0.28890401124954224 0.45897457003593445
0.6301813721656799 0.2278665006160736 0.4461360573768616
0.6143664717674255 0.3218705654144287 0.4257905185222626
0.6511677503585815 0.18931944668293 0.45773789286613464
0.7377393841743469 0.3266586661338806 0.46263715624809265
0.6662865281105042 0.19456590712070465 0.5040236711502075
0.7157374024391174 0.27647969126701355 0.4873267412185669
0.7256536483764648 0.20753313601016998 0.5777974724769592
0.6192674040794373 0.20562013983726501 0.5114964842796326
0.7187338471412659 0.2980790436267853 0.5239133834838867
0.753527820110321 0.2492026686668396 0.4569880962371826
0.716213047504425 0.2721632421016693 0.45310738682746887
0.6999867558479309 0.17572681605815887 0.45271942019462585
0.7061536312103271 0.22582955658435822 0.4875631034374237
0.6582299470901489 0.3015928864479065 0.36518290638923645
0.6505036950111389 0.22778022289276123 0.4802435040473938
0.7558801174163818 0.33244532346725464 0.5028845071792603
0.6938233971595764 0.29421716928482056 0.42638882994651794
0.7827351093292236 0.28300541639328003 0.39171549677848816
0.786381721496582 0.27861276268959045 0.42688584327697754
0.8018916845321655 0.1840776950120926 0.4301455318927765
0.6372582912445068 0.2858923077583313 0.41431865096092224
0.7977150678634644 0.2777845561504364 0.4201849102973938
0.7252704501152039 0.17833393812179565 0.43609362840652466
0.7443544268608093 0.2465689331293106 0.5178658962249756
0.6145206689834595 0.21413734555244446 0.4331884980201721
0.7823642492294312 0.2802909314632416 0.4809575080871582
0.578940212726593 0.23347851634025574 0.46574145555496216
0.7960595488548279 0.14502651989459991 0.4672923982143402
0.5646109580993652 0.2623879015445709 0.48354166746139526
0.7653243541717529 0.2733110785484314 0.503689169883728
0.7072146534919739 0.29215100407600403 0.4866212010383606
0.8055776953697205 0.24218326807022095 0.38274723291397095
0.6393316388130188 0.2413269281387329 0.4233744442462921
0.743070662021637 0.20650002360343933 0.423877090215683
0.5912996530532837 0.2515888512134552 0.45820990204811096
0.5971694588661194 0.1681680679321289 0.5057370066642761
0.6787903904914856 0.2004513442516327 0.5144597291946411
0.7593703866004944 0.31805598735809326 0.5098921060562134
0.7133961915969849 0.23356495797634125 0.3552801311016083
0.7052040100097656 0.2788655757904053 0.4912804067134857
0.7244172096252441 0.15990734100341797 0.4076693654060364
0.6689846515655518 0.2531474232673645 0.37319624423980713
0.6140825748443604 0.32877209782600403 0.37130114436149597
0.785312294960022 0.2504955232143402 0.41631877422332764
0.6882824301719666 0.16568657755851746 0.44960346817970276
0.6726526021957397 0.34182581305503845 0.47561755776405334
0.6761464476585388 0.25209563970565796 0.39863094687461853
0.6720067262649536 0.2469952255487442 0.45062875747680664
0.6811415553092957 0.2594165802001953 0.543822169303894
0.6568486094474792 0.21289010345935822 0.4518220126628876
0.7790393233299255 0.26205381751060486 0.48690080642700195
0.7091386318206787 0.31417059898376465 0.4524186849594116
0.7776559591293335 0.24132977426052094 0.4359920024871826
0.694511890411377 0.2033442109823227 0.359504371881485
0.7610607743263245 0.2584072947502136 0.45818403363227844
0.6447962522506714 0.318462073802948 0.4904918372631073
0.7267147302627563 0.30841779708862305 0.33603209257125854
0.6514337062835693 0.19176258146762848 0.45139995217323303
0.6721994280815125 0.31632673740386963 0.3559150695800781
0.7359644174575806 0.20018047094345093 0.44802048802375793
0.717101514339447 0.16239295899868011 0.5122039914131165
0.7694888710975647 0.3127487301826477 0.43222320079803467
0.7782801389694214 0.16526253521442413 0.5125812888145447
0.6407504081726074 0.26000234484672546 0.4306107759475708
0.7224891185760498 0.23723194003105164 0.35106804966926575
0.7523548603057861 0.21339811384677887 0.5237283110618591
0.7528291940689087 0.2266446202993393 0.4641704559326172
0.7024835348129272 0.3005512058734894 0.4578169286251068
0.7129805684089661 0.15294457972049713 0.4734678566455841
0.7509785890579224 0.3159651756286621 0.46029016375541687
0.6312459111213684 0.19954532384872437 0.5120420455932617
0.7419471144676208 0.2559650242328644 0.3598831593990326
0.6475780606269836 0.2730630934238434 0.3145970106124878
0.6892784237861633 0.23548871278762817 0.5230197310447693
0.7391564846038818 0.3389511704444885 0.520638108253479
0.6246563196182251 0.18768727779388428 0.4657846987247467
0.6952636241912842 0.22677800059318542 0.46100088953971863
0.7632900476455688 0.1588144302368164 0.4574207365512848
0.6802266836166382 0.26533132791519165 0.4996735453605652
0.6494178771972656 0.12861603498458862 0.398280531167984
0.616216242313385 0.21203772723674774 0.4112839102745056
0.7960595488548279 0.14502651989459991 0.4672923982143402
0.6160424947738647 0.22378553450107574 0.3864310681819916
0.6662527918815613 0.2124493420124054 0.41824060678482056
0.6646199226379395 0.29831841588020325 0.4462762475013733
0.7207237482070923 0.1551779806613922 0.485929012298584
0.7809704542160034 0.2778172194957733 0.4680517017841339
0.7325279116630554 0.17312557995319366 0.5502610206604004
0.6653898358345032 0.28798821568489075 0.3950701355934143
0.7596569657325745 0.1933518350124359 0.5038160085678101
0.673089325428009 0.3456839621067047 0.4532710015773773
0.7049047350883484 0.28458407521247864 0.3834562301635742
0.7098492980003357 0.3221581280231476 0.4920048415660858
0.7653243541717529 0.2733110785484314 0.503689169883728
0.7072146534919739 0.29215100407600403 0.4866212010383606
0.8055776953697205 0.24218326807022095 0.38274723291397095
0.6393316388130188 0.2413269281387329 0.4233744442462921
0.743070662021637 0.20650002360343933 0.423877090215683
0.5912996530532837 0.2515888512134552 0.45820990204811096
0.5971694588661194 0.1681680679321289 0.5057370066642761
0.5882236361503601 0.18370164930820465 0.5108808279037476
0.7052388191223145 0.28413912653923035 0.5395748615264893
0.6320744156837463 0.33107754588127136 0.4219096899032593
0.7863330841064453 0.1922789365053177 0.48129159212112427
0.6976869702339172 0.18090716004371643 0.5230341553688049
0.7122968435287476 0.29368335008621216 0.3968907594680786
0.7260016798973083 0.19638220965862274 0.4119652509689331
0.7252160906791687 0.19100578129291534 0.4668256938457489
0.7828719019889832 0.2191246747970581 0.41352614760398865
0.74244225025177 0.15554451942443848 0.4026731252670288
0.6817983388900757 0.18394525349140167 0.5591827630996704
0.6081047058105469 0.24635572731494904 0.42394739389419556
0.7256841063499451 0.25949767231941223 0.41657915711402893
0.6438974738121033 0.12617860734462738 0.3646884560585022
0.7293611764907837 0.2532656788825989 0.48409974575042725
0.6841269731521606 0.20131196081638336 0.504035234451294
0.6376561522483826 0.20073498785495758 0.41774946451187134
0.7641416192054749 0.3174838423728943 0.3559546172618866
0.625109076499939 0.18276043236255646 0.48336896300315857
0.6349420547485352 0.21325258910655975 0.3404025137424469
0.5885217189788818 0.22380170226097107 0.466386079788208
0.6633068323135376 0.26516613364219666 0.30441799759864807
0.6685589551925659 0.296664834022522 0.31204524636268616
0.7895691394805908 0.158705934882164 0.41967782378196716
0.6842498183250427 0.27797481417655945 0.42418861389160156
0.6260233521461487 0.2825334072113037 0.3592001497745514
0.7104325294494629 0.22959133982658386 0.4228409230709076
0.7653243541717529 0.2733110785484314 0.503689169883728
0.7072146534919739 0.29215100407600403 0.4866212010383606
0.8055776953697205 0.24218326807022095 0.38274723291397095
0.6393316388130188 0.2413269281387329 0.4233744442462921
0.743070662021637 0.20650002360343933 0.423877090215683
0.5912996530532837 0.2515888512134552 0.45820990204811096
0.6162659525871277 0.27720052003860474 0.37159478664398193
0.739418089389801 0.20596881210803986 0.3854377269744873
0.6862300634384155 0.3440612256526947 0.4485223591327667
0.7227005958557129 0.3414304852485657 0.501073956489563
0.6002006530761719 0.32654649019241333 0.467472642660141
0.6585376858711243 0.30199912190437317 0.46140944957733154
0.5662119388580322 0.1799951046705246 0.49673759937286377
0.7829107642173767 0.30678755044937134 0.37377411127090454
0.6694378852844238 0.18415680527687073 0.4279215931892395
0.6660766005516052 0.26405927538871765 0.33329537510871887
0.7057226896286011 0.18102715909481049 0.5271080732345581
0.563293993473053 0.18301060795783997 0.5055249333381653
0.7053752541542053 0.26923882961273193 0.5220924019813538
0.6632130146026611 0.17209994792938232 0.5294612646102905
0.6379569172859192 0.31486138701438904 0.34743818640708923
0.6076327562332153 0.20358575880527496 0.44436758756637573
0.7399091720581055 0.24531610310077667 0.38340091705322266
0.6560343503952026 0.1946483999490738 0.33231794834136963
0.6305818557739258 0.2747054398059845 0.4563101530075073
0.6351909041404724 0.21813295781612396 0.38089945912361145
0.7527725696563721 0.2598036229610443 0.3898564279079437
0.7016803026199341 0.28326961398124695 0.5244368314743042
0.6486666798591614 0.15234918892383575 0.4786415100097656
0.6662865281105042 0.19456590712070465 0.5040236711502075
0.724414587020874 0.17986102402210236 0.4335591495037079
0.6810016632080078 0.32278525829315186 0.5053960084915161
0.7074990272521973 0.1851375848054886 0.35127466917037964
0.785427987575531 0.2926236689090729 0.43736833333969116
0.739521861076355 0.2902597188949585 0.5353663563728333
0.6145206689834595 0.21413734555244446 0.4331884980201721
0.7226652503013611 0.21597237884998322 0.38403311371803284
0.721735417842865 0.30535122752189636 0.43714767694473267
0.7893101572990417 0.22009974718093872 0.4186874032020569
0.6502090692520142 0.24711713194847107 0.49814918637275696
0.7227737903594971 0.31168147921562195 0.35890281200408936
0.7104278802871704 0.23523026704788208 0.39518240094184875
0.7102611064910889 0.24384751915931702 0.34897539019584656
0.649233877658844 0.22126011550426483 0.5270072817802429
0.6042343974113464 0.2139367163181305 0.4536494016647339
0.6604804396629333 0.22029802203178406 0.3690500259399414
0.7799467444419861 0.26516374945640564 0.4272289276123047
0.6389089226722717 0.2144535779953003 0.3353733420372009
0.7287948727607727 0.17185741662979126 0.5468896627426147
0.7849432229995728 0.17176590859889984 0.41436564922332764
0.7146415114402771 0.2902187705039978 0.41565054655075073
0.6266224384307861 0.21525143086910248 0.44915884733200073
0.6451358795166016 0.29862257838249207 0.43838274478912354
0.6470491290092468 0.3348042964935303 0.42799291014671326
0.682602047920227 0.18851447105407715 0.522750735282898
0.6481220722198486 0.2972685396671295 0.32423362135887146
0.675786018371582 0.14578664302825928 0.41224536299705505
0.7543266415596008 0.2794157862663269 0.42016053199768066
0.7331758141517639 0.319480836391449 0.41359615325927734
0.7275371551513672 0.30302706360816956 0.4006921350955963
0.6872652173042297 0.2509016990661621 0.47115662693977356
0.8059535026550293 0.3205930292606354 0.3630095422267914
0.7689653038978577 0.25303569436073303 0.43873947858810425
0.6941350698471069 0.21172407269477844 0.4020231366157532
0.760130763053894 0.3318687677383423 0.40387895703315735
0.5972024202346802 0.29043397307395935 0.47648176550865173
0.6856122612953186 0.1967257559299469 0.3760495185852051
0.6238223910331726 0.2105681598186493 0.42647379636764526
0.7034929394721985 0.2499619871377945 0.5014957785606384
0.6295823454856873 0.1446705162525177 0.3824627697467804
0.638577401638031 0.18032267689704895 0.3494551479816437
0.6998568177223206 0.2116987109184265 0.5079792737960815
0.7086233496665955 0.2876693308353424 0.446276992559433
0.7128826975822449 0.17051176726818085 0.42558562755584717
0.7125242948532104 0.2504158318042755 0.3873213231563568
0.7225640416145325 0.3430100381374359 0.5247898697853088
0.7788935899734497 0.3270788788795471 0.43755531311035156
0.7849432229995728 0.17176590859889984 0.41436564922332764
0.7146415114402771 0.2902187705039978 0.41565054655075073
0.6266224384307861 0.21525143086910248 0.44915884733200073
0.6451358795166016 0.29862257838249207 0.43838274478912354
0.682602047920227 0.18851447105407715 0.522750735282898
0.6481220722198486 0.2972685396671295 0.32423362135887146
0.675786018371582 0.14578664302825928 0.41224536299705505
0.7543266415596008 0.2794157862663269 0.42016053199768066
0.7331758141517639 0.319480836391449 0.41359615325927734
0.7483095526695251 0.2494303435087204 0.4330669045448303
0.7439605593681335 0.25504544377326965 0.5097775459289551
0.6563717126846313 0.20645159482955933 0.4193345308303833
0.695267379283905 0.15793880820274353 0.49521517753601074
0.7399266958236694 0.2875310778617859 0.42434778809547424
0.7117729187011719 0.276007741689682 0.42676159739494324
0.7390866279602051 0.31315383315086365 0.5071676969528198
0.8090153336524963 0.29952436685562134 0.4120752215385437
0.7509655356407166 0.2320564091205597 0.36096590757369995
0.7029531598091125 0.30082979798316956 0.35572507977485657
0.7312800884246826 0.20949508249759674 0.42831936478614807
0.6622303128242493 0.23246213793754578 0.38504040241241455
0.6350829005241394 0.13943612575531006 0.3744032680988312
0.647281289100647 0.24401630461215973 0.3178366422653198
0.7325044870376587 0.24996797740459442 0.5715611577033997
0.6255953907966614 0.23850572109222412 0.4800143241882324
0.6996340155601501 0.35778534412384033 0.5100570917129517
0.7021899819374084 0.25267839431762695 0.3295098841190338
0.6578027606010437 0.24120832979679108 0.5290330052375793
0.6949399709701538 0.3014592230319977 0.39191827178001404
0.7379341721534729 0.3027437627315521 0.4469951391220093
0.6722299456596375 0.18959251046180725 0.4536488652229309
0.7909874320030212 0.3116460144519806 0.38429662585258484
0.7712877988815308 0.34438514709472656 0.46473896503448486
0.590843915939331 0.3364596366882324 0.4709519147872925
0.6722461581230164 0.2921501100063324 0.5126959085464478
0.6144230365753174 0.337677001953125 0.424011766910553
0.6372697949409485 0.28432777523994446 0.4766770303249359
0.6603188514709473 0.2589459717273712 0.3961036205291748
0.7203959822654724 0.22723519802093506 0.5382398366928101
0.7105509638786316 0.26908642053604126 0.4893670380115509
0.618561327457428 0.2509971857070923 0.5058472156524658
0.6339781284332275 0.26383456587791443 0.5029402375221252
0.5926228761672974 0.26733094453811646 0.47506949305534363
0.6124307513237 0.18581469357013702 0.4347028434276581
0.6862300634384155 0.3440612256526947 0.4485223591327667
0.7227005958557129 0.3414304852485657 0.501073956489563
0.6002006530761719 0.32654649019241333 0.467472642660141
0.6585376858711243 0.30199912190437317 0.46140944957733154
0.5971694588661194 0.1681680679321289 0.5057370066642761
0.7799439430236816 0.229658842086792 0.4111333191394806
0.7158241271972656 0.2150399088859558 0.5622616410255432
0.7530397176742554 0.2821757197380066 0.4198947548866272
0.6105872392654419 0.14353309571743011 0.4438577890396118
0.6699206829071045 0.2735312283039093 0.4129263758659363
0.7311739325523376 0.21627332270145416 0.48919007182121277
0.6715641617774963 0.19597524404525757 0.5485923886299133
0.7691236734390259 0.3429204225540161 0.44210144877433777
0.7165659666061401 0.2580074369907379 0.5103683471679688
0.789027988910675 0.16472390294075012 0.41240307688713074
0.6877663135528564 0.2835766673088074 0.4544118344783783
0.6948064565658569 0.1445595771074295 0.3805779814720154
0.7235041856765747 0.25803858041763306 0.49469780921936035
0.6696426272392273 0.14749200642108917 0.46387043595314026
0.6382983326911926 0.13514858484268188 0.37119579315185547
0.719739556312561 0.20702864229679108 0.43732431530952454
0.6674031615257263 0.18664279580116272 0.4680362343788147
0.7585424780845642 0.24047769606113434 0.515656590461731
0.7798914313316345 0.2037278115749359 0.4734450876712799
0.6400747895240784 0.2720734179019928 0.34149688482284546
0.6006454825401306 0.20801348984241486 0.4984514117240906
0.6523123383522034 0.2544400691986084 0.38274648785591125
0.7076568603515625 0.18233411014080048 0.40900176763534546
0.6062508821487427 0.3295617401599884 0.4300139248371124
0.745057225227356 0.24456895887851715 0.517156720161438
0.7772854566574097 0.3411829471588135 0.45536962151527405
0.6524541974067688 0.2658090591430664 0.39545705914497375
0.6971181035041809 0.242620587348938 0.3582569360733032
0.7640195488929749 0.20797444880008698 0.4609629511833191
0.5785369873046875 0.2532190680503845 0.4732992649078369
0.7333322167396545 0.20229822397232056 0.5084993243217468
0.5971694588661194 0.1681680679321289 0.5057370066642761
0.7258529663085938 0.265857994556427 0.5364466309547424
0.624893844127655 0.18897216022014618 0.47068512439727783
0.6807375550270081 0.15411122143268585 0.43341556191444397
0.6099126935005188 0.327740877866745 0.36934658885002136
0.8003429174423218 0.2894192039966583 0.39986395835876465
0.7229798436164856 0.23772405087947845 0.4618983864784241
0.7281979918479919 0.20876272022724152 0.5661892890930176
0.7774598002433777 0.20328347384929657 0.5038515329360962
0.6296736001968384 0.18034687638282776 0.5058925151824951
0.7374697923660278 0.33273616433143616 0.5430198907852173
0.6760351061820984 0.23431359231472015 0.4779183864593506
0.7139213681221008 0.22857388854026794 0.4289255738258362
0.595654308795929 0.3196301758289337 0.4453393816947937
0.610221266746521 0.18776021897792816 0.4138389229774475
0.7818939685821533 0.21813370287418365 0.3846638798713684
0.804925262928009 0.2750288248062134 0.42095068097114563
0.5949159264564514 0.19453811645507812 0.4480924606323242
0.72107994556427 0.22391322255134583 0.5107631087303162
0.6829007863998413 0.2734696865081787 0.4524071216583252
0.630617082118988 0.33677908778190613 0.4544573724269867
0.6498012542724609 0.21668612957000732 0.3884415328502655
0.6109897494316101 0.2315543293952942 0.4005384147167206
0.6721951365470886 0.1917656511068344 0.37184107303619385
0.692042350769043 0.17123137414455414 0.34787899255752563
0.6492782831192017 0.19229982793331146 0.45966193079948425
0.7060303092002869 0.16639171540737152 0.42717745900154114
0.6474223732948303 0.23776006698608398 0.33280861377716064
0.6780514121055603 0.22147755324840546 0.485411673784256
0.695372998714447 0.19849322736263275 0.44026291370391846
0.7348719835281372 0.14960870146751404 0.451133131980896
0.6866375207901001 0.3003630042076111 0.33807307481765747
0.6282463073730469 0.24537393450737 0.4269246757030487
0.695372998714447 0.19849322736263275 0.44026291370391846
0.7348719835281372 0.14960870146751404 0.451133131980896
0.6866375207901001 0.3003630042076111 0.33807307481765747
0.7264600396156311 0.28338858485221863 0.5076789855957031
0.6273056864738464 0.1460506170988083 0.4164978265762329
0.6975473165512085 0.29508739709854126 0.40988707542419434
0.6893186569213867 0.20049886405467987 0.5582578182220459
0.7001484632492065 0.16434553265571594 0.511012077331543
0.6379675269126892 0.17566585540771484 0.5162399411201477
0.7172610759735107 0.16823869943618774 0.5031931400299072
0.7008541226387024 0.25301286578178406 0.37493908405303955
0.6747102737426758 0.3401269316673279 0.44991534948349
0.7942741513252258 0.1792064607143402 0.4751174747943878
0.6289066076278687 0.32379573583602905 0.46769657731056213
0.7614279389381409 0.1807798445224762 0.458741694688797
0.7051909565925598 0.15274231135845184 0.4625447392463684
0.6546531319618225 0.20796653628349304 0.37497031688690186
0.7499403357505798 0.16914556920528412 0.4181802570819855
0.7141197323799133 0.15629887580871582 0.3987571597099304
0.786231517791748 0.3035956919193268 0.3761681616306305
0.6437942385673523 0.3321278989315033 0.4895966947078705
0.6221000552177429 0.1956574022769928 0.48093166947364807
0.7465212345123291 0.262142151594162 0.3589964210987091
0.6900776028633118 0.19270746409893036 0.4468323886394501
0.6735841035842896 0.3103043735027313 0.3600459396839142
0.7575734257698059 0.27862247824668884 0.5173778533935547
0.6168211698532104 0.20143964886665344 0.39102163910865784
0.6735989451408386 0.2237962782382965 0.369235634803772
0.6730120182037354 0.24315661191940308 0.47177642583847046
0.6862466335296631 0.35259947180747986 0.47932329773902893
0.606195330619812 0.18766987323760986 0.520818293094635
0.7252704501152039 0.17833393812179565 0.43609362840652466
0.7276608943939209 0.31191033124923706 0.4091336727142334
0.6645160913467407 0.20625802874565125 0.4755842685699463
0.6693801283836365 0.25143197178840637 0.5128372311592102
0.7061895728111267 0.23148293793201447 0.45240557193756104
0.5907801985740662 0.24078615009784698 0.4387781322002411
0.6559776067733765 0.29272064566612244 0.3552318513393402
0.6212902069091797 0.15569645166397095 0.4219130277633667
0.5938554406166077 0.2740062475204468 0.4841078221797943
0.6538682579994202 0.2962522506713867 0.4812934696674347
0.7191959619522095 0.3107970058917999 0.46322453022003174
0.7601837515830994 0.33400243520736694 0.44294020533561707
0.6984072923660278 0.14761322736740112 0.40678870677948
0.7660776376724243 0.2986679673194885 0.4917457699775696
0.7288944125175476 0.2966839671134949 0.39055880904197693
0.6943427324295044 0.20467564463615417 0.3937620520591736
0.633201539516449 0.27392640709877014 0.4786026179790497
0.7724764347076416 0.27539438009262085 0.48911529779434204
0.8133660554885864 0.2096976935863495 0.42125263810157776
0.7076917290687561 0.1596648395061493 0.4995419383049011
0.6243603229522705 0.20404157042503357 0.5303859710693359
0.7145980000495911 0.25673991441726685 0.5083538889884949
0.6721338033676147 0.2251565307378769 0.5344747304916382
0.6160032749176025 0.20922493934631348 0.37943458557128906
0.7233154773712158 0.28132879734039307 0.4245885908603668
0.74480801820755 0.29619163274765015 0.37033969163894653
0.6898288130760193 0.22748295962810516 0.39534467458724976
0.6590309739112854 0.17750079929828644 0.43862611055374146
0.6971845626831055 0.1685582399368286 0.40615296363830566
0.589928388595581 0.20471099019050598 0.4987550675868988
0.7688852548599243 0.2283434420824051 0.49682238698005676
0.6181853413581848 0.27964067459106445 0.5009031891822815
0.6568486094474792 0.21289010345935822 0.4518220126628876
0.6937622427940369 0.3018539845943451 0.4915050268173218
0.7339847087860107 0.26806604862213135 0.3699512481689453
0.7414902448654175 0.3454168140888214 0.5405179858207703
0.6848711967468262 0.22696645557880402 0.41333431005477905
0.6773335337638855 0.1914874166250229 0.5078606605529785
0.6488330364227295 0.20889608561992645 0.38736170530319214
0.7019665241241455 0.17815309762954712 0.4024355113506317
0.6897993087768555 0.3329840898513794 0.5246071815490723
0.6266396641731262 0.23280149698257446 0.484642893075943
0.7770228385925293 0.18940387666225433 0.4378523528575897
0.7799439430236816 0.229658842086792 0.4111333191394806
0.7158241271972656 0.2150399088859558 0.5622616410255432
0.7530397176742554 0.2821757197380066 0.4198947548866272
0.6105872392654419 0.14353309571743011 0.4438577890396118
0.6699206829071045 0.2735312283039093 0.4129263758659363
0.7155922651290894 0.31985682249069214 0.35526469349861145
0.6692061424255371 0.26088425517082214 0.36583659052848816
0.6831682324409485 0.19836460053920746 0.3896942436695099
0.6816366910934448 0.2881602942943573 0.4132302403450012
0.6688476800918579 0.20849768817424774 0.4774276614189148
0.7324405908584595 0.1868497133255005 0.5905988216400146
0.6877663135528564 0.2835766673088074 0.4544118344783783
0.6948064565658569 0.1445595771074295 0.3805779814720154
0.7235041856765747 0.25803858041763306 0.49469780921936035
0.6696426272392273 0.14749200642108917 0.46387043595314026
0.6382983326911926 0.13514858484268188 0.37119579315185547
0.719739556312561 0.20702864229679108 0.43732431530952454
0.6674031615257263 0.18664279580116272 0.4680362343788147
0.7585424780845642 0.24047769606113434 0.515656590461731
0.6748886108398438 0.1485333889722824 0.35151058435440063
0.7685208916664124 0.2789612412452698 0.37534642219543457
0.7849432229995728 0.17176590859889984 0.41436564922332764
0.6476052403450012 0.24380290508270264 0.3274281919002533
0.6654264330863953 0.21686917543411255 0.34943246841430664
0.6273056864738464 0.1460506170988083 0.4164978265762329
0.6975473165512085 0.29508739709854126 0.40988707542419434
0.6893186569213867 0.20049886405467987 0.5582578182220459
0.6379675269126892 0.17566585540771484 0.5162399411201477
0.7172610759735107 0.16823869943618774 0.5031931400299072
0.6750993132591248 0.31535130739212036 0.40265461802482605
0.7008541226387024 0.25301286578178406 0.37493908405303955
0.6747102737426758 0.3401269316673279 0.44991534948349
0.7942741513252258 0.1792064607143402 0.4751174747943878
0.6289066076278687 0.32379573583602905 0.46769657731056213
0.7614279389381409 0.1807798445224762 0.458741694688797
0.7051909565925598 0.15274231135845184 0.4625447392463684
0.7499403357505798 0.16914556920528412 0.4181802570819855
0.7141197323799133 0.15629887580871582 0.3987571597099304
0.6266129016876221 0.16384044289588928 0.4314441978931427
0.786231517791748 0.3035956919193268 0.3761681616306305
0.6437942385673523 0.3321278989315033 0.4895966947078705
0.6221000552177429 0.1956574022769928 0.48093166947364807
0.7465212345123291 0.262142151594162 0.3589964210987091
0.6735841035842896 0.3103043735027313 0.3600459396839142
0.7575734257698059 0.27862247824668884 0.5173778533935547
0.6168211698532104 0.20143964886665344 0.39102163910865784
0.6735989451408386 0.2237962782382965 0.369235634803772
0.6735989451408386 0.2237962782382965 0.369235634803772
0.6730120182037354 0.24315661191940308 0.47177642583847046
0.6862466335296631 0.35259947180747986 0.47932329773902893
0.6450095772743225 0.19757822155952454 0.5392763018608093
0.606195330619812 0.18766987323760986 0.520818293094635
0.7179101705551147 0.20195281505584717 0.484578400850296
0.7385174632072449 0.2042008936405182 0.4084954261779785
0.7841771841049194 0.15500503778457642 0.501979410648346
0.7721799612045288 0.20760570466518402 0.4544013738632202
0.7978736758232117 0.20829342305660248 0.4002282917499542
0.6691309213638306 0.2925747036933899 0.44543033838272095
0.5921626687049866 0.2606350779533386 0.4835425317287445
0.7418930530548096 0.15100429952144623 0.4688893258571625
0.7297757267951965 0.1700814664363861 0.3692108690738678
0.6097577214241028 0.2845444083213806 0.4086029827594757
0.7487284541130066 0.24356883764266968 0.552019476890564
0.6806036829948425 0.27497366070747375 0.3709627389907837
0.694598376750946 0.21488136053085327 0.528506338596344
0.7159358859062195 0.30763956904411316 0.35983705520629883
0.708943247795105 0.1843458116054535 0.4302119016647339
0.7833566069602966 0.28103888034820557 0.4376218914985657
0.7085818648338318 0.18974611163139343 0.48174044489860535
0.6808964014053345 0.2713789641857147 0.33691683411598206
0.785028338432312 0.2741903066635132 0.40024101734161377
0.7158554196357727 0.24724005162715912 0.36323705315589905
0.6839139461517334 0.18973150849342346 0.5600171089172363
0.636915385723114 0.3136608898639679 0.31921544671058655
0.6550288796424866 0.30643078684806824 0.3064696192741394
0.6745986938476562 0.23583252727985382 0.43010279536247253
0.6747851967811584 0.19888074696063995 0.40161579847335815
0.6695806384086609 0.24440032243728638 0.3149220943450928
0.6926748156547546 0.1783221811056137 0.47327449917793274
0.6585955619812012 0.26372432708740234 0.3192838132381439
0.7206311225891113 0.22331510484218597 0.5501412153244019
0.7498781681060791 0.3173046112060547 0.39022302627563477
0.7826157808303833 0.1559363454580307 0.4846046566963196
0.7470696568489075 0.14347954094409943 0.41129884123802185
0.7779554128646851 0.13505026698112488 0.41596072912216187
0.7849432229995728 0.17176590859889984 0.41436564922332764
0.7688852548599243 0.2283434420824051 0.49682238698005676
0.6181853413581848 0.27964067459106445 0.5009031891822815
0.62938392162323 0.3261997103691101 0.42573845386505127
0.7774004936218262 0.17586740851402283 0.5056784152984619
0.6528261303901672 0.21161091327667236 0.4502675533294678
0.6257270574569702 0.16514267027378082 0.3906005918979645
0.5840425491333008 0.3430759608745575 0.45057758688926697
0.7213587164878845 0.2912180721759796 0.3313573896884918
0.6585294604301453 0.27144742012023926 0.48394158482551575
0.7227522730827332 0.3072099983692169 0.3986198306083679
0.6094473004341125 0.23188942670822144 0.4096606969833374
0.6669784784317017 0.13343219459056854 0.36221474409103394
0.6157497763633728 0.3127109706401825 0.37852850556373596
0.7027114033699036 0.26085904240608215 0.514488697052002
0.7674160599708557 0.2573135495185852 0.4463019073009491
0.6919843554496765 0.2218022346496582 0.49358850717544556
0.6553537249565125 0.23603832721710205 0.5048274993896484
0.6540476679801941 0.3134259283542633 0.3210063576698303
0.748698890209198 0.314721018075943 0.3772317171096802
0.7851283550262451 0.2607608139514923 0.47478899359703064
0.7343667149543762 0.21173696219921112 0.5112123489379883
0.6663290858268738 0.33003488183021545 0.46342915296554565
0.633456289768219 0.2850247025489807 0.3393361568450928
0.6949928402900696 0.16482070088386536 0.3843747079372406
0.6718363761901855 0.3036606013774872 0.5257347226142883
0.6061665415763855 0.1910557597875595 0.509881854057312
0.7045541405677795 0.258959025144577 0.44914135336875916
0.7210463881492615 0.24656951427459717 0.34004199504852295
0.724079966545105 0.24565036594867706 0.5432394742965698
0.6503590941429138 0.24003705382347107 0.5302032828330994
0.7132323980331421 0.22254297137260437 0.5675062537193298
0.6563717126846313 0.20645159482955933 0.4193345308303833
0.7165659666061401 0.2580074369907379 0.5103683471679688
0.789027988910675 0.16472390294075012 0.41240307688713074
0.6877663135528564 0.2835766673088074 0.4544118344783783
0.7449058890342712 0.28081008791923523 0.49580278992652893
0.6721614599227905 0.17393791675567627 0.4751799404621124
0.5827412009239197 0.16113771498203278 0.4836185574531555
0.6520016193389893 0.2522556781768799 0.44681549072265625
0.6047531962394714 0.293850839138031 0.4246349632740021
0.601326584815979 0.18005847930908203 0.4979066550731659
0.6817111372947693 0.18090306222438812 0.40120136737823486
0.8058751821517944 0.2623116374015808 0.38129159808158875
0.7048118710517883 0.249995619058609 0.4466266632080078
0.6387419104576111 0.2839408814907074 0.50080806016922
0.7557472586631775 0.20953819155693054 0.5116661190986633
0.7832238674163818 0.2699352204799652 0.38305768370628357
0.6911460757255554 0.17101088166236877 0.43795379996299744
0.6125509738922119 0.2967464029788971 0.44213956594467163
0.6596482992172241 0.300870418548584 0.3109797537326813
0.7092899084091187 0.1330033242702484 0.37266018986701965
0.7875650525093079 0.3039321005344391 0.44955974817276
0.683962345123291 0.24738214910030365 0.48125454783439636
0.7820309996604919 0.25910717248916626 0.38761425018310547
0.7070587873458862 0.19546984136104584 0.45553991198539734
0.721440851688385 0.18166065216064453 0.5397607088088989
0.7767205834388733 0.2631092071533203 0.39145874977111816
0.6736878156661987 0.30090317130088806 0.5243054628372192
0.6695433259010315 0.22339297831058502 0.5105282664299011
0.7199910879135132 0.33373773097991943 0.42196735739707947
0.7179535627365112 0.18945273756980896 0.435658723115921
0.7810020446777344 0.30297231674194336 0.371858149766922
0.6945474147796631 0.31323665380477905 0.3705507814884186
0.6500046849250793 0.21467962861061096 0.4985133111476898
0.7283677458763123 0.19900526106357574 0.5473694205284119
0.6835299730300903 0.26414117217063904 0.3553081154823303
0.6995794773101807 0.2118546962738037 0.5107603073120117
0.6848711967468262 0.22696645557880402 0.41333431005477905
0.6773335337638855 0.1914874166250229 0.5078606605529785
0.6488330364227295 0.20889608561992645 0.38736170530319214
0.7019665241241455 0.17815309762954712 0.4024355113506317
0.6897993087768555 0.3329840898513794 0.5246071815490723
0.6266396641731262 0.23280149698257446 0.484642893075943
0.7770228385925293 0.18940387666225433 0.4378523528575897
0.7799439430236816 0.229658842086792 0.4111333191394806
0.7158241271972656 0.2150399088859558 0.5622616410255432
0.7530397176742554 0.2821757197380066 0.4198947548866272
0.6105872392654419 0.14353309571743011 0.4438577890396118
0.6699206829071045 0.2735312283039093 0.4129263758659363
0.7311739325523376 0.21627332270145416 0.48919007182121277
0.6715641617774963 0.19597524404525757 0.5485923886299133
0.7691236734390259 0.3429204225540161 0.44210144877433777
0.7165659666061401 0.2580074369907379 0.5103683471679688
0.789027988910675 0.16472390294075012 0.41240307688713074
0.6877663135528564 0.2835766673088074 0.4544118344783783
0.6948064565658569 0.1445595771074295 0.3805779814720154
0.7235041856765747 0.25803858041763306 0.49469780921936035
0.6696426272392273 0.14749200642108917 0.46387043595314026
0.6382983326911926 0.13514858484268188 0.37119579315185547
0.719739556312561 0.20702864229679108 0.43732431530952454
0.6674031615257263 0.18664279580116272 0.4680362343788147
0.7585424780845642 0.24047769606113434 0.515656590461731
0.7798914313316345 0.2037278115749359 0.4734450876712799
0.6400747895240784 0.2720734179019928 0.34149688482284546
0.6006454825401306 0.20801348984241486 0.4984514117240906
0.7717360854148865 0.33247917890548706 0.4643426537513733
0.7352579832077026 0.1584087312221527 0.5069987177848816
0.7894343137741089 0.29780682921409607 0.40721699595451355
0.6681366562843323 0.29876774549484253 0.3800448775291443
0.6296170949935913 0.21845503151416779 0.49186161160469055
0.7391762733459473 0.23394909501075745 0.4122384488582611
0.6770615577697754 0.3124620318412781 0.41686317324638367
0.7837021946907043 0.3003898561000824 0.4184422492980957
0.6953802108764648 0.24032697081565857 0.5395183563232422
0.6605178713798523 0.14812272787094116 0.4344584047794342
0.7353318929672241 0.2926492989063263 0.49437257647514343
0.5766798257827759 0.26274028420448303 0.4773980677127838
0.6474137306213379 0.17887933552265167 0.4570215046405792
0.6214863061904907 0.17807844281196594 0.4063517153263092
0.6474137306213379 0.17887933552265167 0.4570215046405792
0.6214863061904907 0.17807844281196594 0.4063517153263092
0.6809017062187195 0.30277252197265625 0.35362905263900757
0.7362841367721558 0.2775896489620209 0.35432249307632446
0.6735588312149048 0.22517140209674835 0.4398089647293091
0.7283677458763123 0.19900526106357574 0.5473694205284119
0.6584504842758179 0.15465009212493896 0.3902851939201355
0.6169166564941406 0.31449782848358154 0.3625732958316803
0.6788676381111145 0.15074767172336578 0.414067804813385
0.7053367495536804 0.14913669228553772 0.4760717451572418
0.6848711967468262 0.22696645557880402 0.41333431005477905
0.6773335337638855 0.1914874166250229 0.5078606605529785
0.6488330364227295 0.20889608561992645 0.38736170530319214
0.7019665241241455 0.17815309762954712 0.4024355113506317
0.6897993087768555 0.3329840898513794 0.5246071815490723
0.6266396641731262 0.23280149698257446 0.484642893075943
0.7770228385925293 0.18940387666225433 0.4378523528575897
0.7799439430236816 0.229658842086792 0.4111333191394806
0.7540472745895386 0.29104650020599365 0.4473656117916107
0.6773335337638855 0.1914874166250229 0.5078606605529785
0.6488330364227295 0.20889608561992645 0.38736170530319214
0.7019665241241455 0.17815309762954712 0.4024355113506317
0.6897993087768555 0.3329840898513794 0.5246071815490723
0.6266396641731262 0.23280149698257446 0.484642893075943
0.7770228385925293 0.18940387666225433 0.4378523528575897
0.7799439430236816 0.229658842086792 0.4111333191394806
0.7158241271972656 0.2150399088859558 0.5622616410255432
0.7530397176742554 0.2821757197380066 0.4198947548866272
0.6105872392654419 0.14353309571743011 0.4438577890396118
0.6699206829071045 0.2735312283039093 0.4129263758659363
0.7311739325523376 0.21627332270145416 0.48919007182121277
0.6715641617774963 0.19597524404525757 0.5485923886299133
0.759042501449585 0.3488970696926117 0.4621693193912506
0.6656160950660706 0.24030520021915436 0.3435184359550476
0.6453332901000977 0.19939178228378296 0.4122346043586731
0.7920571565628052 0.19849811494350433 0.45094966888427734
0.7037478089332581 0.23889891803264618 0.5120278596878052
0.6823880076408386 0.25216779112815857 0.43386009335517883
0.7872084975242615 0.1583019644021988 0.4733295142650604
0.7293522357940674 0.1606665402650833 0.49887871742248535
0.7167113423347473 0.34033969044685364 0.4251733720302582
0.5968551635742188 0.1793709695339203 0.49801623821258545
0.7798914313316345 0.2037278115749359 0.4734450876712799
0.6793832182884216 0.24975883960723877 0.40927502512931824
0.6912122368812561 0.23225796222686768 0.39866673946380615
0.7241328954696655 0.22972580790519714 0.520479142665863
0.6510255336761475 0.31587839126586914 0.47425803542137146
0.7610966563224792 0.16495990753173828 0.5087799429893494
0.774918794631958 0.29108726978302 0.4214757978916168
0.7138994336128235 0.25746482610702515 0.3677433729171753
0.6344877481460571 0.2584264278411865 0.3801894187927246
0.7378808259963989 0.26304876804351807 0.46750420331954956
0.6321297883987427 0.14194050431251526 0.36641860008239746
0.749045193195343 0.1688668131828308 0.5144978761672974
0.570580005645752 0.2626807391643524 0.46099984645843506
0.7158241271972656 0.2150399088859558 0.5622616410255432
0.7530397176742554 0.2821757197380066 0.4198947548866272
0.6105872392654419 0.14353309571743011 0.4438577890396118
0.6699206829071045 0.2735312283039093 0.4129263758659363
0.7311739325523376 0.21627332270145416 0.48919007182121277
0.6715641617774963 0.19597524404525757 0.5485923886299133
0.7691236734390259 0.3429204225540161 0.44210144877433777
0.7165659666061401 0.2580074369907379 0.5103683471679688
0.789027988910675 0.16472390294075012 0.41240307688713074
0.6877663135528564 0.2835766673088074 0.4544118344783783
0.6948064565658569 0.1445595771074295 0.3805779814720154
0.7235041856765747 0.25803858041763306 0.49469780921936035
0.6696426272392273 0.14749200642108917 0.46387043595314026
0.6382983326911926 0.13514858484268188 0.37119579315185547
0.719739556312561 0.20702864229679108 0.43732431530952454
0.7535483241081238 0.28279319405555725 0.3802085816860199
0.7252559065818787 0.2277141809463501 0.3510771095752716
0.5782387256622314 0.16902412474155426 0.48435091972351074
0.6574161648750305 0.3244718611240387 0.4071904420852661
0.7304545044898987 0.23217450082302094 0.4051092565059662
0.7933616042137146 0.331876665353775 0.4143204689025879
0.7452674508094788 0.2403302639722824 0.40203166007995605
0.5920312404632568 0.30169108510017395 0.47615182399749756
0.7849847674369812 0.24272823333740234 0.3846956789493561
0.6957950592041016 0.2529394030570984 0.5355994701385498
0.5911790728569031 0.3312900960445404 0.46636128425598145
0.6315730214118958 0.22732646763324738 0.46016621589660645
0.5662119388580322 0.1799951046705246 0.49673759937286377
0.7484664916992188 0.27786755561828613 0.4628745913505554
0.6981445550918579 0.2795141935348511 0.3386348783969879
0.6211654543876648 0.2733955979347229 0.4412093758583069
0.6335732936859131 0.22687548398971558 0.4478892385959625
0.7687829732894897 0.16644668579101562 0.4549582600593567
0.6762856245040894 0.2291126698255539 0.5087076425552368
0.7650766372680664 0.27556610107421875 0.4539894163608551
0.7393276691436768 0.3303512632846832 0.5427118539810181
0.6077329516410828 0.3241073191165924 0.423021525144577
0.7524850368499756 0.16969802975654602 0.47357895970344543
0.6059183478355408 0.15791597962379456 0.48452311754226685
0.7736784815788269 0.20055219531059265 0.5067762732505798
0.6665045022964478 0.25176167488098145 0.43706730008125305
0.7352579832077026 0.1584087312221527 0.5069987177848816
0.7894343137741089 0.29780682921409607 0.40721699595451355
0.6681366562843323 0.29876774549484253 0.3800448775291443
0.6296170949935913 0.21845503151416779 0.49186161160469055
0.6296170949935913 0.21845503151416779 0.49186161160469055
0.7391762733459473 0.23394909501075745 0.4122384488582611
0.6770615577697754 0.3124620318412781 0.41686317324638367
0.7837021946907043 0.3003898561000824 0.4184422492980957
0.7200072407722473 0.19901704788208008 0.5347099900245667
0.6953802108764648 0.24032697081565857 0.5395183563232422
0.6605178713798523 0.14812272787094116 0.4344584047794342
0.7353318929672241 0.2926492989063263 0.49437257647514343
0.5766798257827759 0.26274028420448303 0.4773980677127838
0.6474137306213379 0.17887933552265167 0.4570215046405792
0.6214863061904907 0.17807844281196594 0.4063517153263092
0.6809017062187195 0.30277252197265625 0.35362905263900757
0.7362841367721558 0.2775896489620209 0.35432249307632446
0.6735588312149048 0.22517140209674835 0.4398089647293091
0.7408158779144287 0.2549728453159332 0.5233604311943054
0.6540476679801941 0.3134259283542633 0.3210063576698303
0.748698890209198 0.314721018075943 0.3772317171096802
0.789027988910675 0.16472390294075012 0.41240307688713074
0.6877663135528564 0.2835766673088074 0.4544118344783783
0.6948064565658569 0.1445595771074295 0.3805779814720154
0.7235041856765747 0.25803858041763306 0.49469780921936035
0.7508115768432617 0.22648756206035614 0.5007298588752747
0.7753518223762512 0.1896842122077942 0.4588552415370941
0.748301088809967 0.2221224457025528 0.4815800189971924
0.7373242974281311 0.16947349905967712 0.4921947419643402
0.6513879895210266 0.2128891497850418 0.4875127673149109
0.6988523006439209 0.324648916721344 0.4315323829650879
0.723282516002655 0.26399505138397217 0.5593002438545227
0.6355148553848267 0.17712296545505524 0.5246365666389465
0.5972962975502014 0.30466917157173157 0.4481571316719055
0.6683496236801147 0.30692097544670105 0.46626871824264526
0.7230809926986694 0.3042791187763214 0.4029962122440338
0.7554978728294373 0.30118051171302795 0.40825313329696655
0.7681512832641602 0.3055090010166168 0.501152753829956
0.7667821645736694 0.32457050681114197 0.48657000064849854
0.6226657629013062 0.18256597220897675 0.42262452840805054
0.7606355547904968 0.29566359519958496 0.36749109625816345
0.6223701238632202 0.24709981679916382 0.4929799437522888
0.7349545955657959 0.20053736865520477 0.48868682980537415
0.7172336578369141 0.16878452897071838 0.40095868706703186
0.7367550730705261 0.21690954267978668 0.3569403290748596
0.5997896194458008 0.2942430078983307 0.3965124189853668
0.7588934898376465 0.3109099268913269 0.3872169256210327
0.5946205258369446 0.15306594967842102 0.46193650364875793
0.7850345373153687 0.31011727452278137 0.4485117793083191
0.6976977586746216 0.12624025344848633 0.39171651005744934
0.7774004936218262 0.17586740851402283 0.5056784152984619
0.6877663135528564 0.2835766673088074 0.4544118344783783
0.6948064565658569 0.1445595771074295 0.3805779814720154
0.7235041856765747 0.25803858041763306 0.49469780921936035
0.6696426272392273 0.14749200642108917 0.46387043595314026
0.6382983326911926 0.13514858484268188 0.37119579315185547
0.719739556312561 0.20702864229679108 0.43732431530952454
0.6581940650939941 0.3437642455101013 0.43716633319854736
0.6761932969093323 0.17138569056987762 0.5237595438957214
0.6748886108398438 0.1485333889722824 0.35151058435440063
0.6550959944725037 0.18297789990901947 0.49992215633392334
0.6568191647529602 0.2888135015964508 0.30225276947021484
0.7787045240402222 0.23669980466365814 0.4955633580684662
0.6641849279403687 0.3252853751182556 0.4530765414237976
0.6883655190467834 0.2526381313800812 0.5437288880348206
0.7271350622177124 0.31290024518966675 0.3907090425491333
0.5746699571609497 0.2434302717447281 0.46443986892700195
0.7072238922119141 0.302781879901886 0.37422940135002136
0.7079276442527771 0.2811599671840668 0.47207310795783997
0.6561691164970398 0.17432157695293427 0.3944661021232605
0.6975392699241638 0.16232116520404816 0.45418497920036316
0.615756094455719 0.3068399727344513 0.44477227330207825
0.6533557176589966 0.28801703453063965 0.4781859219074249
0.7942366003990173 0.15036678314208984 0.41059166193008423
0.5932067632675171 0.30039340257644653 0.47484272718429565
0.7133399844169617 0.31580108404159546 0.3912924528121948
0.5773970484733582 0.24946781992912292 0.49364474415779114
0.5971506834030151 0.3195219337940216 0.43357232213020325
0.7182539105415344 0.29427045583724976 0.3564891219139099
0.7544956803321838 0.19502826035022736 0.45767703652381897
0.8040720224380493 0.22063276171684265 0.4394882619380951
0.6905387043952942 0.14777463674545288 0.4470922648906708
0.6129024624824524 0.3357439339160919 0.3909004032611847
0.6440517902374268 0.2708446681499481 0.4014018774032593
0.618074357509613 0.33741697669029236 0.47314974665641785
0.6107799410820007 0.2626175284385681 0.4860572814941406
0.6251516342163086 0.13629141449928284 0.41654321551322937
0.7304210662841797 0.207077294588089 0.5084418654441833
0.67803955078125 0.24326109886169434 0.32774728536605835
0.6513879895210266 0.2128891497850418 0.4875127673149109
0.6988523006439209 0.324648916721344 0.4315323829650879
0.723282516002655 0.26399505138397217 0.5593002438545227
0.6355148553848267 0.17712296545505524 0.5246365666389465
0.5972962975502014 0.30466917157173157 0.4481571316719055
0.6683496236801147 0.30692097544670105 0.46626871824264526
0.6272425055503845 0.2267911434173584 0.4228476285934448
0.7283895611763 0.19973883032798767 0.39148539304733276
0.639963686466217 0.29797717928886414 0.3226049840450287
0.683499813079834 0.3296858072280884 0.4856201410293579
0.70496666431427 0.2683362364768982 0.4251033365726471
0.6670405268669128 0.30612799525260925 0.4011251628398895
0.7010679244995117 0.3122018873691559 0.5098309516906738
0.7445675134658813 0.24267597496509552 0.451215922832489
0.6870207190513611 0.26680323481559753 0.4166436195373535
