ply
format ascii 1.0
element vertex 824
property float x
property float y
property float z
end_header
0.3305155038833618 0.12205272912979126 0.5450924634933472
0.26444461941719055 0.2714921534061432 0.6272440552711487
0.3746664822101593 0.13088059425354004 0.5385400652885437
0.3343425989151001 0.17926323413848877 0.5851292014122009
0.24604305624961853 0.3090585470199585 0.5567593574523926
0.22546136379241943 0.12193607538938522 0.4754140079021454
0.2169506549835205 0.17772090435028076 0.5929929614067078
0.2744046747684479 0.21420224010944366 0.5357379913330078
0.3092931807041168 0.2771632969379425 0.5277613997459412
0.28044393658638 0.1628367304801941 0.6499143838882446
0.3355199694633484 0.18700340390205383 0.5926306843757629
0.2843908667564392 0.18219022452831268 0.6241229772567749
0.3691383898258209 0.10899773985147476 0.4681776165962219
0.33131253719329834 0.23547986149787903 0.5982506275177002
0.299654483795166 0.11879931390285492 0.5039910078048706
0.2808226943016052 0.1604280322790146 0.45981818437576294
0.33962342143058777 0.1858331859111786 0.5473726987838745
0.23455515503883362 0.15668687224388123 0.5085099339485168
0.2539720833301544 0.2831488847732544 0.4639767110347748
0.2821948826313019 0.1380923092365265 0.6011357307434082
0.33455222845077515 0.268135666847229 0.471561074256897
0.2931148409843445 0.12549488246440887 0.5115665197372437
0.2755749523639679 0.2567034065723419 0.6272302269935608
0.3780369162559509 0.24276667833328247 0.558464765548706
0.34069156646728516 0.1289929300546646 0.5887985229492188
0.32472535967826843 0.20379190146923065 0.4989919364452362
0.29769331216812134 0.17698915302753448 0.47097912430763245
0.39400285482406616 0.2336491346359253 0.5065330862998962
0.3016835153102875 0.16952179372310638 0.480324387550354
0.3943207561969757 0.2498781681060791 0.6488963961601257
0.23012366890907288 0.2594873607158661 0.5660773515701294
0.29558953642845154 0.14716480672359467 0.6027502417564392
0.3650854527950287 0.19727708399295807 0.5543160438537598
0.34883785247802734 0.23781181871891022 0.6129310131072998
0.344482421875 0.11114311963319778 0.5952606201171875
0.1975315511226654 0.19134512543678284 0.5984216332435608
0.2536252737045288 0.13720425963401794 0.5868159532546997
0.2557164132595062 0.1471400111913681 0.6162179112434387
0.3098817765712738 0.23420456051826477 0.49300241470336914
0.22548890113830566 0.1840314418077469 0.5407096743583679
0.3068649172782898 0.24981869757175446 0.5995103716850281
0.2519378066062927 0.14907898008823395 0.5572795271873474
0.285146027803421 0.18135230243206024 0.47490179538726807
0.2705264091491699 0.23037411272525787 0.4628143012523651
0.35062462091445923 0.1560988575220108 0.6047400236129761
0.36713314056396484 0.2531205117702484 0.591110110282898
0.25042980909347534 0.15538768470287323 0.6284819841384888
0.28505897521972656 0.15082919597625732 0.5754674077033997
0.2741778492927551 0.14514218270778656 0.5689967274665833
0.19742193818092346 0.23637565970420837 0.5951673984527588
0.27897077798843384 0.19544576108455658 0.5257870554924011
0.3558620512485504 0.24363914132118225 0.5168899297714233
0.3070996403694153 0.26995334029197693 0.5006809830665588
0.342695951461792 0.12922389805316925 0.5447536706924438
0.37605321407318115 0.1412949413061142 0.5058785676956177
0.38155150413513184 0.19619455933570862 0.5376042127609253
0.3457627594470978 0.19792869687080383 0.5900318026542664
0.30295243859291077 0.1668134480714798 0.47764939069747925
0.42634841799736023 0.2355206161737442 0.5053030848503113
0.22502321004867554 0.24624207615852356 0.48981842398643494
0.3612503111362457 0.22644241154193878 0.5125610828399658
0.4131384491920471 0.20357660949230194 0.5171688199043274
0.31525713205337524 0.12445560097694397 0.570577085018158
0.2169506549835205 0.17772090435028076 0.5929929614067078
0.2744046747684479 0.21420224010944366 0.5357379913330078
0.3092931807041168 0.2771632969379425 0.5277613997459412
0.28044393658638 0.1628367304801941 0.6499143838882446
0.3355199694633484 0.18700340390205383 0.5926306843757629
0.2843908667564392 0.18219022452831268 0.6241229772567749
0.1676671952009201 0.13052846491336823 0.5562940835952759
0.2323201447725296 0.2011084109544754 0.5232109427452087
0.36205893754959106 0.20659933984279633 0.47792983055114746
0.23194952309131622 0.12830057740211487 0.5100352168083191
0.353783518075943 0.1316092163324356 0.5270369052886963
0.28962278366088867 0.18879567086696625 0.578000009059906
0.28824424743652344 0.22460399568080902 0.494626522064209
0.3576032221317291 0.1395968198776245 0.5668960213661194
0.3550605773925781 0.15775077044963837 0.4757842421531677
0.28517070412635803 0.26423507928848267 0.4838954508304596
0.29157665371894836 0.12123921513557434 0.5409873723983765
0.33335116505622864 0.117793969810009 0.46763741970062256
0.30765339732170105 0.2387005090713501 0.46434134244918823
0.37493255734443665 0.16581861674785614 0.6431630849838257
0.36722612380981445 0.21159027516841888 0.5860710740089417
0.2942708730697632 0.16053606569766998 0.5653102397918701
0.304336279630661 0.27962422370910645 0.6332961916923523
0.21440869569778442 0.16276252269744873 0.4868887960910797
0.3458508253097534 0.27395614981651306 0.5046690106391907
0.3765000104904175 0.12768736481666565 0.5224419236183167
0.3386401832103729 0.2232426106929779 0.5912433862686157
0.23691615462303162 0.2007565051317215 0.47329550981521606
0.351310133934021 0.13005346059799194 0.6244074702262878
0.3899906873703003 0.1818774789571762 0.6057649254798889
0.31471920013427734 0.1148448958992958 0.6476530432701111
0.31529709696769714 0.2510015070438385 0.6023555994033813
0.24328121542930603 0.11561134457588196 0.6428511142730713
0.247411847114563 0.21289674937725067 0.5204209089279175
0.27630794048309326 0.15585801005363464 0.5742500424385071
0.3663651645183563 0.15185397863388062 0.5500423312187195
0.30187880992889404 0.2144545465707779 0.5887066721916199
0.22410263121128082 0.252850204706192 0.5349694490432739
0.20432491600513458 0.20270457863807678 0.4897122085094452
0.2093186229467392 0.23864024877548218 0.6430608630180359
0.26627641916275024 0.26954028010368347 0.49688223004341125
0.2759765684604645 0.22667738795280457 0.5955464839935303
0.25317707657814026 0.11450391262769699 0.6305677890777588
0.35602590441703796 0.2637324929237366 0.5350356698036194
0.223964661359787 0.18585804104804993 0.4798744022846222
0.20523610711097717 0.23330157995224 0.6372827291488647
0.3795781433582306 0.2105836570262909 0.6126911044120789
0.19987332820892334 0.1665704995393753 0.5321803689002991
0.29991692304611206 0.2505068778991699 0.6108230948448181
0.29559609293937683 0.2114788293838501 0.5516703128814697
0.20695337653160095 0.1506398320198059 0.5090146064758301
0.29976585507392883 0.13183210790157318 0.5483185648918152
0.26465117931365967 0.16271349787712097 0.6532409191131592
0.23963846266269684 0.20758607983589172 0.5631980299949646
0.2598550021648407 0.2553368806838989 0.5691751837730408
0.3504856526851654 0.23196984827518463 0.5677751302719116
0.25400736927986145 0.29876208305358887 0.6106908917427063
0.26087650656700134 0.17236344516277313 0.47657984495162964
0.32875198125839233 0.11069442331790924 0.5844025611877441
0.25512367486953735 0.2185380756855011 0.49123021960258484
0.23221075534820557 0.16515107452869415 0.5923393368721008
0.2917158007621765 0.1984156370162964 0.6072090864181519
0.1676671952009201 0.13052846491336823 0.5562940835952759
0.2208784520626068 0.2622303366661072 0.6013721823692322
0.3027816712856293 0.1359669715166092 0.6510143876075745
0.3148045837879181 0.13425573706626892 0.6534240245819092
0.23479056358337402 0.21630486845970154 0.49892476201057434
0.2530137896537781 0.2859847843647003 0.6461484432220459
0.2928081154823303 0.15390194952487946 0.5745744705200195
0.3929668664932251 0.2103796750307083 0.5702856183052063
0.38429614901542664 0.16392730176448822 0.5276474356651306
0.3467079699039459 0.25050920248031616 0.5953182578086853
0.31829437613487244 0.13879501819610596 0.4807031452655792
0.373653382062912 0.17264346778392792 0.47328639030456543
0.31546440720558167 0.11182551085948944 0.6487476229667664
0.30693382024765015 0.17471587657928467 0.5158024430274963
0.22006793320178986 0.2103414386510849 0.5447832345962524
0.23774418234825134 0.19362744688987732 0.4942849576473236
0.2215745747089386 0.21760781109333038 0.4725993871688843
0.27313342690467834 0.11959167569875717 0.4976806640625
0.24836720526218414 0.24291588366031647 0.5458219051361084
0.3900691866874695 0.16360610723495483 0.5202889442443848
0.3597143292427063 0.12428992241621017 0.5280719995498657
0.22828315198421478 0.13275213539600372 0.4568665027618408
0.3882463872432709 0.22500213980674744 0.6279734969139099
0.2971366047859192 0.20795392990112305 0.5009860992431641
0.3355259895324707 0.1994996964931488 0.6007311940193176
0.32008805871009827 0.20488697290420532 0.5468257665634155
0.25025317072868347 0.17125263810157776 0.6555652618408203
0.3583138585090637 0.26452693343162537 0.6187546849250793
0.2593003213405609 0.22118087112903595 0.5647966861724854
0.24249126017093658 0.1383444219827652 0.5694172382354736
0.2612511217594147 0.11361410468816757 0.5927980542182922
0.3388722240924835 0.1931930035352707 0.47443920373916626
0.25043365359306335 0.28659260272979736 0.4944971799850464
0.2428673356771469 0.11570920795202255 0.562223494052887
0.3238210082054138 0.1438991129398346 0.47314131259918213
0.3069891333580017 0.2579878270626068 0.6401694416999817
0.3860361576080322 0.1603948026895523 0.5367188453674316
0.31078362464904785 0.22526822984218597 0.5752646327018738
0.2852068543434143 0.20198799669742584 0.5006399750709534
0.3456459939479828 0.13955149054527283 0.618308961391449
0.25788456201553345 0.12235921621322632 0.5849524736404419
0.30171531438827515 0.18935105204582214 0.5293587446212769
0.34248995780944824 0.12945562601089478 0.46977123618125916
0.320304811000824 0.15059082210063934 0.6611925959587097
0.2505496144294739 0.18456807732582092 0.5265094041824341
0.2816363275051117 0.25475242733955383 0.5761231780052185
0.22234757244586945 0.23489201068878174 0.6110002994537354
0.27409347891807556 0.2701350748538971 0.572136640548706
0.33880293369293213 0.20467804372310638 0.6041421294212341
0.24519072473049164 0.14849317073822021 0.5837336778640747
0.23752951622009277 0.17390358448028564 0.5567565560340881
0.25048932433128357 0.18900327384471893 0.5652961134910583
0.34064358472824097 0.25298500061035156 0.5623192191123962
0.25456467270851135 0.30133363604545593 0.5553571581840515
0.3288329839706421 0.18079568445682526 0.569363534450531
0.18336819112300873 0.19119660556316376 0.6100967526435852
0.2802686095237732 0.17390181124210358 0.6372947096824646
0.24511319398880005 0.2845139503479004 0.4743221402168274
0.34830015897750854 0.12794636189937592 0.5510168671607971
0.35471415519714355 0.16871611773967743 0.5411733984947205
0.25495365262031555 0.16792415082454681 0.5568848252296448
0.2357473075389862 0.20821499824523926 0.5263418555259705
0.4240576922893524 0.22917905449867249 0.4786463677883148
0.26043567061424255 0.17896683514118195 0.48216313123703003
0.29734039306640625 0.13057714700698853 0.5573489665985107
0.23778603971004486 0.18775583803653717 0.5141763687133789
0.3686119318008423 0.13926085829734802 0.6423773169517517
0.3366757929325104 0.13839091360569 0.6670320630073547
0.2780812084674835 0.2054757922887802 0.6513049006462097
0.24771274626255035 0.15928196907043457 0.6087167859077454
0.32512691617012024 0.21575254201889038 0.5418135523796082
0.18870878219604492 0.15893398225307465 0.6111430525779724
0.2577831745147705 0.11559932678937912 0.4842628836631775
0.31806811690330505 0.20432695746421814 0.48882535099983215
0.34146174788475037 0.2332485169172287 0.5432820320129395
0.40894782543182373 0.2490488737821579 0.599809467792511
0.3986475467681885 0.1712251752614975 0.49072030186653137
0.3409218490123749 0.27410295605659485 0.4794243574142456
0.21513119339942932 0.25047922134399414 0.5984277725219727
0.24232511222362518 0.227102592587471 0.5561108589172363
0.34241312742233276 0.25714796781539917 0.5558806657791138
0.32806259393692017 0.279922217130661 0.5588803887367249
0.2390332818031311 0.12883751094341278 0.4861975312232971
0.32561632990837097 0.24669767916202545 0.6619526147842407
0.3464077413082123 0.2614712715148926 0.5641520023345947
0.2951066493988037 0.19144563376903534 0.6579866409301758
0.18619108200073242 0.17769794166088104 0.5527534484863281
0.2511705160140991 0.12592566013336182 0.6592742800712585
0.3442929983139038 0.19269628822803497 0.5927388072013855
0.2209366112947464 0.16327008605003357 0.5907539129257202
0.19936604797840118 0.1988978236913681 0.4785701036453247
0.2317596822977066 0.12018726021051407 0.622894287109375
0.33521395921707153 0.1394045650959015 0.5187159180641174
0.2775636613368988 0.28183749318122864 0.6156935095787048
0.23099443316459656 0.19393984973430634 0.473067045211792
0.3773961663246155 0.2145308405160904 0.5282747745513916
0.32028114795684814 0.16909202933311462 0.4936172068119049
0.29169318079948425 0.23961670696735382 0.6083176732063293
0.32875198125839233 0.11069442331790924 0.5844025611877441
0.25512367486953735 0.2185380756855011 0.49123021960258484
0.23221075534820557 0.16515107452869415 0.5923393368721008
0.1676671952009201 0.13052846491336823 0.5562940835952759
0.2323201447725296 0.2011084109544754 0.5232109427452087
0.36205893754959106 0.20659933984279633 0.47792983055114746
0.23194952309131622 0.12830057740211487 0.5100352168083191
0.353783518075943 0.1316092163324356 0.5270369052886963
0.28962278366088867 0.18879567086696625 0.578000009059906
0.28824424743652344 0.22460399568080902 0.494626522064209
0.28962278366088867 0.18879567086696625 0.578000009059906
0.28824424743652344 0.22460399568080902 0.494626522064209
0.3576032221317291 0.1395968198776245 0.5668960213661194
0.3550605773925781 0.15775077044963837 0.4757842421531677
0.28517070412635803 0.26423507928848267 0.4838954508304596
0.29157665371894836 0.12123921513557434 0.5409873723983765
0.33335116505622864 0.117793969810009 0.46763741970062256
0.30765339732170105 0.2387005090713501 0.46434134244918823
0.37493255734443665 0.16581861674785614 0.6431630849838257
0.36722612380981445 0.21159027516841888 0.5860710740089417
0.2942708730697632 0.16053606569766998 0.5653102397918701
0.304336279630661 0.27962422370910645 0.6332961916923523
0.22730915248394012 0.18439289927482605 0.6457114219665527
0.2992771565914154 0.1281375139951706 0.4885440766811371
0.320611834526062 0.12475841492414474 0.6236394643783569
0.3032177984714508 0.11636625975370407 0.578538715839386
0.31111711263656616 0.2124716192483902 0.5871850848197937
0.2825418710708618 0.11289781332015991 0.630092978477478
0.27881890535354614 0.251217246055603 0.5877031683921814
0.2380354255437851 0.25126567482948303 0.5264933705329895
0.30462780594825745 0.1148422583937645 0.496345192193985
0.35052192211151123 0.15969261527061462 0.568891167640686
0.27409347891807556 0.2701350748538971 0.572136640548706
0.33880293369293213 0.20467804372310638 0.6041421294212341
0.26269692182540894 0.16981853544712067 0.6008634567260742
0.27911242842674255 0.1928720325231552 0.5783427357673645
0.34064358472824097 0.25298500061035156 0.5623192191123962
0.25456467270851135 0.30133363604545593 0.5553571581840515
0.3288329839706421 0.18079568445682526 0.569363534450531
0.40632757544517517 0.22584880888462067 0.4760270118713379
0.3139748275279999 0.11705421656370163 0.5887176990509033
0.22585859894752502 0.1218695193529129 0.5353370904922485
0.29956677556037903 0.2816734313964844 0.5690563917160034
0.34830015897750854 0.12794636189937592 0.5510168671607971
0.3009645342826843 0.2723328173160553 0.5651476979255676
0.35471415519714355 0.16871611773967743 0.5411733984947205
0.25495365262031555 0.16792415082454681 0.5568848252296448
0.4240576922893524 0.22917905449867249 0.4786463677883148
0.30552732944488525 0.10846114903688431 0.6660382747650146
0.26043567061424255 0.17896683514118195 0.48216313123703003
0.29734039306640625 0.13057714700698853 0.5573489665985107
0.32209938764572144 0.19363418221473694 0.5674138069152832
0.16751782596111298 0.1464451253414154 0.6091086268424988
0.3216935396194458 0.14287643134593964 0.5246261954307556
0.24073435366153717 0.16308464109897614 0.4647715091705322
0.2011835128068924 0.12496990710496902 0.5773264765739441
0.2972954511642456 0.23708660900592804 0.6193574070930481
0.31017157435417175 0.11718007177114487 0.47053971886634827
0.27426740527153015 0.16399849951267242 0.487067848443985
0.4016824960708618 0.21153557300567627 0.4964578449726105
0.19462306797504425 0.1539652794599533 0.6404142379760742
0.21749407052993774 0.2253504991531372 0.6353115439414978
0.3906102180480957 0.15999625623226166 0.521635115146637
0.19831643998622894 0.1317065954208374 0.5830660462379456
0.24771274626255035 0.15928196907043457 0.6087167859077454
0.32512691617012024 0.21575254201889038 0.5418135523796082
0.18870878219604492 0.15893398225307465 0.6111430525779724
0.33001214265823364 0.24945838749408722 0.4870332181453705
0.2677755057811737 0.22134321928024292 0.6041703224182129
0.31806811690330505 0.20432695746421814 0.48882535099983215
0.21957048773765564 0.1517309546470642 0.6112212538719177
0.22946862876415253 0.18363219499588013 0.5290490388870239
0.2133014053106308 0.18784238398075104 0.6149079203605652
0.22029735147953033 0.12280118465423584 0.6210386753082275
0.25443893671035767 0.2857398986816406 0.6409201622009277
0.4178188741207123 0.2182932049036026 0.5066102147102356
0.24875947833061218 0.16008147597312927 0.4753970205783844
0.25223249197006226 0.19566088914871216 0.5729260444641113
0.22656510770320892 0.18982960283756256 0.5287831425666809
0.3328050673007965 0.2629268169403076 0.5856803059577942
0.31517326831817627 0.11970409005880356 0.6223084330558777
0.3256568908691406 0.20764677226543427 0.6190392971038818
0.22035393118858337 0.16301171481609344 0.5910928845405579
0.29839929938316345 0.20960773527622223 0.6253661513328552
0.26710739731788635 0.2943526804447174 0.6142066717147827
0.2622720003128052 0.2738988399505615 0.5375223755836487
0.2830885052680969 0.14020965993404388 0.6613718867301941
0.2282918393611908 0.2195063978433609 0.4712214469909668
0.27132153511047363 0.22206547856330872 0.4972694516181946
0.3935892581939697 0.2547747492790222 0.5858558416366577
0.3062325417995453 0.11134025454521179 0.5195754766464233
0.24075451493263245 0.2752024829387665 0.5269063115119934
0.3010796308517456 0.1896456480026245 0.5088980197906494
0.24393923580646515 0.2046792060136795 0.5526975393295288
0.27204570174217224 0.2442634254693985 0.5513524413108826
0.3616541624069214 0.26586681604385376 0.48900943994522095
0.18648068606853485 0.15317068994045258 0.5079551339149475
0.2502483129501343 0.12193077802658081 0.496348112821579
0.19349046051502228 0.13856269419193268 0.49987027049064636
0.226717010140419 0.16733966767787933 0.5630254745483398
0.22886058688163757 0.2853532135486603 0.5447244048118591
0.3597211241722107 0.14302103221416473 0.5270318388938904
0.3278346359729767 0.12348870187997818 0.4784514009952545
0.2602379322052002 0.2502305805683136 0.5982677936553955
0.3686119318008423 0.13926085829734802 0.6423773169517517
0.3366757929325104 0.13839091360569 0.6670320630073547
0.2780812084674835 0.2054757922887802 0.6513049006462097
0.24771274626255035 0.15928196907043457 0.6087167859077454
0.32512691617012024 0.21575254201889038 0.5418135523796082
0.18870878219604492 0.15893398225307465 0.6111430525779724
0.33001214265823364 0.24945838749408722 0.4870332181453705
0.25218790769577026 0.2926342189311981 0.611897885799408
0.26718249917030334 0.17246681451797485 0.48383963108062744
0.28124570846557617 0.1347970962524414 0.5174529552459717
0.32207006216049194 0.14877642691135406 0.6467090845108032
0.24669727683067322 0.14458796381950378 0.6327028870582581
0.26319774985313416 0.12136909365653992 0.5936094522476196
0.33469465374946594 0.14348679780960083 0.6086832880973816
0.2864176630973816 0.25344690680503845 0.6128353476524353
0.2830933928489685 0.22393833100795746 0.6293631792068481
0.3185136616230011 0.2841603755950928 0.5843042135238647
0.29080939292907715 0.22305093705654144 0.5129042267799377
0.40149974822998047 0.24282480776309967 0.4931219518184662
0.2872045338153839 0.24940843880176544 0.5299931168556213
0.30928000807762146 0.13441696763038635 0.5163471698760986
0.37191829085350037 0.12098929286003113 0.5480438470840454
0.22517138719558716 0.14838558435440063 0.5353829860687256
0.17860865592956543 0.17374569177627563 0.6081598401069641
0.24669727683067322 0.14458796381950378 0.6327028870582581
0.26319774985313416 0.12136909365653992 0.5936094522476196
0.33469465374946594 0.14348679780960083 0.6086832880973816
0.2864176630973816 0.25344690680503845 0.6128353476524353
0.2830933928489685 0.22393833100795746 0.6293631792068481
0.3185136616230011 0.2841603755950928 0.5843042135238647
0.29080939292907715 0.22305093705654144 0.5129042267799377
0.40149974822998047 0.24282480776309967 0.4931219518184662
0.2872045338153839 0.24940843880176544 0.5299931168556213
0.30928000807762146 0.13441696763038635 0.5163471698760986
0.36273297667503357 0.12501633167266846 0.5556929111480713
0.1996067464351654 0.15071441233158112 0.49994874000549316
0.3027191162109375 0.14213991165161133 0.5273797512054443
0.4024988114833832 0.23003190755844116 0.5028865337371826
0.3218280076980591 0.2115265130996704 0.6582280397415161
0.31317979097366333 0.16478334367275238 0.6454510688781738
0.1821802407503128 0.17202359437942505 0.5509829521179199
0.20077162981033325 0.13657474517822266 0.4552110433578491
0.22287531197071075 0.15880054235458374 0.5627654790878296
0.2234344631433487 0.14689739048480988 0.5271390676498413
0.3536551892757416 0.230804905295372 0.5276726484298706
0.3320181667804718 0.11229691654443741 0.5071977972984314
0.36564210057258606 0.1618390828371048 0.4751030504703522
0.28346723318099976 0.17075490951538086 0.5553717017173767
0.2171248495578766 0.13388684391975403 0.6513081789016724
0.23955276608467102 0.1435481607913971 0.46766477823257446
0.3378334641456604 0.14440877735614777 0.520662248134613
0.25627225637435913 0.20692697167396545 0.4538527727127075
0.2446218729019165 0.20457303524017334 0.5447996258735657
0.30664461851119995 0.11569847166538239 0.5770263671875
0.2279982715845108 0.1653759926557541 0.579156219959259
0.2495187222957611 0.21003645658493042 0.5986972451210022
0.2209366112947464 0.16327008605003357 0.5907539129257202
0.32187920808792114 0.26717254519462585 0.6232969760894775
0.2297462373971939 0.23166146874427795 0.5617718696594238
0.24807390570640564 0.26630979776382446 0.45819979906082153
0.23939411342144012 0.30840548872947693 0.5300291776657104
0.2171248495578766 0.13388684391975403 0.6513081789016724
0.23955276608467102 0.1435481607913971 0.46766477823257446
0.3550718426704407 0.14623011648654938 0.5381302833557129
0.23955276608467102 0.1435481607913971 0.46766477823257446
0.3378334641456604 0.14440877735614777 0.520662248134613
0.25627225637435913 0.20692697167396545 0.4538527727127075
0.3935892581939697 0.2547747492790222 0.5858558416366577
0.3062325417995453 0.11134025454521179 0.5195754766464233
0.24075451493263245 0.2752024829387665 0.5269063115119934
0.3010796308517456 0.1896456480026245 0.5088980197906494
0.24393923580646515 0.2046792060136795 0.5526975393295288
0.27204570174217224 0.2442634254693985 0.5513524413108826
0.3003625273704529 0.27874043583869934 0.6536314487457275
0.2776340842247009 0.16056345403194427 0.5072163939476013
0.27284595370292664 0.22415606677532196 0.49474236369132996
0.3551912009716034 0.21048036217689514 0.4812925457954407
0.3250379264354706 0.24569518864154816 0.6523995399475098
0.25882670283317566 0.21263371407985687 0.4886268675327301
0.3704454302787781 0.26864320039749146 0.46671774983406067
0.21223084628582 0.22528019547462463 0.5233664512634277
0.2283439189195633 0.3085114657878876 0.5902058482170105
0.3481859862804413 0.11089722812175751 0.5433050394058228
0.23281656205654144 0.1625310778617859 0.5465453267097473
0.3748226463794708 0.2191019207239151 0.6082338690757751
0.37433376908302307 0.1557980328798294 0.6255523562431335
0.18559327721595764 0.18689686059951782 0.5396173596382141
0.18748709559440613 0.13554668426513672 0.6512864232063293
0.3515758216381073 0.14584915339946747 0.6098286509513855
0.33277761936187744 0.21569034457206726 0.5808167457580566
0.1941765546798706 0.161122128367424 0.5261982679367065
0.31690284609794617 0.21827737987041473 0.5868932008743286
0.270852655172348 0.19208748638629913 0.6117944717407227
0.32788342237472534 0.18375854194164276 0.4723609387874603
0.2660577893257141 0.2978864014148712 0.4760424494743347
0.26642778515815735 0.29995185136795044 0.5638369917869568
0.26642778515815735 0.29995185136795044 0.5638369917869568
0.2441742718219757 0.23817606270313263 0.5839953422546387
0.28499242663383484 0.28415563702583313 0.4966560900211334
0.17066188156604767 0.13911129534244537 0.6137927174568176
0.3296613097190857 0.22164121270179749 0.5419999957084656
0.21589098870754242 0.16502965986728668 0.5085266828536987
0.3698045015335083 0.12030425667762756 0.5811774134635925
0.3698045015335083 0.12030425667762756 0.5811774134635925
0.2834787964820862 0.139356330037117 0.6188194751739502
0.33423513174057007 0.12612399458885193 0.6040757894515991
0.2404245287179947 0.14278367161750793 0.5096068978309631
0.4089406430721283 0.21971628069877625 0.5636525750160217
0.3741394579410553 0.16778767108917236 0.598814070224762
0.3476494550704956 0.19576624035835266 0.5818839073181152
0.3715694844722748 0.2145630568265915 0.6066364645957947
0.34584468603134155 0.22761285305023193 0.5627200603485107
0.3715694844722748 0.2145630568265915 0.6066364645957947
0.34584468603134155 0.22761285305023193 0.5627200603485107
0.34584468603134155 0.22761285305023193 0.5627200603485107
0.25154417753219604 0.1881067007780075 0.5807875394821167
0.180132195353508 0.1337612271308899 0.5272263884544373
0.3572126626968384 0.2408408522605896 0.48769327998161316
0.22742527723312378 0.16158103942871094 0.5452833771705627
0.36205893754959106 0.20659933984279633 0.47792983055114746
0.2011835128068924 0.12496990710496902 0.5773264765739441
0.2972954511642456 0.23708660900592804 0.6193574070930481
0.31017157435417175 0.11718007177114487 0.47053971886634827
0.31017157435417175 0.11718007177114487 0.47053971886634827
0.27426740527153015 0.16399849951267242 0.487067848443985
0.3306473195552826 0.206328883767128 0.6481630802154541
0.25621160864830017 0.2903830409049988 0.549756646156311
0.3314148485660553 0.248569056391716 0.5929002165794373
0.3624121844768524 0.23266083002090454 0.5586578845977783
0.286072701215744 0.15989919006824493 0.5474566221237183
0.3519515097141266 0.15582603216171265 0.5603932738304138
0.2240888774394989 0.16223527491092682 0.6093633770942688
0.20567752420902252 0.1350952684879303 0.4792065918445587
0.2540004849433899 0.1299332231283188 0.6350187063217163
0.25947216153144836 0.1620917171239853 0.6428400278091431
0.2559926211833954 0.23180444538593292 0.5043603777885437
0.3513599634170532 0.2714056968688965 0.5379975438117981
0.20180560648441315 0.12904593348503113 0.4562191367149353
0.2819327712059021 0.18459047377109528 0.48934662342071533
0.20488542318344116 0.20034751296043396 0.62604820728302
0.2616305947303772 0.29244962334632874 0.6457947492599487
0.3867233395576477 0.1479341834783554 0.5336074829101562
0.34170296788215637 0.13025188446044922 0.6110619306564331
0.25117963552474976 0.2646248936653137 0.6342999339103699
0.39318808913230896 0.20535464584827423 0.552850604057312
0.37440401315689087 0.14968997240066528 0.6015878915786743
0.3515758216381073 0.14584915339946747 0.6098286509513855
0.33277761936187744 0.21569034457206726 0.5808167457580566
0.3523912727832794 0.19192799925804138 0.5524402856826782
0.3212102949619293 0.232254296541214 0.6384953260421753
0.2599191665649414 0.12254711985588074 0.557784378528595
0.2380354255437851 0.25126567482948303 0.5264933705329895
0.21589098870754242 0.16502965986728668 0.5085266828536987
0.3698045015335083 0.12030425667762756 0.5811774134635925
0.2834787964820862 0.139356330037117 0.6188194751739502
0.33423513174057007 0.12612399458885193 0.6040757894515991
0.2404245287179947 0.14278367161750793 0.5096068978309631
0.4089406430721283 0.21971628069877625 0.5636525750160217
0.3741394579410553 0.16778767108917236 0.598814070224762
0.3476494550704956 0.19576624035835266 0.5818839073181152
0.3715694844722748 0.2145630568265915 0.6066364645957947
0.34584468603134155 0.22761285305023193 0.5627200603485107
0.25154417753219604 0.1881067007780075 0.5807875394821167
0.180132195353508 0.1337612271308899 0.5272263884544373
0.3572126626968384 0.2408408522605896 0.48769327998161316
0.22742527723312378 0.16158103942871094 0.5452833771705627
0.20867766439914703 0.14179624617099762 0.5624107718467712
0.35502782464027405 0.1141238734126091 0.5589498281478882
0.23760206997394562 0.14244188368320465 0.6511375308036804
0.2913986146450043 0.16646447777748108 0.5280672907829285
0.34495794773101807 0.17574582993984222 0.6592496037483215
0.35170888900756836 0.18340255320072174 0.6083385944366455
0.18648068606853485 0.15317068994045258 0.5079551339149475
0.20331184566020966 0.20080004632472992 0.583690881729126
0.2396685928106308 0.2193475365638733 0.4511640965938568
0.30265888571739197 0.13491937518119812 0.6649444699287415
0.2346293032169342 0.19306495785713196 0.5400550365447998
0.2392808049917221 0.29336246848106384 0.6180589199066162
0.337093710899353 0.22169755399227142 0.6099444031715393
0.20010170340538025 0.12942364811897278 0.6266293525695801
0.30817925930023193 0.24569571018218994 0.6095962524414062
0.2868931293487549 0.11870405822992325 0.49651098251342773
0.23303624987602234 0.15583129227161407 0.606316864490509
0.3367994725704193 0.178097665309906 0.5435308814048767
0.32209938764572144 0.19363418221473694 0.5674138069152832
0.16751782596111298 0.1464451253414154 0.6091086268424988
0.3216935396194458 0.14287643134593964 0.5246261954307556
0.24073435366153717 0.16308464109897614 0.4647715091705322
0.2011835128068924 0.12496990710496902 0.5773264765739441
0.2972954511642456 0.23708660900592804 0.6193574070930481
0.31017157435417175 0.11718007177114487 0.47053971886634827
0.3099871873855591 0.11710268259048462 0.470646470785141
0.31849777698516846 0.2701016366481781 0.48632293939590454
0.28346845507621765 0.2516196370124817 0.5525403618812561
0.3306473195552826 0.206328883767128 0.6481630802154541
0.24676284193992615 0.2979468107223511 0.6286510229110718
0.3009764552116394 0.22803351283073425 0.5091242790222168
0.20867766439914703 0.14179624617099762 0.5624107718467712
0.35502782464027405 0.1141238734126091 0.5589498281478882
0.23760206997394562 0.14244188368320465 0.6511375308036804
0.2913986146450043 0.16646447777748108 0.5280672907829285
0.34495794773101807 0.17574582993984222 0.6592496037483215
0.35170888900756836 0.18340255320072174 0.6083385944366455
0.18648068606853485 0.15317068994045258 0.5079551339149475
0.2502483129501343 0.12193077802658081 0.496348112821579
0.19349046051502228 0.13856269419193268 0.49987027049064636
0.226717010140419 0.16733966767787933 0.5630254745483398
0.22886058688163757 0.2853532135486603 0.5447244048118591
0.3597211241722107 0.14302103221416473 0.5270318388938904
0.3278346359729767 0.12348870187997818 0.4784514009952545
0.2602379322052002 0.2502305805683136 0.5982677936553955
0.3686119318008423 0.13926085829734802 0.6423773169517517
0.3366757929325104 0.13839091360569 0.6670320630073547
0.2780812084674835 0.2054757922887802 0.6513049006462097
0.24771274626255035 0.15928196907043457 0.6087167859077454
0.1958150416612625 0.1856921911239624 0.5645040273666382
0.30265888571739197 0.13491937518119812 0.6649444699287415
0.2346293032169342 0.19306495785713196 0.5400550365447998
0.2392808049917221 0.29336246848106384 0.6180589199066162
0.337093710899353 0.22169755399227142 0.6099444031715393
0.20010170340538025 0.12942364811897278 0.6266293525695801
0.30817925930023193 0.24569571018218994 0.6095962524414062
0.2868931293487549 0.11870405822992325 0.49651098251342773
0.23303624987602234 0.15583129227161407 0.606316864490509
0.293637752532959 0.13730104267597198 0.5525707602500916
0.38871699571609497 0.2584919035434723 0.5265401005744934
0.20144449174404144 0.21439632773399353 0.6397251486778259
0.3739294111728668 0.12963365018367767 0.5390446782112122
0.3676550090312958 0.21927021443843842 0.5518097281455994
0.23564088344573975 0.12594497203826904 0.5365410447120667
0.19742603600025177 0.2191447615623474 0.6319631934165955
0.3211999237537384 0.1878395974636078 0.5625155568122864
0.28228312730789185 0.18194758892059326 0.5968652963638306
0.24639874696731567 0.2095753401517868 0.5853089094161987
0.28171539306640625 0.17444220185279846 0.5701025128364563
0.29177990555763245 0.1446438580751419 0.6405757069587708
0.3412615954875946 0.22737643122673035 0.4663555324077606
0.37825724482536316 0.22275006771087646 0.6547801494598389
0.3296264111995697 0.2102246880531311 0.6376146674156189
0.3077070713043213 0.11627767235040665 0.5305191874504089
0.3468111455440521 0.25613635778427124 0.6279078125953674
0.26410165429115295 0.24778397381305695 0.5414431691169739
0.2651821970939636 0.24948750436306 0.4825928509235382
0.32574746012687683 0.2794187068939209 0.5087107419967651
0.23939411342144012 0.30840548872947693 0.5300291776657104
0.37114331126213074 0.24665988981723785 0.5528228282928467
0.35272151231765747 0.12787997722625732 0.6195959448814392
0.3216935396194458 0.14287643134593964 0.5246261954307556
0.3555799126625061 0.223106250166893 0.5112696290016174
0.22029368579387665 0.14702044427394867 0.5889662504196167
0.3083805739879608 0.13313841819763184 0.4707590341567993
0.32905101776123047 0.19981355965137482 0.5396620035171509
0.34475991129875183 0.17353668808937073 0.5157583951950073
0.3024681806564331 0.25363609194755554 0.6207396388053894
0.3118332624435425 0.11118009686470032 0.5050446391105652
0.1637096405029297 0.16056694090366364 0.6478438377380371
0.20083536207675934 0.13317997753620148 0.5812468528747559
0.3243297040462494 0.125310018658638 0.6428070664405823
0.3126285970211029 0.2789278030395508 0.5405762791633606
0.3483909070491791 0.2496183067560196 0.5711354613304138
0.23141635954380035 0.1197262555360794 0.6124006509780884
0.3715052604675293 0.15919463336467743 0.5312972664833069
0.34611034393310547 0.1045856848359108 0.5799529552459717
0.3166646361351013 0.1541113704442978 0.5368977189064026
0.37825724482536316 0.22275006771087646 0.6547801494598389
0.3296264111995697 0.2102246880531311 0.6376146674156189
0.3077070713043213 0.11627767235040665 0.5305191874504089
0.3468111455440521 0.25613635778427124 0.6279078125953674
0.26410165429115295 0.24778397381305695 0.5414431691169739
0.2651821970939636 0.24948750436306 0.4825928509235382
0.32574746012687683 0.2794187068939209 0.5087107419967651
0.23939411342144012 0.30840548872947693 0.5300291776657104
0.37114331126213074 0.24665988981723785 0.5528228282928467
0.35272151231765747 0.12787997722625732 0.6195959448814392
0.22305451333522797 0.15650200843811035 0.5908219814300537
0.26111894845962524 0.14683865010738373 0.5046008825302124
0.3134041130542755 0.19662044942378998 0.4756624102592468
0.24472841620445251 0.21491453051567078 0.4781205654144287
0.2535727024078369 0.16514872014522552 0.49882400035858154
0.3624121844768524 0.23266083002090454 0.5586578845977783
0.3715694844722748 0.2145630568265915 0.6066364645957947
0.34584468603134155 0.22761285305023193 0.5627200603485107
0.25154417753219604 0.1881067007780075 0.5807875394821167
0.180132195353508 0.1337612271308899 0.5272263884544373
0.3572126626968384 0.2408408522605896 0.48769327998161316
0.22742527723312378 0.16158103942871094 0.5452833771705627
0.20867766439914703 0.14179624617099762 0.5624107718467712
0.35502782464027405 0.1141238734126091 0.5589498281478882
0.23760206997394562 0.14244188368320465 0.6511375308036804
0.23617766797542572 0.22165291011333466 0.4526626169681549
0.2655698359012604 0.11384401470422745 0.4867071807384491
0.23044872283935547 0.25242531299591064 0.47971805930137634
0.30669888854026794 0.15661892294883728 0.497534841299057
0.33381155133247375 0.17006133496761322 0.5478041172027588
0.27243995666503906 0.2690123915672302 0.620798647403717
0.2757689952850342 0.12375141680240631 0.6077792048454285
0.24183312058448792 0.3022173345088959 0.5217910408973694
0.22684358060359955 0.21311259269714355 0.6479036808013916
0.2729555368423462 0.21045412123203278 0.6353002786636353
0.20243610441684723 0.1290740817785263 0.6567431688308716
0.25584864616394043 0.21551375091075897 0.5358185172080994
0.3487603962421417 0.2426285594701767 0.6286944150924683
0.38165974617004395 0.24382546544075012 0.6146169900894165
0.35205668210983276 0.22485268115997314 0.5363472104072571
0.2779403328895569 0.10952354222536087 0.5627231001853943
0.2650276720523834 0.25532039999961853 0.6320193409919739
0.3145328760147095 0.2833256721496582 0.5816587209701538
0.35708382725715637 0.1325109452009201 0.5753995776176453
0.2772507071495056 0.28190141916275024 0.6056354641914368
0.29036325216293335 0.20614072680473328 0.6512563824653625
0.26111894845962524 0.14683865010738373 0.5046008825302124
0.2660577893257141 0.2978864014148712 0.4760424494743347
0.3704454302787781 0.26864320039749146 0.46671774983406067
0.21223084628582 0.22528019547462463 0.5233664512634277
0.2283439189195633 0.3085114657878876 0.5902058482170105
0.3150087893009186 0.11360634118318558 0.5978362560272217
0.1778116226196289 0.13408297300338745 0.634056806564331
0.25022730231285095 0.11581473797559738 0.631756067276001
0.3364565968513489 0.21481022238731384 0.5852381587028503
0.3748226463794708 0.2191019207239151 0.6082338690757751
0.37433376908302307 0.1557980328798294 0.6255523562431335
0.18559327721595764 0.18689686059951782 0.5396173596382141
0.3845222294330597 0.1965349167585373 0.6661449670791626
0.3303171396255493 0.20869553089141846 0.5642266869544983
0.23077337443828583 0.18259145319461823 0.6366950273513794
0.3843202292919159 0.25095558166503906 0.5594279170036316
0.3744105100631714 0.18800093233585358 0.5812263488769531
0.2039203643798828 0.2061145305633545 0.6333276629447937
0.20776741206645966 0.20526592433452606 0.5874732136726379
0.23412953317165375 0.14208495616912842 0.6587624549865723
0.34402337670326233 0.2525729238986969 0.463669091463089
0.20097988843917847 0.20470477640628815 0.6125633716583252
0.3111959397792816 0.10742589086294174 0.5496487021446228
0.3626920282840729 0.21597672998905182 0.5975870490074158
0.2503276467323303 0.12588827311992645 0.6094774603843689
0.20734353363513947 0.14922405779361725 0.5963610410690308
0.2617855370044708 0.16321147978305817 0.4963071942329407
0.36338892579078674 0.11599534004926682 0.46809664368629456
0.38115453720092773 0.2352113127708435 0.5285970568656921
0.321381151676178 0.16607239842414856 0.5082626938819885
0.22527877986431122 0.1283433437347412 0.5098501443862915
0.21395115554332733 0.2212609499692917 0.48010748624801636
0.262346088886261 0.2885114848613739 0.49980399012565613
0.23760206997394562 0.14244188368320465 0.6511375308036804
0.3062325417995453 0.11134025454521179 0.5195754766464233
0.24075451493263245 0.2752024829387665 0.5269063115119934
0.3010796308517456 0.1896456480026245 0.5088980197906494
0.24393923580646515 0.2046792060136795 0.5526975393295288
0.27204570174217224 0.2442634254693985 0.5513524413108826
0.3003625273704529 0.27874043583869934 0.6536314487457275
0.2776340842247009 0.16056345403194427 0.5072163939476013
0.3250379264354706 0.24569518864154816 0.6523995399475098
0.25882670283317566 0.21263371407985687 0.4886268675327301
0.3704454302787781 0.26864320039749146 0.46671774983406067
0.21223084628582 0.22528019547462463 0.5233664512634277
0.2283439189195633 0.3085114657878876 0.5902058482170105
0.3150087893009186 0.11360634118318558 0.5978362560272217
0.1778116226196289 0.13408297300338745 0.634056806564331
0.25022730231285095 0.11581473797559738 0.631756067276001
0.3364565968513489 0.21481022238731384 0.5852381587028503
0.3748226463794708 0.2191019207239151 0.6082338690757751
0.37433376908302307 0.1557980328798294 0.6255523562431335
0.18559327721595764 0.18689686059951782 0.5396173596382141
0.3845222294330597 0.1965349167585373 0.6661449670791626
0.3303171396255493 0.20869553089141846 0.5642266869544983
0.23077337443828583 0.18259145319461823 0.6366950273513794
0.3843202292919159 0.25095558166503906 0.5594279170036316
0.3560475707054138 0.2612290382385254 0.6191065311431885
0.38962462544441223 0.25356525182724 0.5509791374206543
0.21363264322280884 0.23785217106342316 0.4713781476020813
0.3219560980796814 0.2667342722415924 0.5656251907348633
0.31002816557884216 0.2147105187177658 0.5038575530052185
0.288104772567749 0.2458813637495041 0.6205220818519592
0.3482673466205597 0.11273825168609619 0.6362239122390747
0.37065619230270386 0.17570310831069946 0.486409455537796
0.3140941858291626 0.22845333814620972 0.5276007056236267
0.24293990433216095 0.19715134799480438 0.6388872861862183
0.2007783204317093 0.12203032523393631 0.5093073844909668
0.3034757077693939 0.24300973117351532 0.6523879170417786
0.38962462544441223 0.25356525182724 0.5509791374206543
0.21363264322280884 0.23785217106342316 0.4713781476020813
0.3219560980796814 0.2667342722415924 0.5656251907348633
0.31002816557884216 0.2147105187177658 0.5038575530052185
0.288104772567749 0.2458813637495041 0.6205220818519592
0.3482673466205597 0.11273825168609619 0.6362239122390747
0.37065619230270386 0.17570310831069946 0.486409455537796
0.32664039731025696 0.20777200162410736 0.49079734086990356
0.2909044027328491 0.14404162764549255 0.6680983901023865
0.3760451674461365 0.15553444623947144 0.6332894563674927
0.28338348865509033 0.2553444504737854 0.49753788113594055
0.33571866154670715 0.16352297365665436 0.5662244558334351
0.2438393235206604 0.25065550208091736 0.5002363324165344
0.2869238555431366 0.23039962351322174 0.47641193866729736
0.2931253910064697 0.17211687564849854 0.6136224865913391
0.2552449107170105 0.12141154706478119 0.5482110381126404
0.22836025059223175 0.2450413554906845 0.5430355668067932
0.20434662699699402 0.14055107533931732 0.623979389667511
0.35352471470832825 0.25766387581825256 0.6328228116035461
0.3060432970523834 0.15090696513652802 0.6610142588615417
0.37565919756889343 0.21750226616859436 0.5292693376541138
0.2907426953315735 0.14129914343357086 0.5906582474708557
0.3042938709259033 0.1584913432598114 0.5938166975975037
0.3615903854370117 0.12771697342395782 0.5175347924232483
0.318881094455719 0.16105391085147858 0.5287459492683411
0.3075330853462219 0.169569194316864 0.5921616554260254
0.19966115057468414 0.15664814412593842 0.5455058217048645
0.239600270986557 0.28985485434532166 0.498113751411438
0.29632434248924255 0.2808825671672821 0.5724931955337524
0.25022730231285095 0.11581473797559738 0.631756067276001
0.3364565968513489 0.21481022238731384 0.5852381587028503
0.3748226463794708 0.2191019207239151 0.6082338690757751
0.37433376908302307 0.1557980328798294 0.6255523562431335
0.36136671900749207 0.2700662910938263 0.6157432198524475
0.2825299799442291 0.12486696243286133 0.5808886289596558
0.20143871009349823 0.17256444692611694 0.4767826497554779
0.24909742176532745 0.29099002480506897 0.6428560614585876
0.35518819093704224 0.11470983922481537 0.4747166931629181
0.19234010577201843 0.12795260548591614 0.5967876315116882
0.27199187874794006 0.15744929015636444 0.5466634035110474
0.32399982213974 0.25429239869117737 0.4782033860683441
0.3803331255912781 0.18349120020866394 0.5249558687210083
0.2807851731777191 0.21503062546253204 0.4997421205043793
0.36269351840019226 0.10886365175247192 0.5329335331916809
0.27822306752204895 0.12613838911056519 0.5217495560646057
0.3531816303730011 0.15913403034210205 0.49429836869239807
0.2617855370044708 0.16321147978305817 0.4963071942329407
0.36338892579078674 0.11599534004926682 0.46809664368629456
0.38115453720092773 0.2352113127708435 0.5285970568656921
0.321381151676178 0.16607239842414856 0.5082626938819885
0.22527877986431122 0.1283433437347412 0.5098501443862915
0.21395115554332733 0.2212609499692917 0.48010748624801636
0.262346088886261 0.2885114848613739 0.49980399012565613
0.3380400836467743 0.14061152935028076 0.5341556668281555
0.2552449107170105 0.12141154706478119 0.5482110381126404
0.22836025059223175 0.2450413554906845 0.5430355668067932
0.20434662699699402 0.14055107533931732 0.623979389667511
0.3583686649799347 0.1826707273721695 0.6090053915977478
0.2685837149620056 0.1314542144536972 0.6208956837654114
0.33188652992248535 0.19359587132930756 0.5487201809883118
0.4024988114833832 0.23003190755844116 0.5028865337371826
0.29782477021217346 0.15111742913722992 0.5199312567710876
0.19681349396705627 0.16591745615005493 0.4773973822593689
0.33819758892059326 0.17972183227539062 0.6554848551750183
0.23754222691059113 0.13803225755691528 0.6391629576683044
0.4138866066932678 0.22563931345939636 0.5872650742530823
0.19256457686424255 0.15188302099704742 0.47696760296821594
0.3258805274963379 0.17925216257572174 0.5706241130828857
0.23854653537273407 0.16706395149230957 0.5903251767158508
0.3064408302307129 0.17527705430984497 0.6010880470275879
0.3297070860862732 0.27938395738601685 0.5117664933204651
0.3909251391887665 0.22731898725032806 0.5154014825820923
0.3341172933578491 0.22283940017223358 0.4707694351673126
0.2846476435661316 0.11960854381322861 0.5436307787895203
0.18995171785354614 0.17971712350845337 0.6142296195030212
0.39328473806381226 0.24883079528808594 0.4792071580886841
0.3429953157901764 0.16681501269340515 0.5935354828834534
0.19911552965641022 0.13449838757514954 0.45307034254074097
0.4090495705604553 0.19377213716506958 0.5134215354919434
0.2849090099334717 0.17149174213409424 0.5938513278961182
0.4087420701980591 0.1860472708940506 0.5009982585906982
0.28313568234443665 0.16330239176750183 0.5950005054473877
0.21574382483959198 0.19684289395809174 0.6106659173965454
0.30467689037323 0.2884429097175598 0.4974682629108429
0.23871278762817383 0.23054584860801697 0.6467558741569519
0.3208547532558441 0.19561152160167694 0.5946041345596313
0.2470976859331131 0.24546551704406738 0.4889514446258545
0.31850287318229675 0.27200761437416077 0.5258030295372009
0.23746183514595032 0.14744015038013458 0.5652776956558228
0.37879297137260437 0.2328062802553177 0.6684654951095581
0.3417867422103882 0.21824803948402405 0.5822886228561401
0.2165960669517517 0.1195685863494873 0.5023763179779053
0.26111894845962524 0.14683865010738373 0.5046008825302124
0.32664039731025696 0.20777200162410736 0.49079734086990356
0.2909044027328491 0.14404162764549255 0.6680983901023865
0.3760451674461365 0.15553444623947144 0.6332894563674927
0.2519157826900482 0.11615652590990067 0.6606304049491882
0.21996204555034637 0.24966154992580414 0.5831368565559387
0.2541789412498474 0.20937131345272064 0.4679083824157715
0.2491672784090042 0.2652447819709778 0.5942626595497131
0.2992677688598633 0.18478287756443024 0.4887634515762329
0.30625995993614197 0.11392956227064133 0.5978588461875916
0.2919236421585083 0.15710406005382538 0.5780380964279175
0.2552449107170105 0.12141154706478119 0.5482110381126404
0.22836025059223175 0.2450413554906845 0.5430355668067932
0.20434662699699402 0.14055107533931732 0.623979389667511
0.3583686649799347 0.1826707273721695 0.6090053915977478
0.2685837149620056 0.1314542144536972 0.6208956837654114
0.33188652992248535 0.19359587132930756 0.5487201809883118
0.30893680453300476 0.16320450603961945 0.6001763343811035
0.2790941596031189 0.22241920232772827 0.6468894481658936
0.18965847790241241 0.16372713446617126 0.5364089608192444
0.27920058369636536 0.2845641076564789 0.5209118723869324
0.19966115057468414 0.15664814412593842 0.5455058217048645
0.239600270986557 0.28985485434532166 0.498113751411438
0.2792107164859772 0.27014273405075073 0.5044151544570923
0.2327204942703247 0.18035948276519775 0.583775520324707
0.349467009305954 0.14584410190582275 0.5936060547828674
