ply
format ascii 1.0
element vertex 824
property float x
property float y
property float z
end_header
0.3161396086215973 0.21774758398532867 0.6590046286582947
0.4061640501022339 0.24529342353343964 0.6265279054641724
0.2291720062494278 0.1820925623178482 0.5168001651763916
0.20626923441886902 0.1485464721918106 0.6399116516113281
0.3642740547657013 0.13623228669166565 0.6658593416213989
0.2951933443546295 0.2086138278245926 0.5860815644264221
0.38529738783836365 0.24331507086753845 0.524349570274353
0.4127497971057892 0.24927327036857605 0.5912889838218689
0.3675517141819 0.1324998289346695 0.5500008463859558
0.18291063606739044 0.1385635882616043 0.5140846371650696
0.3687443733215332 0.10672278702259064 0.49749261140823364
0.34614261984825134 0.23890729248523712 0.656150758266449
0.23129341006278992 0.24159544706344604 0.4925694763660431
0.3145971894264221 0.12850844860076904 0.5086703896522522
0.25263479351997375 0.12411494553089142 0.5652630925178528
0.4095717966556549 0.22496947646141052 0.5460812449455261
0.21258331835269928 0.1857258528470993 0.5807827115058899
0.32818958163261414 0.2338939756155014 0.5247460007667542
0.34432128071784973 0.13820433616638184 0.5555192232131958
0.38854584097862244 0.183756485581398 0.6743997931480408
0.3027118146419525 0.1941268891096115 0.5180047750473022
0.27818241715431213 0.11927691847085953 0.610371470451355
0.32976460456848145 0.23136435449123383 0.5585481524467468
0.26720017194747925 0.20850417017936707 0.5559043884277344
0.41015297174453735 0.21191391348838806 0.5157780647277832
0.23209771513938904 0.24444057047367096 0.6367006897926331
0.37671539187431335 0.1900465190410614 0.5174927115440369
0.2645249366760254 0.13729579746723175 0.5818597078323364
0.2186105102300644 0.15844129025936127 0.5038875937461853
0.36013972759246826 0.1619299054145813 0.5028088092803955
0.32300233840942383 0.22050921618938446 0.6550807952880859
0.21925000846385956 0.1258912980556488 0.48314255475997925
0.2291720062494278 0.1820925623178482 0.5168001651763916
0.20626923441886902 0.1485464721918106 0.6399116516113281
0.3642740547657013 0.13623228669166565 0.6658593416213989
0.2149444967508316 0.13056153059005737 0.6013762354850769
0.2633480131626129 0.15966767072677612 0.49459007382392883
0.18907423317432404 0.1391868144273758 0.6309227347373962
0.3687443733215332 0.10672278702259064 0.49749261140823364
0.34614261984825134 0.23890729248523712 0.656150758266449
0.23129341006278992 0.24159544706344604 0.4925694763660431
0.35721614956855774 0.14785414934158325 0.5313261151313782
0.3572162389755249 0.14785411953926086 0.5313262343406677
0.4095717966556549 0.22496947646141052 0.5460812449455261
0.21258331835269928 0.1857258528470993 0.5807827115058899
0.32818958163261414 0.2338939756155014 0.5247460007667542
0.22297295928001404 0.2334955483675003 0.5883287787437439
0.344241738319397 0.27495139837265015 0.6260738372802734
0.38854584097862244 0.183756485581398 0.6743997931480408
0.23131537437438965 0.11552295088768005 0.5968629121780396
0.27818241715431213 0.11927691847085953 0.610371470451355
0.26720017194747925 0.20850417017936707 0.5559043884277344
0.37901902198791504 0.14513075351715088 0.5242037177085876
0.2820891737937927 0.17207378149032593 0.49951890110969543
0.3841007351875305 0.16396911442279816 0.5003340840339661
0.2983730435371399 0.28379523754119873 0.5159602165222168
0.384893536567688 0.2513427138328552 0.5267103314399719
0.3591479957103729 0.2506580650806427 0.5675784945487976
0.31422722339630127 0.24725182354450226 0.5758699774742126
0.31697171926498413 0.21209116280078888 0.6035336852073669
0.21747423708438873 0.22378070652484894 0.5485135912895203
0.230322927236557 0.23489201068878174 0.48106813430786133
0.29046571254730225 0.22110514342784882 0.6325067281723022
0.3100697100162506 0.27870726585388184 0.5971358418464661
0.39005976915359497 0.15835091471672058 0.5013468861579895
0.26495593786239624 0.27913162112236023 0.47104018926620483
0.21318985521793365 0.1296471655368805 0.508884072303772
0.23041631281375885 0.20922839641571045 0.5310461521148682
0.3820969760417938 0.14773069322109222 0.5530808568000793
0.3409874737262726 0.17327354848384857 0.5479035973548889
0.36322301626205444 0.11367842555046082 0.6114976406097412
0.3349802494049072 0.21797063946723938 0.6552298069000244
0.23853753507137299 0.19626565277576447 0.5616217851638794
0.22025573253631592 0.20745088160037994 0.5068420171737671
0.276127427816391 0.1146116703748703 0.6047145128250122
0.32759594917297363 0.12445134669542313 0.5752378702163696
0.2177594006061554 0.1511286497116089 0.6306234002113342
0.3365551829338074 0.12593981623649597 0.49286964535713196
0.291115403175354 0.16858132183551788 0.6149203181266785
0.35721567273139954 0.25981974601745605 0.5785595774650574
0.3634808659553528 0.10278230905532837 0.5269233584403992
0.25267183780670166 0.13437442481517792 0.5767038464546204
0.23377463221549988 0.14915728569030762 0.5308704972267151
0.2694242298603058 0.13345399498939514 0.6586474776268005
0.360163152217865 0.2214740663766861 0.6502766609191895
0.2262497991323471 0.17197567224502563 0.5766682028770447
0.27101945877075195 0.2968689501285553 0.569798469543457
0.21810397505760193 0.1457464098930359 0.6369988918304443
0.23209771513938904 0.24444057047367096 0.6367006897926331
0.1915043592453003 0.14360417425632477 0.5438126921653748
0.27739766240119934 0.193974569439888 0.4832368493080139
0.2397369146347046 0.11926965415477753 0.5445677638053894
0.2569562494754791 0.29106155037879944 0.45185357332229614
0.28648295998573303 0.19827081263065338 0.49024564027786255
0.32178422808647156 0.1862865686416626 0.5384949445724487
0.3662249445915222 0.1337863653898239 0.5452526211738586
0.3669322729110718 0.11069775372743607 0.5472545027732849
0.29128965735435486 0.25445181131362915 0.5935308933258057
0.3535873293876648 0.21453261375427246 0.561456561088562
0.24802643060684204 0.22774192690849304 0.5615055561065674
0.39436182379722595 0.12498561292886734 0.47577932476997375
0.2851712107658386 0.1143990159034729 0.5866435170173645
0.27597543597221375 0.1423662304878235 0.6586729884147644
0.33454468846321106 0.23036737740039825 0.5598990321159363
0.390641450881958 0.21927641332149506 0.6293877959251404
0.2694565951824188 0.14449384808540344 0.5536070466041565
0.3419896066188812 0.1265708953142166 0.5576630234718323
0.19471988081932068 0.179453045129776 0.5561213493347168
0.2824092209339142 0.2941325902938843 0.6259402632713318
0.34167733788490295 0.19735278189182281 0.5127868056297302
0.37333571910858154 0.18454881012439728 0.6393862366676331
0.2949618995189667 0.2542163133621216 0.6406623125076294
0.22850723564624786 0.2504909336566925 0.5260261297225952
0.33655279874801636 0.1376257985830307 0.6657885313034058
0.2691078186035156 0.29601049423217773 0.5789187550544739
0.3421376645565033 0.20012541115283966 0.6533938646316528
0.36224445700645447 0.19723129272460938 0.5667756795883179
0.26333311200141907 0.2367347925901413 0.48947861790657043
0.23349107801914215 0.2445429265499115 0.6039775609970093
0.3595949113368988 0.2185928374528885 0.620816171169281
0.3853474259376526 0.166648268699646 0.5691450834274292
0.3791748881340027 0.16924023628234863 0.5781129598617554
0.26526010036468506 0.15966886281967163 0.620308518409729
0.3591479957103729 0.2506580650806427 0.5675784945487976
0.31422722339630127 0.24725182354450226 0.5758699774742126
0.31697171926498413 0.21209116280078888 0.6035336852073669
0.21747423708438873 0.22378070652484894 0.5485135912895203
0.230322927236557 0.23489201068878174 0.48106813430786133
0.29046571254730225 0.22110514342784882 0.6325067281723022
0.3100697100162506 0.27870726585388184 0.5971358418464661
0.39005976915359497 0.15835091471672058 0.5013468861579895
0.26495593786239624 0.27913162112236023 0.47104018926620483
0.21318985521793365 0.1296471655368805 0.508884072303772
0.23041631281375885 0.20922839641571045 0.5310461521148682
0.3820969760417938 0.14773069322109222 0.5530808568000793
0.3239830434322357 0.1641673445701599 0.6528570652008057
0.39002954959869385 0.19830265641212463 0.6131819486618042
0.21198470890522003 0.15661093592643738 0.6512662768363953
0.3215959668159485 0.12890507280826569 0.5800570249557495
0.22260959446430206 0.1223439872264862 0.4614621102809906
0.25734037160873413 0.29872456192970276 0.5599836111068726
0.3630613088607788 0.10603372752666473 0.4914093017578125
0.2960131764411926 0.2195538729429245 0.5121505260467529
0.34311017394065857 0.17998957633972168 0.6282440423965454
0.3517407178878784 0.18584175407886505 0.4687112867832184
0.24112947285175323 0.2530301809310913 0.615265965461731
0.27420109510421753 0.29207369685173035 0.45562130212783813
0.2544211745262146 0.2688741683959961 0.6045318841934204
0.3730655610561371 0.10674672573804855 0.5208401679992676
0.2222222238779068 0.1448216736316681 0.4628831446170807
0.26308533549308777 0.25482749938964844 0.6255142092704773
0.30502575635910034 0.1384950578212738 0.5803289413452148
0.20279045403003693 0.14504726231098175 0.6221498847007751
0.3662249445915222 0.1337863653898239 0.5452526211738586
0.3669322729110718 0.11069775372743607 0.5472545027732849
0.29128965735435486 0.25445181131362915 0.5935308933258057
0.3535873293876648 0.21453261375427246 0.561456561088562
0.24802643060684204 0.22774192690849304 0.5615055561065674
0.39436182379722595 0.12498561292886734 0.47577932476997375
0.2851712107658386 0.1143990159034729 0.5866435170173645
0.27597543597221375 0.1423662304878235 0.6586729884147644
0.33454468846321106 0.23036737740039825 0.5598990321159363
0.3477399945259094 0.22303038835525513 0.5109268426895142
0.3906513452529907 0.21953310072422028 0.6290832161903381
0.26010894775390625 0.11461727321147919 0.5542399883270264
0.3631277084350586 0.12110511213541031 0.6787589192390442
0.327932745218277 0.17898990213871002 0.5722779631614685
0.27998581528663635 0.262548565864563 0.5170081853866577
0.2681295871734619 0.2791213095188141 0.4890916049480438
0.21403005719184875 0.1403902918100357 0.574284017086029
0.37333571910858154 0.18454881012439728 0.6393862366676331
0.2949618995189667 0.2542163133621216 0.6406623125076294
0.22850723564624786 0.2504909336566925 0.5260261297225952
0.33655279874801636 0.1376257985830307 0.6657885313034058
0.2691078186035156 0.29601049423217773 0.5789187550544739
0.3421376645565033 0.20012541115283966 0.6533938646316528
0.36224445700645447 0.19723129272460938 0.5667756795883179
0.30957677960395813 0.12969987094402313 0.6078930497169495
0.23586347699165344 0.2189437299966812 0.6256887316703796
0.23349107801914215 0.2445429265499115 0.6039775609970093
0.3595949113368988 0.2185928374528885 0.620816171169281
0.21920916438102722 0.16564400494098663 0.6352909207344055
0.2291150987148285 0.29662519693374634 0.6396547555923462
0.2023162990808487 0.20268045365810394 0.5388298630714417
0.4126623868942261 0.2259421944618225 0.5550650954246521
0.3662249445915222 0.1337863653898239 0.5452526211738586
0.3535873293876648 0.21453261375427246 0.561456561088562
0.24802643060684204 0.22774192690849304 0.5615055561065674
0.39436182379722595 0.12498561292886734 0.47577932476997375
0.2851712107658386 0.1143990159034729 0.5866435170173645
0.27597543597221375 0.1423662304878235 0.6586729884147644
0.3477399945259094 0.22303038835525513 0.5109268426895142
0.3906513452529907 0.21953310072422028 0.6290832161903381
0.26010894775390625 0.11461727321147919 0.5542399883270264
0.3631277084350586 0.12110511213541031 0.6787589192390442
0.327932745218277 0.17898990213871002 0.5722779631614685
0.27998581528663635 0.262548565864563 0.5170081853866577
0.2681295871734619 0.2791213095188141 0.4890916049480438
0.21403005719184875 0.1403902918100357 0.574284017086029
0.3837723433971405 0.18589970469474792 0.5550874471664429
0.22159503400325775 0.23763638734817505 0.5452718734741211
0.24390265345573425 0.13018958270549774 0.6568969488143921
0.3073045611381531 0.1533804088830948 0.5932045578956604
0.20729294419288635 0.12027299404144287 0.5398514866828918
0.2541356682777405 0.2117389738559723 0.5926970839500427
0.375761479139328 0.18371887505054474 0.651029646396637
0.2881956994533539 0.19707830250263214 0.5599760413169861
0.40754494071006775 0.18151696026325226 0.5385464429855347
0.23349107801914215 0.2445429265499115 0.6039775609970093
0.3595949113368988 0.2185928374528885 0.620816171169281
0.21920916438102722 0.16564400494098663 0.6352909207344055
0.2291150987148285 0.29662519693374634 0.6396547555923462
0.2023162990808487 0.20268045365810394 0.5388298630714417
0.35885557532310486 0.21274983882904053 0.5160449147224426
0.3771775960922241 0.11193802952766418 0.5568474531173706
0.29620224237442017 0.1906932294368744 0.6483097672462463
0.2100902646780014 0.15991809964179993 0.45511236786842346
0.3100697100162506 0.27870726585388184 0.5971358418464661
0.39005976915359497 0.15835091471672058 0.5013468861579895
0.26495593786239624 0.27913162112236023 0.47104018926620483
0.21318985521793365 0.1296471655368805 0.508884072303772
0.23041631281375885 0.20922839641571045 0.5310461521148682
0.3820969760417938 0.14773069322109222 0.5530808568000793
0.3409874737262726 0.17327354848384857 0.5479035973548889
0.36322301626205444 0.11367842555046082 0.6114976406097412
0.3349802494049072 0.21797063946723938 0.6552298069000244
0.34508082270622253 0.12078318744897842 0.5209550261497498
0.2545337975025177 0.24273674190044403 0.61244797706604
0.36384138464927673 0.16892153024673462 0.6343186497688293
0.33351874351501465 0.13390173017978668 0.48516640067100525
0.30369824171066284 0.10877975076436996 0.5402188897132874
0.21831677854061127 0.18372899293899536 0.473440945148468
0.2402203530073166 0.15475840866565704 0.47682616114616394
0.24848352372646332 0.173386350274086 0.6112850904464722
0.3782423138618469 0.17085424065589905 0.5648196935653687
0.35615092515945435 0.19857805967330933 0.5229113101959229
0.2904229760169983 0.2839302718639374 0.5538482069969177
0.3111518919467926 0.21346762776374817 0.5230464339256287
0.29506638646125793 0.19724439084529877 0.513840913772583
0.380809485912323 0.20695555210113525 0.4994800090789795
0.25330424308776855 0.11778119951486588 0.5863450765609741
0.3670886158943176 0.21833783388137817 0.5443692207336426
0.26091116666793823 0.278941810131073 0.47785741090774536
0.16108576953411102 0.12990045547485352 0.6432931423187256
0.32461607456207275 0.14259228110313416 0.6626225113868713
0.3850555419921875 0.21838408708572388 0.6017268300056458
0.31022027134895325 0.12801234424114227 0.6499972939491272
0.21272128820419312 0.18631981313228607 0.5813011527061462
0.30769622325897217 0.17422789335250854 0.49731579422950745
0.3409874737262726 0.17327354848384857 0.5479035973548889
0.36322301626205444 0.11367842555046082 0.6114976406097412
0.3349802494049072 0.21797063946723938 0.6552298069000244
0.23853753507137299 0.19626565277576447 0.5616217851638794
0.22025573253631592 0.20745088160037994 0.5068420171737671
0.276127427816391 0.1146116703748703 0.6047145128250122
0.32759594917297363 0.12445134669542313 0.5752378702163696
0.2177594006061554 0.1511286497116089 0.6306234002113342
0.3365551829338074 0.12593981623649597 0.49286964535713196
0.291115403175354 0.16858132183551788 0.6149203181266785
0.35721567273139954 0.25981974601745605 0.5785595774650574
0.3634808659553528 0.10278230905532837 0.5269233584403992
0.25267183780670166 0.13437442481517792 0.5767038464546204
0.23377463221549988 0.14915728569030762 0.5308704972267151
0.28165745735168457 0.12854191660881042 0.5820333361625671
0.28652137517929077 0.2623940110206604 0.4664980173110962
0.24538123607635498 0.280964195728302 0.6090225577354431
0.349705308675766 0.13672871887683868 0.5368356704711914
0.28000447154045105 0.27739760279655457 0.5150921940803528
0.32990962266921997 0.16693426668643951 0.5894513130187988
0.24446061253547668 0.2163889855146408 0.6321897506713867
0.2435452938079834 0.263287216424942 0.48060983419418335
0.2542347013950348 0.29752981662750244 0.48139750957489014
0.20924952626228333 0.20529353618621826 0.5709792971611023
0.367264062166214 0.1375276893377304 0.510927140712738
0.26548445224761963 0.1958664357662201 0.6550641059875488
0.30401572585105896 0.21455751359462738 0.6184406876564026
0.32705333828926086 0.17857247591018677 0.5519017577171326
0.31792157888412476 0.1430996209383011 0.48840662837028503
0.3789941966533661 0.17710839211940765 0.6419181227684021
0.3104257881641388 0.1651851236820221 0.5483447313308716
0.30769622325897217 0.17422789335250854 0.49731579422950745
0.29488471150398254 0.1406053751707077 0.6054942011833191
0.19856545329093933 0.20643405616283417 0.5822030901908875
0.2252195179462433 0.1283286213874817 0.5642194747924805
0.26759853959083557 0.29158487915992737 0.5703460574150085
0.3614002764225006 0.10529555380344391 0.5850323438644409
0.32891273498535156 0.1679721176624298 0.5256853699684143
0.39759865403175354 0.25338900089263916 0.503429114818573
0.19840174913406372 0.1808558702468872 0.5749062895774841
0.3553865849971771 0.12028065323829651 0.6427333950996399
0.30502575635910034 0.1384950578212738 0.5803289413452148
0.28116774559020996 0.2189570963382721 0.6565271019935608
0.30206069350242615 0.2373608648777008 0.46786943078041077
0.3823966085910797 0.20773911476135254 0.6556745767593384
0.3422123193740845 0.11149687319993973 0.6010509729385376
0.38357412815093994 0.15116815268993378 0.6420846581459045
0.306345134973526 0.2853766977787018 0.6440756320953369
0.2855105698108673 0.11924515664577484 0.5596423149108887
0.3123319149017334 0.15439634025096893 0.6193958520889282
0.40214672684669495 0.15741419792175293 0.4752362370491028
0.27846547961235046 0.19314457476139069 0.6509290337562561
0.3253288269042969 0.1377003937959671 0.5621766448020935
0.3820333182811737 0.15866994857788086 0.6002291440963745
0.4172412157058716 0.24177086353302002 0.5144085884094238
0.3025047183036804 0.11869702488183975 0.5589258074760437
0.21113111078739166 0.11820680648088455 0.5395148396492004
0.37183359265327454 0.11972401291131973 0.6141883134841919
0.33424535393714905 0.141713947057724 0.6601786613464355
0.2933496832847595 0.13449810445308685 0.474886953830719
0.2875342071056366 0.1282268762588501 0.5773317813873291
0.27409929037094116 0.19477517902851105 0.6022374033927917
0.339446485042572 0.10770905017852783 0.5564669370651245
0.3853474259376526 0.166648268699646 0.5691450834274292
0.253834068775177 0.2834798991680145 0.6031280159950256
0.24032782018184662 0.24492327868938446 0.5398683547973633
0.2453504502773285 0.22356121242046356 0.5861169695854187
0.33860668540000916 0.12177503108978271 0.522417426109314
0.26677852869033813 0.1990271806716919 0.4939880967140198
0.36391782760620117 0.26047101616859436 0.4743376672267914
0.27655088901519775 0.1969679892063141 0.5923835039138794
0.36314359307289124 0.25157368183135986 0.5306397080421448
0.2273281067609787 0.13094745576381683 0.5063981413841248
0.22162295877933502 0.1982623040676117 0.4871944487094879
0.4222336411476135 0.23290053009986877 0.5211182832717896
0.2589268088340759 0.1128639206290245 0.522930920124054
0.23374412953853607 0.1921989768743515 0.6153013706207275
0.34412655234336853 0.22967654466629028 0.5661974549293518
0.2864716053009033 0.18167434632778168 0.645954430103302
0.3857497572898865 0.25111716985702515 0.5655232071876526
0.3029687702655792 0.21860748529434204 0.5715121626853943
0.282573401927948 0.24813072383403778 0.6452305912971497
0.2711018919944763 0.2225022166967392 0.589219331741333
0.20417703688144684 0.16857415437698364 0.4867468774318695
0.24688121676445007 0.1950819045305252 0.5427476763725281
0.27052104473114014 0.2907402515411377 0.6132230162620544
0.3159213662147522 0.17615878582000732 0.48333996534347534
0.29054197669029236 0.17237868905067444 0.625073254108429
0.27830764651298523 0.18065708875656128 0.644831657409668
0.29476845264434814 0.28872057795524597 0.6231671571731567
0.3226756155490875 0.26733100414276123 0.577671468257904
0.3817031979560852 0.17305594682693481 0.654030978679657
0.32946258783340454 0.2031095176935196 0.641924262046814
0.26186615228652954 0.19450348615646362 0.520829439163208
0.30753108859062195 0.12018029391765594 0.6539823412895203
0.32976460456848145 0.23136435449123383 0.5585481524467468
0.2536661624908447 0.14167535305023193 0.5785948634147644
0.36159759759902954 0.18347378075122833 0.67105633020401
0.3880210816860199 0.22867034375667572 0.527532160282135
0.28141435980796814 0.24081075191497803 0.48647499084472656
0.22594866156578064 0.1988801658153534 0.5695472955703735
0.37626150250434875 0.12174388766288757 0.5334622859954834
0.23985958099365234 0.17038464546203613 0.6412899494171143
0.35761433839797974 0.16578176617622375 0.656633734703064
0.25386887788772583 0.20220908522605896 0.5886769890785217
0.28946781158447266 0.21668599545955658 0.6477940082550049
0.1849750578403473 0.13885952532291412 0.5448469519615173
0.30142930150032043 0.15397965908050537 0.5566699504852295
0.3744468688964844 0.20089299976825714 0.5487905740737915
0.2824684977531433 0.2558441758155823 0.4824639856815338
0.26087960600852966 0.27880820631980896 0.4521549344062805
0.28481683135032654 0.14571551978588104 0.4796057939529419
0.41138213872909546 0.19593842327594757 0.48940834403038025
0.3594360649585724 0.15691763162612915 0.5827962160110474
0.2804592251777649 0.1296612173318863 0.6606900691986084
0.21787092089653015 0.15414558351039886 0.4850682020187378
0.30911287665367126 0.20166338980197906 0.5498259663581848
0.4035443663597107 0.19483958184719086 0.5198541879653931
0.24008682370185852 0.1760261356830597 0.6384026408195496
0.2958589196205139 0.10917317122220993 0.5230588912963867
0.2270653247833252 0.16480721533298492 0.4729345738887787
0.3506739139556885 0.23727907240390778 0.4943075180053711
0.29071834683418274 0.2022591382265091 0.4580681025981903
0.22454480826854706 0.17221814393997192 0.5910359621047974
0.3370184302330017 0.26648133993148804 0.5540184378623962
0.3876299262046814 0.22320859134197235 0.4996432363986969
0.1842479258775711 0.13115623593330383 0.6109430193901062
0.26720017194747925 0.20850417017936707 0.5559043884277344
0.3820969760417938 0.14773069322109222 0.5530808568000793
0.3409874737262726 0.17327354848384857 0.5479035973548889
0.36322301626205444 0.11367842555046082 0.6114976406097412
0.36322301626205444 0.11367842555046082 0.6114976406097412
0.3349802494049072 0.21797063946723938 0.6552298069000244
0.23853753507137299 0.19626565277576447 0.5616217851638794
0.2177594006061554 0.1511286497116089 0.6306234002113342
0.3365551829338074 0.12593981623649597 0.49286964535713196
0.291115403175354 0.16858132183551788 0.6149203181266785
0.35721567273139954 0.25981974601745605 0.5785595774650574
0.35721567273139954 0.25981974601745605 0.5785595774650574
0.3634808659553528 0.10278230905532837 0.5269233584403992
0.25267183780670166 0.13437442481517792 0.5767038464546204
0.2868322730064392 0.26629337668418884 0.5928593277931213
0.2814752459526062 0.13414062559604645 0.6447201371192932
0.21026718616485596 0.15916427969932556 0.6417855620384216
0.2451384961605072 0.21554456651210785 0.5142989754676819
0.313664972782135 0.26517000794410706 0.5625319480895996
0.363126277923584 0.12425228208303452 0.5764632821083069
0.2969501316547394 0.2316056191921234 0.5137344598770142
0.3422123193740845 0.11149687319993973 0.6010509729385376
0.433418869972229 0.2438291758298874 0.5266062021255493
0.4020802080631256 0.1455540508031845 0.4861742854118347
0.24306559562683105 0.28983473777770996 0.6285563111305237
0.2829037010669708 0.1829286515712738 0.5065231323242188
0.24123400449752808 0.11821100860834122 0.6476725339889526
0.2270653247833252 0.16480721533298492 0.4729345738887787
0.3506739139556885 0.23727907240390778 0.4943075180053711
0.29071834683418274 0.2022591382265091 0.4580681025981903
0.22454480826854706 0.17221814393997192 0.5910359621047974
0.3370184302330017 0.26648133993148804 0.5540184378623962
0.3662249445915222 0.1337863653898239 0.5452526211738586
0.2605251371860504 0.1624574214220047 0.6218076944351196
0.33132532238960266 0.10541096329689026 0.6229493618011475
0.24831673502922058 0.18114663660526276 0.4631735384464264
0.26242488622665405 0.2829819321632385 0.5709555745124817
0.21251235902309418 0.11853810399770737 0.47295334935188293
0.3447749614715576 0.16731944680213928 0.5593793392181396
0.30372700095176697 0.12975451350212097 0.6325483918190002
0.4161125421524048 0.2062864452600479 0.514022946357727
0.2651890814304352 0.1628371775150299 0.583648145198822
0.2777571976184845 0.15677927434444427 0.6423481106758118
0.3770943880081177 0.17902706563472748 0.6618630886077881
0.32241925597190857 0.1695529818534851 0.5797353982925415
0.25114914774894714 0.12910118699073792 0.5060285925865173
0.30161648988723755 0.16070277988910675 0.49758702516555786
0.2593034505844116 0.11330187320709229 0.5785481929779053
0.26964709162712097 0.16368848085403442 0.562152624130249
0.2249852865934372 0.1585369110107422 0.5202967524528503
0.34086593985557556 0.14765574038028717 0.6733879446983337
0.3907510042190552 0.15840770304203033 0.5776733756065369
0.39307138323783875 0.2218439131975174 0.6254163980484009
0.3698371350765228 0.24786971509456635 0.5687539577484131
0.2813584804534912 0.13909654319286346 0.6398708820343018
0.22817416489124298 0.2220507115125656 0.5719964504241943
0.30472880601882935 0.21704770624637604 0.514159083366394
0.30472880601882935 0.21704770624637604 0.514159083366394
0.33277347683906555 0.24828220903873444 0.592657744884491
0.30029499530792236 0.241123229265213 0.5472308397293091
0.3157350420951843 0.17569759488105774 0.5433545112609863
0.19247281551361084 0.16077762842178345 0.4760548174381256
0.26670750975608826 0.1985427886247635 0.5978900790214539
0.3954926133155823 0.25392797589302063 0.5047033429145813
0.2291150987148285 0.29662519693374634 0.6396547555923462
0.22817416489124298 0.2220507115125656 0.5719964504241943
0.30472880601882935 0.21704770624637604 0.514159083366394
0.33277347683906555 0.24828220903873444 0.592657744884491
0.30029499530792236 0.241123229265213 0.5472308397293091
0.3157350420951843 0.17569759488105774 0.5433545112609863
0.19247281551361084 0.16077762842178345 0.4760548174381256
0.26670750975608826 0.1985427886247635 0.5978900790214539
0.3954926133155823 0.25392797589302063 0.5047033429145813
0.35446077585220337 0.1696818470954895 0.5061531662940979
0.22022439539432526 0.19653646647930145 0.5614991188049316
0.2790302336215973 0.17868663370609283 0.48151302337646484
0.39652886986732483 0.18220685422420502 0.6180725693702698
0.23908932507038116 0.16027815639972687 0.537652313709259
0.3664272129535675 0.12112165987491608 0.5909737348556519
0.37131330370903015 0.1467311978340149 0.5079533457756042
0.34820660948753357 0.21577982604503632 0.6353445053100586
0.26753485202789307 0.27219557762145996 0.5189627408981323
0.3075823187828064 0.12391944974660873 0.657604455947876
0.338381290435791 0.24199193716049194 0.6098945736885071
0.192660391330719 0.16241644322872162 0.5031124353408813
0.4253678619861603 0.24112702906131744 0.4988683760166168
0.28993237018585205 0.2605493664741516 0.6021220684051514
0.19144879281520844 0.13368311524391174 0.558191180229187
0.39199626445770264 0.18678775429725647 0.5402339100837708
0.22370730340480804 0.14374037086963654 0.563452959060669
0.23340244591236115 0.15257637202739716 0.5334964990615845
0.31437310576438904 0.11533856391906738 0.5104469656944275
0.253834068775177 0.2834798991680145 0.6031280159950256
0.31206026673316956 0.2557322382926941 0.5581502914428711
0.24035775661468506 0.18645474314689636 0.6251848936080933
0.18583041429519653 0.1560155153274536 0.5711183547973633
0.2976849377155304 0.27145540714263916 0.5913286805152893
0.3157350420951843 0.17569759488105774 0.5433545112609863
0.19247281551361084 0.16077762842178345 0.4760548174381256
0.26670750975608826 0.1985427886247635 0.5978900790214539
0.3954926133155823 0.25392797589302063 0.5047033429145813
0.23384545743465424 0.15304608643054962 0.5186679363250732
0.27216318249702454 0.11186806112527847 0.4954051375389099
0.2673201560974121 0.1650250107049942 0.661285936832428
0.19201859831809998 0.1234256699681282 0.5198628902435303
0.3393581211566925 0.10768038034439087 0.5178006291389465
0.2931188941001892 0.24609868228435516 0.6541138291358948
0.3279438316822052 0.10657981783151627 0.6431657075881958
0.3661108911037445 0.11686211824417114 0.5428057909011841
0.38487040996551514 0.23171886801719666 0.5836616158485413
0.2584754526615143 0.1652679741382599 0.547221839427948
0.3791748881340027 0.16924023628234863 0.5781129598617554
0.26526010036468506 0.15966886281967163 0.620308518409729
0.3591479957103729 0.2506580650806427 0.5675784945487976
0.31422722339630127 0.24725182354450226 0.5758699774742126
0.31697171926498413 0.21209116280078888 0.6035336852073669
0.21747423708438873 0.22378070652484894 0.5485135912895203
0.338381290435791 0.24199193716049194 0.6098945736885071
0.192660391330719 0.16241644322872162 0.5031124353408813
0.4253678619861603 0.24112702906131744 0.4988683760166168
0.28993237018585205 0.2605493664741516 0.6021220684051514
0.19144879281520844 0.13368311524391174 0.558191180229187
0.39199626445770264 0.18678775429725647 0.5402339100837708
0.22370730340480804 0.14374037086963654 0.563452959060669
0.23340244591236115 0.15257637202739716 0.5334964990615845
0.31437310576438904 0.11533856391906738 0.5104469656944275
0.253834068775177 0.2834798991680145 0.6031280159950256
0.24032782018184662 0.24492327868938446 0.5398683547973633
0.3483915627002716 0.12838031351566315 0.5791768431663513
0.22022439539432526 0.19653646647930145 0.5614991188049316
0.3454052209854126 0.22116661071777344 0.6278364658355713
0.36993086338043213 0.1361677050590515 0.6253373026847839
0.3297801911830902 0.24374128878116608 0.6090136170387268
0.4262479543685913 0.22372238337993622 0.49437740445137024
0.2672330439090729 0.1294640451669693 0.5722277164459229
0.36391782760620117 0.26047101616859436 0.4743376672267914
0.27655088901519775 0.1969679892063141 0.5923835039138794
0.36314359307289124 0.25157368183135986 0.5306397080421448
0.2273281067609787 0.13094745576381683 0.5063981413841248
0.22162295877933502 0.1982623040676117 0.4871944487094879
0.4222336411476135 0.23290053009986877 0.5211182832717896
0.2589268088340759 0.1128639206290245 0.522930920124054
0.23374412953853607 0.1921989768743515 0.6153013706207275
0.34412655234336853 0.22967654466629028 0.5661974549293518
0.2864716053009033 0.18167434632778168 0.645954430103302
0.3857497572898865 0.25111716985702515 0.5655232071876526
0.3029687702655792 0.21860748529434204 0.5715121626853943
0.282573401927948 0.24813072383403778 0.6452305912971497
0.2711018919944763 0.2225022166967392 0.589219331741333
0.20417703688144684 0.16857415437698364 0.4867468774318695
0.24688121676445007 0.1950819045305252 0.5427476763725281
0.27052104473114014 0.2907402515411377 0.6132230162620544
0.32374271750450134 0.14494827389717102 0.6498137712478638
0.23443399369716644 0.23005448281764984 0.5139854550361633
0.378593772649765 0.251675009727478 0.6305306553840637
0.3400239646434784 0.1745288074016571 0.6610772013664246
0.2760251760482788 0.14906567335128784 0.5374610424041748
0.16909240186214447 0.13188429176807404 0.5950868725776672
0.21674683690071106 0.19307748973369598 0.5776338577270508
0.40635454654693604 0.2026195526123047 0.6114063262939453
0.2931188941001892 0.24609868228435516 0.6541138291358948
0.25267183780670166 0.13437442481517792 0.5767038464546204
0.2868322730064392 0.26629337668418884 0.5928593277931213
0.2814752459526062 0.13414062559604645 0.6447201371192932
0.21026718616485596 0.15916427969932556 0.6417855620384216
0.2451384961605072 0.21554456651210785 0.5142989754676819
0.304791122674942 0.28719934821128845 0.567834734916687
0.363126277923584 0.12425228208303452 0.5764632821083069
0.29706206917762756 0.23131397366523743 0.513999879360199
0.2643146514892578 0.22597409784793854 0.653660774230957
0.2703607976436615 0.2973487079143524 0.5616968274116516
0.34207242727279663 0.26914024353027344 0.523352861404419
0.21927301585674286 0.12989042699337006 0.6263086795806885
0.2663917541503906 0.16274400055408478 0.6477336287498474
0.3598923087120056 0.2600178122520447 0.48166245222091675
0.3506739139556885 0.23727907240390778 0.4943075180053711
0.31792643666267395 0.22376401722431183 0.4909076988697052
0.3370184302330017 0.26648133993148804 0.5540184378623962
0.35855114459991455 0.13227102160453796 0.6176884174346924
0.2927321791648865 0.1476624310016632 0.528814971446991
0.2709594964981079 0.27929630875587463 0.5618001818656921
0.2332225739955902 0.12286599725484848 0.4699098765850067
0.29406076669692993 0.2098938226699829 0.5332939624786377
0.34309062361717224 0.23044325411319733 0.488632470369339
0.3321995735168457 0.22525158524513245 0.6535694599151611
0.2829279601573944 0.16580741107463837 0.5282291769981384
0.3399812877178192 0.26279446482658386 0.6223613619804382
0.25584203004837036 0.19126391410827637 0.5999282598495483
0.3376657962799072 0.16769228875637054 0.6534351110458374
0.3348788321018219 0.24681958556175232 0.5494205951690674
0.3009539842605591 0.17797906696796417 0.6643368601799011
0.2073652297258377 0.12617535889148712 0.4609394073486328
0.18583041429519653 0.1560155153274536 0.5711183547973633
0.24698799848556519 0.23695962131023407 0.6285561919212341
0.2805686891078949 0.292061448097229 0.5741711258888245
0.3892761468887329 0.23511451482772827 0.6010891795158386
0.3761887550354004 0.23311330378055573 0.6081191897392273
0.33505287766456604 0.15028472244739532 0.5820502638816833
0.3203067183494568 0.14996784925460815 0.5701088905334473
0.28835803270339966 0.2535046637058258 0.4689238965511322
0.3210675120353699 0.2066650390625 0.5380157232284546
0.3385094404220581 0.1520041972398758 0.6102593541145325
0.36569905281066895 0.2350524663925171 0.4656042158603668
0.27141013741493225 0.20495618879795074 0.507736325263977
0.39178070425987244 0.24361194670200348 0.5930413007736206
0.2324381023645401 0.1876511126756668 0.5271174311637878
0.3509162664413452 0.20369116961956024 0.5746374726295471
0.19796209037303925 0.16060370206832886 0.5679813623428345
0.3135616183280945 0.133800208568573 0.6340343952178955
0.24279581010341644 0.170697882771492 0.4617891311645508
0.32899054884910583 0.12750500440597534 0.48740798234939575
0.2997250258922577 0.197162926197052 0.5256821513175964
0.2762610614299774 0.1198759377002716 0.5312785506248474
0.2606832683086395 0.27222293615341187 0.5549243092536926
0.20474311709403992 0.18551944196224213 0.4681953191757202
0.38498619198799133 0.18777793645858765 0.5430992245674133
0.3904767334461212 0.14562463760375977 0.5543665289878845
0.27182555198669434 0.11946678161621094 0.5142818093299866
0.3229718506336212 0.15039315819740295 0.5727214813232422
0.2904967963695526 0.26680099964141846 0.5916796922683716
0.22610461711883545 0.15288197994232178 0.4541749358177185
0.19110123813152313 0.2036665976047516 0.6117658019065857
0.2605879306793213 0.23292896151542664 0.46350619196891785
0.18918795883655548 0.14813947677612305 0.5284009575843811
0.26814141869544983 0.2583169639110565 0.5952567458152771
0.3872722089290619 0.2556774914264679 0.6191586256027222
0.2318597286939621 0.13802528381347656 0.48220062255859375
0.37546440958976746 0.17398132383823395 0.5632948279380798
0.3930911421775818 0.24329866468906403 0.5444341897964478
0.2458520233631134 0.26421934366226196 0.6130669713020325
0.3210790157318115 0.13966190814971924 0.6148619651794434
0.24302276968955994 0.23548342287540436 0.4928736388683319
0.3739476203918457 0.17002305388450623 0.6726275682449341
0.31688469648361206 0.2086569368839264 0.646135687828064
0.2685184180736542 0.17945832014083862 0.5310505032539368
0.3524266481399536 0.2036011517047882 0.574783980846405
0.3132098317146301 0.1128048300743103 0.6111276745796204
0.2612469792366028 0.12042975425720215 0.5552792549133301
0.19131845235824585 0.14510321617126465 0.5540722012519836
0.33892443776130676 0.249238982796669 0.5270779728889465
0.274654746055603 0.20263954997062683 0.5735694766044617
0.27493178844451904 0.12235040962696075 0.5484992861747742
0.24644969403743744 0.17171600461006165 0.4742487668991089
0.27995237708091736 0.2043572962284088 0.6140134334564209
0.21676385402679443 0.1816856861114502 0.4693444073200226
0.4097004532814026 0.2358791083097458 0.4897266924381256
0.37007081508636475 0.2544125020503998 0.5214198231697083
0.23712526261806488 0.23310914635658264 0.5789583921432495
0.3492134213447571 0.23461781442165375 0.6425957679748535
0.3225843012332916 0.2849849462509155 0.6302001476287842
0.3462865352630615 0.14155595004558563 0.6578426957130432
0.2530519366264343 0.22144147753715515 0.6083047389984131
0.376111775636673 0.17471978068351746 0.5098594427108765
0.29410994052886963 0.2379121035337448 0.5641409158706665
0.33253157138824463 0.2300492823123932 0.6123093366622925
0.284787654876709 0.2277236431837082 0.5142996311187744
0.34385931491851807 0.16724880039691925 0.5333435535430908
0.35855114459991455 0.13227102160453796 0.6176884174346924
0.2927321791648865 0.1476624310016632 0.528814971446991
0.4174017608165741 0.1899481862783432 0.5101648569107056
0.34621721506118774 0.2109973430633545 0.4745781123638153
0.33661726117134094 0.20323452353477478 0.5542425513267517
0.3796619474887848 0.1255187690258026 0.48061248660087585
0.24930451810359955 0.15100331604480743 0.5625011324882507
0.22662252187728882 0.17963185906410217 0.6280707120895386
0.3436231017112732 0.24637210369110107 0.5912427306175232
0.29683420062065125 0.15624099969863892 0.5636029839515686
0.3465346693992615 0.25419512391090393 0.5794547200202942
0.3889404237270355 0.20446833968162537 0.6416113376617432
0.2468481808900833 0.1515320986509323 0.48203083872795105
0.32482901215553284 0.21360008418560028 0.609677255153656
0.26559847593307495 0.18005327880382538 0.5502703785896301
0.23596659302711487 0.11376958340406418 0.534846842288971
0.3461073338985443 0.24672888219356537 0.5876405835151672
0.26317715644836426 0.22880636155605316 0.5552477240562439
0.3791005611419678 0.18388596177101135 0.5905364155769348
0.3367031514644623 0.15992169082164764 0.5713096261024475
0.2431238889694214 0.2822299599647522 0.4961409866809845
0.3328839838504791 0.15806785225868225 0.6489924788475037
0.3856427073478699 0.13320745527744293 0.5086716413497925
0.2033105045557022 0.12774066627025604 0.6509401202201843
0.25575488805770874 0.2413226068019867 0.45808306336402893
0.21860764920711517 0.13055633008480072 0.5690557360649109
0.27090612053871155 0.12145612388849258 0.5125538110733032
0.2578950822353363 0.19049403071403503 0.6287418007850647
0.36740928888320923 0.13493742048740387 0.5493714809417725
0.2097187638282776 0.16684114933013916 0.6128713488578796
0.34734171628952026 0.17066590487957 0.6448469161987305
0.3422123193740845 0.11149687319993973 0.6010509729385376
0.32165658473968506 0.13958287239074707 0.5715367197990417
0.24126359820365906 0.19459258019924164 0.652016282081604
0.3666210472583771 0.17478834092617035 0.6670870780944824
0.2829279601573944 0.16580741107463837 0.5282291769981384
0.3399812877178192 0.26279446482658386 0.6223613619804382
0.25584203004837036 0.19126391410827637 0.5999282598495483
0.24661512672901154 0.22149387001991272 0.5002923011779785
0.3376657962799072 0.16769228875637054 0.6534351110458374
0.3348788321018219 0.24681958556175232 0.5494205951690674
0.3009539842605591 0.17797906696796417 0.6643368601799011
0.2073652297258377 0.12617535889148712 0.4609394073486328
0.31494632363319397 0.1542719155550003 0.501483142375946
0.37808993458747864 0.19505788385868073 0.5614107251167297
0.19624927639961243 0.17096029222011566 0.4989965856075287
0.39706292748451233 0.25816163420677185 0.6079058647155762
0.29079753160476685 0.272271990776062 0.49140456318855286
0.3843432366847992 0.12575599551200867 0.49991899728775024
0.27815261483192444 0.11249604821205139 0.5362370014190674
0.3351072072982788 0.16427665948867798 0.5793557167053223
0.2336970865726471 0.17589199542999268 0.6028076410293579
0.277155339717865 0.2608628273010254 0.45497509837150574
0.4121061861515045 0.24594320356845856 0.641445517539978
0.36336448788642883 0.14676670730113983 0.5859376192092896
0.4051629304885864 0.22468464076519012 0.6183956265449524
0.2033105045557022 0.12774066627025604 0.6509401202201843
0.25575488805770874 0.2413226068019867 0.45808306336402893
0.21860764920711517 0.13055633008480072 0.5690557360649109
0.27090612053871155 0.12145612388849258 0.5125538110733032
0.2578950822353363 0.19049403071403503 0.6287418007850647
0.36740928888320923 0.13493742048740387 0.5493714809417725
0.2097187638282776 0.16684114933013916 0.6128713488578796
0.21787092089653015 0.15414558351039886 0.4850682020187378
0.270247220993042 0.1340629905462265 0.5266240835189819
0.2810564637184143 0.13207866251468658 0.5555054545402527
0.36819031834602356 0.1660100817680359 0.6442933678627014
0.3453142046928406 0.2048395574092865 0.538975715637207
0.22667759656906128 0.16555483639240265 0.5371711254119873
0.2763175666332245 0.1930474489927292 0.5924988389015198
0.18779759109020233 0.15360459685325623 0.5198360681533813
0.2387101799249649 0.3008364737033844 0.5620084404945374
0.24294748902320862 0.12035630643367767 0.5354834198951721
0.24559246003627777 0.15400347113609314 0.49425822496414185
0.3351072072982788 0.16427665948867798 0.5793557167053223
0.2336970865726471 0.17589199542999268 0.6028076410293579
0.277155339717865 0.2608628273010254 0.45497509837150574
0.4121061861515045 0.24594320356845856 0.641445517539978
0.36336448788642883 0.14676670730113983 0.5859376192092896
0.4051629304885864 0.22468464076519012 0.6183956265449524
0.2033105045557022 0.12774066627025604 0.6509401202201843
0.25575488805770874 0.2413226068019867 0.45808306336402893
0.21860764920711517 0.13055633008480072 0.5690557360649109
0.27090612053871155 0.12145612388849258 0.5125538110733032
0.2578950822353363 0.19049403071403503 0.6287418007850647
0.36740928888320923 0.13493742048740387 0.5493714809417725
0.2097187638282776 0.16684114933013916 0.6128713488578796
0.34734171628952026 0.17066590487957 0.6448469161987305
0.3390636444091797 0.18160216510295868 0.6098049283027649
0.32086125016212463 0.2514771521091461 0.6141157150268555
0.2711772322654724 0.24813951551914215 0.6013584733009338
0.3695279657840729 0.130470871925354 0.4912387728691101
0.3941396474838257 0.2297462671995163 0.668552577495575
0.3851481080055237 0.12283032387495041 0.4711015224456787
0.2702898681163788 0.2745611071586609 0.47368648648262024
0.21787092089653015 0.15414558351039886 0.4850682020187378
0.3721419870853424 0.18026776611804962 0.6415572166442871
0.3495212495326996 0.18675248324871063 0.6401646733283997
0.20233631134033203 0.21953584253787994 0.5748867392539978
0.29406076669692993 0.2098938226699829 0.5332939624786377
0.25175774097442627 0.15041956305503845 0.6246645450592041
0.37052053213119507 0.19952432811260223 0.5806513428688049
0.38270196318626404 0.2518039643764496 0.5538848042488098
0.39000070095062256 0.12345355749130249 0.4923039972782135
0.3390636444091797 0.18160216510295868 0.6098049283027649
0.32086125016212463 0.2514771521091461 0.6141157150268555
0.34927475452423096 0.15623264014720917 0.5494603514671326
0.29985353350639343 0.20929653942584991 0.46295762062072754
0.2739909291267395 0.22846972942352295 0.5223748087882996
0.20942237973213196 0.18701958656311035 0.586565375328064
0.2881898283958435 0.2643667757511139 0.5103195905685425
0.342795193195343 0.1492932140827179 0.5248614549636841
0.28245121240615845 0.11417841911315918 0.5063863396644592
0.24007529020309448 0.1749129742383957 0.48631203174591064
0.24810804426670074 0.2798101007938385 0.5846381187438965
0.3179472088813782 0.18755385279655457 0.47505199909210205
0.3507464528083801 0.1277376413345337 0.6364188194274902
0.2642471492290497 0.16812936961650848 0.5719120502471924
0.34566277265548706 0.2692224681377411 0.5473455786705017
0.2723209261894226 0.24041393399238586 0.6079764366149902
0.3604831099510193 0.2248764932155609 0.6017226576805115
0.2033916711807251 0.21939599514007568 0.5682571530342102
0.28655368089675903 0.25480344891548157 0.5958547592163086
0.30531978607177734 0.19728486239910126 0.5652397871017456
0.3145226538181305 0.22737540304660797 0.5768139958381653
0.30669206380844116 0.22093160450458527 0.6295568346977234
0.24023374915122986 0.2388678342103958 0.4533703625202179
0.35855114459991455 0.13227102160453796 0.6176884174346924
0.3644907772541046 0.17272953689098358 0.5061169862747192
0.24988597631454468 0.24934528768062592 0.5880710482597351
0.2640571594238281 0.17068453133106232 0.5781014561653137
0.37430891394615173 0.20187637209892273 0.6679897904396057
0.3737699091434479 0.24404089152812958 0.5948802828788757
0.3308285176753998 0.2136600911617279 0.5192123651504517
0.3811105787754059 0.1338571012020111 0.5133311748504639
0.2980513274669647 0.20295776426792145 0.5801412463188171
0.33465051651000977 0.11321338266134262 0.6427573561668396
0.3371332287788391 0.1615307778120041 0.6630369424819946
0.26883843541145325 0.15519632399082184 0.6256287097930908
0.25310730934143066 0.2877825200557709 0.47733020782470703
0.24234440922737122 0.1798478066921234 0.595551073551178
0.2883773744106293 0.260062038898468 0.5083932876586914
0.4247364401817322 0.22555166482925415 0.5246140956878662
0.2611791491508484 0.16425591707229614 0.5423937439918518
0.39403337240219116 0.246332049369812 0.6334050297737122
0.2525036633014679 0.12834613025188446 0.5160083174705505
0.39850282669067383 0.2460254430770874 0.5408570170402527
0.23471269011497498 0.27215632796287537 0.6185215711593628
0.3526862561702728 0.124305859208107 0.4730980396270752
0.2635912597179413 0.17996488511562347 0.5503865480422974
0.2702998220920563 0.21572351455688477 0.5609970092773438
0.26085934042930603 0.1832093894481659 0.6003815531730652
0.3537982106208801 0.12748423218727112 0.5535300970077515
0.38375550508499146 0.24715730547904968 0.49878573417663574
0.25457432866096497 0.1876949667930603 0.6535564661026001
0.37286561727523804 0.24510258436203003 0.5189371705055237
0.20865997672080994 0.22731861472129822 0.6175789833068848
0.3927372395992279 0.2447710633277893 0.5513578653335571
0.40284526348114014 0.24751807749271393 0.6323853731155396
0.3721419870853424 0.18026776611804962 0.6415572166442871
0.41097772121429443 0.19664186239242554 0.5523558855056763
0.2420356422662735 0.26544812321662903 0.5746135115623474
0.25079911947250366 0.2675989866256714 0.5907906889915466
0.3122306764125824 0.133177250623703 0.5137732028961182
0.3132007122039795 0.15189039707183838 0.48214128613471985
0.3575805723667145 0.18502911925315857 0.5888571739196777
0.1909606158733368 0.19359292089939117 0.5938384532928467
0.358865350484848 0.14726252853870392 0.6714956164360046
0.19860243797302246 0.1314927041530609 0.4771324694156647
0.34927475452423096 0.15623264014720917 0.5494603514671326
0.29985353350639343 0.20929653942584991 0.46295762062072754
0.2739909291267395 0.22846972942352295 0.5223748087882996
0.20942237973213196 0.18701958656311035 0.586565375328064
0.3644907772541046 0.17272953689098358 0.5061169862747192
0.30496710538864136 0.1338004767894745 0.5963471531867981
0.24989229440689087 0.16784875094890594 0.5870059728622437
0.26672545075416565 0.11638668924570084 0.47375351190567017
0.24936524033546448 0.22456440329551697 0.5633178949356079
0.33336180448532104 0.17674627900123596 0.6449218988418579
0.2591380774974823 0.2601722478866577 0.5854505300521851
0.361566960811615 0.1564938724040985 0.4953548312187195
0.3814133107662201 0.17333322763442993 0.5084405541419983
0.39531800150871277 0.23274199664592743 0.5905652046203613
0.2632655203342438 0.19959931075572968 0.4690984785556793
0.3797379732131958 0.11019080132246017 0.5085211396217346
0.3928317725658417 0.22796125710010529 0.4821431338787079
0.3794877231121063 0.1461024284362793 0.47881314158439636
0.29233264923095703 0.13752347230911255 0.61899733543396
0.34358012676239014 0.19591014087200165 0.6573776602745056
0.261392205953598 0.3041917681694031 0.6124987602233887
0.27452951669692993 0.17219965159893036 0.6574264764785767
