ply
format ascii 1.0
element vertex 824
property float x
property float y
property float z
end_header
0.36388131976127625 0.10691958665847778 0.586104691028595
0.3680463433265686 0.2528691589832306 0.4702467620372772
0.26089194416999817 0.18814322352409363 0.652891218662262
0.34062689542770386 0.16028746962547302 0.534608781337738
0.35135459899902344 0.2482583075761795 0.6341596841812134
0.3175741136074066 0.18362511694431305 0.590476393699646
0.40674421191215515 0.2537342309951782 0.548032820224762
0.2032056450843811 0.14771507680416107 0.544711172580719
0.2183169275522232 0.16774676740169525 0.6498924493789673
0.30756402015686035 0.22420039772987366 0.6066455841064453
0.3017277121543884 0.15278474986553192 0.5204212069511414
0.19117234647274017 0.18636104464530945 0.619037926197052
0.40552765130996704 0.2017933875322342 0.5372477173805237
0.3784729838371277 0.15995261073112488 0.6637458205223083
0.3061993718147278 0.23583517968654633 0.5336143970489502
0.3189309537410736 0.2455112487077713 0.5275413990020752
0.37935879826545715 0.14004762470722198 0.666739821434021
0.42200034856796265 0.24093104898929596 0.49735015630722046
0.18147575855255127 0.15867619216442108 0.6416093111038208
0.3581607937812805 0.19215993583202362 0.5566737651824951
0.3775888979434967 0.108761727809906 0.5694361925125122
0.33615243434906006 0.1476743519306183 0.4891813099384308
0.27595630288124084 0.13262973725795746 0.6559484601020813
0.30208659172058105 0.2815355658531189 0.5011553168296814
0.38856977224349976 0.17438894510269165 0.6385823488235474
0.2714315354824066 0.2953907251358032 0.5287938117980957
0.36105209589004517 0.1946498155593872 0.47354748845100403
0.27219870686531067 0.11726132035255432 0.4915001690387726
0.32689759135246277 0.15997038781642914 0.5992408990859985
0.35867390036582947 0.25885167717933655 0.5313661098480225
0.30648675560951233 0.2044256329536438 0.5365545153617859
0.26548996567726135 0.1920260190963745 0.4846283495426178
0.31653064489364624 0.24092739820480347 0.5921176075935364
0.4414968192577362 0.2485945224761963 0.48879459500312805
0.3583574593067169 0.13142994046211243 0.5436894297599792
0.34142789244651794 0.19694916903972626 0.4679323732852936
0.23849816620349884 0.2496771514415741 0.5813229084014893
0.3706890046596527 0.10761807858943939 0.6485548615455627
0.22565604746341705 0.23523275554180145 0.5159106850624084
0.21912936866283417 0.12382001429796219 0.5131794214248657
0.3656872808933258 0.2018474042415619 0.5319236516952515
0.2939586043357849 0.22881630063056946 0.5028307437896729
0.32748088240623474 0.23201729357242584 0.6245075464248657
0.3597027361392975 0.15060016512870789 0.4805627763271332
0.31816306710243225 0.1783430278301239 0.5424186587333679
0.3133559823036194 0.18612247705459595 0.5524206161499023
0.20780517160892487 0.16600506007671356 0.640321671962738
0.24007605016231537 0.14155563712120056 0.6339060664176941
0.28786206245422363 0.27480143308639526 0.4953199625015259
0.37567710876464844 0.12544074654579163 0.5817190408706665
0.28685471415519714 0.26813486218452454 0.45628058910369873
0.311546266078949 0.18088006973266602 0.468757688999176
0.4124435782432556 0.17531423270702362 0.5354295969009399
0.2584449350833893 0.1829063445329666 0.6468464732170105
0.3346991539001465 0.24525603652000427 0.4740723669528961
0.31659984588623047 0.1760111153125763 0.6336389780044556
0.23984605073928833 0.19412650167942047 0.6315621137619019
0.2538405656814575 0.18425261974334717 0.5679534673690796
0.23185193538665771 0.22725889086723328 0.5784749984741211
0.3164633512496948 0.12899231910705566 0.4753187894821167
0.26309677958488464 0.18995401263237 0.5905669927597046
0.3712076246738434 0.1348179280757904 0.47190994024276733
0.3088313639163971 0.25671666860580444 0.600943386554718
0.35698559880256653 0.1377836912870407 0.5139997005462646
0.24744223058223724 0.2368389517068863 0.6121905446052551
0.29463306069374084 0.17886294424533844 0.518599808216095
0.20885905623435974 0.16751165688037872 0.5441837906837463
0.3596176207065582 0.12310028821229935 0.5345804691314697
0.22121058404445648 0.17068137228488922 0.4739254415035248
0.25836482644081116 0.27984192967414856 0.5503903031349182
0.3032626211643219 0.26866382360458374 0.5544898509979248
0.21510155498981476 0.2471488118171692 0.6317455768585205
0.20443513989448547 0.12923026084899902 0.4541882276535034
0.29335981607437134 0.26454275846481323 0.5684287548065186
0.37455010414123535 0.14648960530757904 0.6008676886558533
0.2759905159473419 0.11637330800294876 0.5161722302436829
0.32927870750427246 0.266872763633728 0.46190693974494934
0.34254327416419983 0.13783802092075348 0.48272135853767395
0.24445433914661407 0.2771468460559845 0.528156578540802
0.3713098168373108 0.1321401745080948 0.5895835757255554
0.22250932455062866 0.15308330953121185 0.621931254863739
0.3165372312068939 0.15896441042423248 0.6025858521461487
0.33889174461364746 0.13185961544513702 0.6358129382133484
0.3182709515094757 0.22722041606903076 0.4913817048072815
0.2664281129837036 0.26121172308921814 0.5853185057640076
0.26379626989364624 0.25021475553512573 0.5100096464157104
0.1857548952102661 0.1578536033630371 0.6395555734634399
0.38985395431518555 0.26048827171325684 0.48571959137916565
0.26328977942466736 0.12085321545600891 0.5689983367919922
0.29683512449264526 0.1414964646100998 0.652384877204895
0.29259321093559265 0.1820562332868576 0.5474329590797424
0.18421216309070587 0.12198419123888016 0.5407347083091736
0.24198637902736664 0.22960476577281952 0.581539511680603
0.2657717764377594 0.16938333213329315 0.5684566497802734
0.2770560681819916 0.14785291254520416 0.463434100151062
0.1970546990633011 0.1185331866145134 0.48772406578063965
0.2222079336643219 0.1997322291135788 0.6468870639801025
0.3566236197948456 0.18692483007907867 0.6356458067893982
0.23080289363861084 0.18449021875858307 0.5430139303207397
0.3610217273235321 0.19807589054107666 0.6495179533958435
0.22561807930469513 0.23173783719539642 0.49889808893203735
0.2988640069961548 0.13895457983016968 0.564863383769989
0.2913692891597748 0.16530124843120575 0.6390655040740967
0.3674677610397339 0.1507490575313568 0.533621072769165
0.3617628812789917 0.15507552027702332 0.4857717454433441
0.4073255956172943 0.16783678531646729 0.5204107165336609
0.3090691566467285 0.1700025498867035 0.47681382298469543
0.29780375957489014 0.16185033321380615 0.4871697723865509
0.39804014563560486 0.1786128282546997 0.6195221543312073
0.19915510714054108 0.1196366623044014 0.4804321229457855
0.20375820994377136 0.1325838416814804 0.4630795419216156
0.2604908049106598 0.1421818733215332 0.5715883374214172
0.3756333589553833 0.21101129055023193 0.5420079231262207
0.35500407218933105 0.21304520964622498 0.49227431416511536
0.23328465223312378 0.12165777385234833 0.4599129557609558
0.29525211453437805 0.2784487307071686 0.5118751525878906
0.34319862723350525 0.1394624412059784 0.47595587372779846
0.19621898233890533 0.1253233551979065 0.6047880053520203
0.25564464926719666 0.2777332663536072 0.4723008871078491
0.39347583055496216 0.20569127798080444 0.5187967419624329
0.2952236533164978 0.15560020506381989 0.57193523645401
0.26429373025894165 0.17190834879875183 0.603845477104187
0.2657211720943451 0.2020476907491684 0.5851589441299438
0.2100629210472107 0.1737305074930191 0.4929712414741516
0.23863579332828522 0.22250431776046753 0.6205644011497498
0.3137916028499603 0.1845213770866394 0.5612685084342957
0.3810941278934479 0.2016724795103073 0.5966120958328247
0.3412904739379883 0.14611893892288208 0.4803314507007599
0.2964494228363037 0.19903606176376343 0.6437104940414429
0.2888195812702179 0.2829493582248688 0.5601971745491028
0.2982335090637207 0.2108476459980011 0.4666843116283417
0.3610217273235321 0.19807589054107666 0.6495179533958435
0.22561807930469513 0.23173783719539642 0.49889808893203735
0.2988640069961548 0.13895457983016968 0.564863383769989
0.2913692891597748 0.16530124843120575 0.6390655040740967
0.3674677610397339 0.1507490575313568 0.533621072769165
0.3617628812789917 0.15507552027702332 0.4857717454433441
0.4073255956172943 0.16783678531646729 0.5204107165336609
0.33456552028656006 0.15449002385139465 0.5513079166412354
0.3991720676422119 0.22665387392044067 0.671599268913269
0.36009445786476135 0.16137634217739105 0.5104326009750366
0.3640863597393036 0.1210775226354599 0.5976804494857788
0.38587209582328796 0.13234549760818481 0.5912449359893799
0.2949170470237732 0.2813183665275574 0.5272935628890991
0.24946606159210205 0.21351085603237152 0.4600756764411926
0.40900400280952454 0.22765393555164337 0.5126135945320129
0.23753474652767181 0.2070046365261078 0.5458132028579712
0.2514840364456177 0.1242700070142746 0.4846034049987793
0.36434119939804077 0.11478514969348907 0.660411536693573
0.2603934109210968 0.2497388869524002 0.496815025806427
0.23598113656044006 0.207278311252594 0.45843079686164856
0.2798713147640228 0.24320825934410095 0.4540373980998993
0.24987082183361053 0.2060401886701584 0.6051830053329468
0.1990986168384552 0.16589468717575073 0.5941979289054871
0.2222079336643219 0.1997322291135788 0.6468870639801025
0.3566236197948456 0.18692483007907867 0.6356458067893982
0.23080289363861084 0.18449021875858307 0.5430139303207397
0.3610217273235321 0.19807589054107666 0.6495179533958435
0.22561807930469513 0.23173783719539642 0.49889808893203735
0.2988640069961548 0.13895457983016968 0.564863383769989
0.2913692891597748 0.16530124843120575 0.6390655040740967
0.3674677610397339 0.1507490575313568 0.533621072769165
0.3617628812789917 0.15507552027702332 0.4857717454433441
0.4073255956172943 0.16783678531646729 0.5204107165336609
0.357615202665329 0.1804307997226715 0.6462366580963135
0.4001496434211731 0.20674601197242737 0.6349409818649292
0.33254045248031616 0.27973830699920654 0.5642284154891968
0.32904770970344543 0.24613529443740845 0.4854985475540161
0.32286497950553894 0.1304742842912674 0.655915379524231
0.3418700397014618 0.10981065034866333 0.4701961874961853
0.202849879860878 0.14864768087863922 0.6152541637420654
0.311546266078949 0.18088006973266602 0.468757688999176
0.4124435782432556 0.17531423270702362 0.5354295969009399
0.2584449350833893 0.1829063445329666 0.6468464732170105
0.3004751205444336 0.14245423674583435 0.5675734877586365
0.3236416280269623 0.28364866971969604 0.6065481901168823
0.18853923678398132 0.15795524418354034 0.5855020880699158
0.3652490973472595 0.17931798100471497 0.5753391981124878
0.27122849225997925 0.2900850176811218 0.6435135006904602
0.31187793612480164 0.18662548065185547 0.6619833111763
0.3231797218322754 0.10655415803194046 0.5467703938484192
0.2831355631351471 0.14885343611240387 0.6203300952911377
0.28440913558006287 0.29094675183296204 0.5949170589447021
0.34743523597717285 0.10737696290016174 0.47437986731529236
0.3930734097957611 0.13612505793571472 0.5050526261329651
0.23737309873104095 0.1638084501028061 0.6063071489334106
0.19576942920684814 0.15256662666797638 0.5584151148796082
0.2016969621181488 0.16285021603107452 0.4811059236526489
0.24646200239658356 0.2917364239692688 0.4997723400592804
0.26523640751838684 0.1811993271112442 0.5288370251655579
0.33701369166374207 0.1666831523180008 0.6700615882873535
0.23447132110595703 0.11300832778215408 0.5410147309303284
0.2735597491264343 0.15893858671188354 0.5624831914901733
0.31578728556632996 0.2055569291114807 0.5680403113365173
0.26264438033103943 0.17213062942028046 0.5747599005699158
0.2903968393802643 0.2391611635684967 0.46059709787368774
0.33485138416290283 0.25062012672424316 0.5139667987823486
0.3035063147544861 0.17314428091049194 0.5161714553833008
0.36405447125434875 0.10617309808731079 0.6164361834526062
0.22082526981830597 0.15826937556266785 0.6516110301017761
0.3840319812297821 0.18061697483062744 0.6367377042770386
0.2170574963092804 0.15800191462039948 0.5834042429924011
0.31816306710243225 0.1783430278301239 0.5424186587333679
0.211647167801857 0.2496686428785324 0.6367014050483704
0.32893362641334534 0.11094827950000763 0.621299684047699
0.2807810306549072 0.1405668556690216 0.6407238245010376
0.3068278431892395 0.251719206571579 0.5547464489936829
0.31963175535202026 0.23629048466682434 0.5202617049217224
0.34164950251579285 0.20120222866535187 0.5550727248191833
0.28051233291625977 0.13838638365268707 0.47191381454467773
0.3586157560348511 0.15705813467502594 0.6377704739570618
0.30608758330345154 0.26783573627471924 0.5447415709495544
0.32500627636909485 0.2740398943424225 0.48538026213645935
0.3691214621067047 0.14051446318626404 0.577059268951416
0.36440595984458923 0.18844358623027802 0.5649917721748352
0.32749882340431213 0.1281195431947708 0.655340313911438
0.32892489433288574 0.2238781750202179 0.518939733505249
0.22975611686706543 0.11539673805236816 0.654342532157898
0.2222079336643219 0.1997322291135788 0.6468870639801025
0.3566236197948456 0.18692483007907867 0.6356458067893982
0.23080289363861084 0.18449021875858307 0.5430139303207397
0.3610217273235321 0.19807589054107666 0.6495179533958435
0.22561807930469513 0.23173783719539642 0.49889808893203735
0.2988640069961548 0.13895457983016968 0.564863383769989
0.3047674894332886 0.2320242077112198 0.5459144711494446
0.39153146743774414 0.24758636951446533 0.5363726615905762
0.24339689314365387 0.2481411248445511 0.5293675661087036
0.38708195090293884 0.13635434210300446 0.5116795897483826
0.35419267416000366 0.18830710649490356 0.5547025799751282
0.38547948002815247 0.26635316014289856 0.6522421836853027
0.3026014268398285 0.24812133610248566 0.5203554630279541
0.25904718041419983 0.11056467145681381 0.45856720209121704
0.31391873955726624 0.11230847239494324 0.6310535073280334
0.33558306097984314 0.1986108273267746 0.561629056930542
0.35546714067459106 0.13057932257652283 0.648227870464325
0.3652275502681732 0.13423892855644226 0.6817744970321655
0.22888755798339844 0.2723894417285919 0.5939915776252747
0.3346991539001465 0.24525603652000427 0.4740723669528961
0.31659984588623047 0.1760111153125763 0.6336389780044556
0.23984605073928833 0.19412650167942047 0.6315621137619019
0.2538405656814575 0.18425261974334717 0.5679534673690796
0.23185193538665771 0.22725889086723328 0.5784749984741211
0.3164633512496948 0.12899231910705566 0.4753187894821167
0.26309677958488464 0.18995401263237 0.5905669927597046
0.2693411707878113 0.12149690091609955 0.5572144389152527
0.36090022325515747 0.1640956997871399 0.5048667192459106
0.3474082052707672 0.15295511484146118 0.6278954148292542
0.21011289954185486 0.13139070570468903 0.48882752656936646
0.22837881743907928 0.16914278268814087 0.5695345401763916
0.3664145767688751 0.1408291608095169 0.5950130224227905
0.236882746219635 0.18226061761379242 0.6477592587471008
0.3208460509777069 0.11682302504777908 0.50140780210495
0.35630306601524353 0.10929271578788757 0.5870292782783508
0.3556021749973297 0.18918313086032867 0.506112813949585
0.3837479054927826 0.22965067625045776 0.5427828431129456
0.2671336531639099 0.12154273688793182 0.6112933158874512
0.40654730796813965 0.2239731103181839 0.4726495146751404
0.2464081346988678 0.23614643514156342 0.6169215440750122
0.3441593647003174 0.10945839434862137 0.6515938639640808
0.19734229147434235 0.15822699666023254 0.5859363675117493
0.41584300994873047 0.21460120379924774 0.5174118280410767
0.24358657002449036 0.22236113250255585 0.6292521953582764
0.2820981740951538 0.2466968446969986 0.6215163469314575
0.3213548958301544 0.17629678547382355 0.5998111367225647
0.35702311992645264 0.24772262573242188 0.6269009113311768
0.28398263454437256 0.26510486006736755 0.6504838466644287
0.2514784336090088 0.2757650315761566 0.45547616481781006
0.40417948365211487 0.19916851818561554 0.481774240732193
0.34701022505760193 0.1611369103193283 0.568356990814209
0.4140355885028839 0.21144554018974304 0.5205090641975403
0.3606679439544678 0.2150767743587494 0.4801531136035919
0.3504089117050171 0.20427559316158295 0.5312445759773254
0.3796825706958771 0.1610502302646637 0.524665117263794
0.3870013356208801 0.24062250554561615 0.6469054222106934
0.38719457387924194 0.10962383449077606 0.512540876865387
0.2949959337711334 0.13730165362358093 0.5911100506782532
0.40100982785224915 0.2585364282131195 0.4842486083507538
0.36540400981903076 0.22409629821777344 0.6489614844322205
0.3995617926120758 0.22922401130199432 0.48919281363487244
0.3713858127593994 0.22252239286899567 0.5713241696357727
0.3068474531173706 0.15909656882286072 0.48456552624702454
0.2974556088447571 0.1765298992395401 0.6149806976318359
0.41531023383140564 0.22051022946834564 0.5831602811813354
0.31640154123306274 0.15953706204891205 0.5368448495864868
0.3175826370716095 0.17035456001758575 0.6069996953010559
0.34182268381118774 0.11511238664388657 0.48959580063819885
0.3694569170475006 0.15939967334270477 0.6291092038154602
0.23668108880519867 0.24080882966518402 0.6371539831161499
0.3831980526447296 0.1915568858385086 0.5194130539894104
0.2730191946029663 0.13537609577178955 0.5833415389060974
0.2263653427362442 0.15486760437488556 0.5044820308685303
0.36772388219833374 0.1625654548406601 0.505118191242218
0.32757076621055603 0.22235950827598572 0.6557479500770569
0.3208615779876709 0.21927523612976074 0.6596989631652832
0.32238659262657166 0.12329433858394623 0.6653305888175964
0.2790015935897827 0.11868865042924881 0.5602267980575562
0.40932440757751465 0.2509717345237732 0.6272334456443787
0.31254273653030396 0.20335231721401215 0.5975710153579712
0.27219870686531067 0.11726132035255432 0.4915001690387726
0.25384655594825745 0.2252933830022812 0.6534486413002014
0.2569724917411804 0.2675350308418274 0.6296960115432739
0.2614533603191376 0.1697424203157425 0.554496169090271
0.2715130150318146 0.2610960304737091 0.4884851276874542
0.20670968294143677 0.20413954555988312 0.6080008149147034
0.29437097907066345 0.12669332325458527 0.6307999491691589
0.3860137462615967 0.23341584205627441 0.6358123421669006
0.3691536784172058 0.10910534858703613 0.6144506335258484
0.3002246916294098 0.20180988311767578 0.5569848418235779
0.2843160629272461 0.12322274595499039 0.5897628664970398
0.26217594742774963 0.12523730099201202 0.6542288661003113
0.22498705983161926 0.29003727436065674 0.6358522772789001
0.28084036707878113 0.1722845584154129 0.5137463212013245
0.31510069966316223 0.184835284948349 0.6221755146980286
0.24971385300159454 0.16718584299087524 0.49740540981292725
0.3753772974014282 0.10723906755447388 0.5153923630714417
0.36900413036346436 0.25893786549568176 0.47906067967414856
0.3104957342147827 0.15854132175445557 0.5801011919975281
0.3779786229133606 0.17912903428077698 0.6381694078445435
0.27547597885131836 0.2894168794155121 0.5337579846382141
0.30902227759361267 0.16912545263767242 0.525096595287323
0.34100863337516785 0.19180336594581604 0.6544860601425171
0.32716861367225647 0.16814689338207245 0.49479642510414124
0.38675403594970703 0.1080729141831398 0.5399309396743774
0.27516406774520874 0.1536208689212799 0.5115979909896851
0.3608124256134033 0.20382604002952576 0.6302621960639954
0.28517940640449524 0.19005072116851807 0.48567473888397217
0.3577684462070465 0.21579298377037048 0.49573206901550293
0.3632350564002991 0.1856902539730072 0.4760769009590149
0.272741436958313 0.11056657135486603 0.5673463940620422
0.27538877725601196 0.23518817126750946 0.5203871130943298
0.32016870379447937 0.17919763922691345 0.5304441452026367
0.2183169275522232 0.16774676740169525 0.6498924493789673
0.2859991788864136 0.2737877368927002 0.4921240508556366
0.29184120893478394 0.13843747973442078 0.5963806509971619
0.3096669316291809 0.15536390244960785 0.5083117485046387
0.3677990436553955 0.10579338669776917 0.6180404424667358
0.31432971358299255 0.22705259919166565 0.541341245174408
0.2991445064544678 0.12070247530937195 0.5973120927810669
0.3140798509120941 0.2545539438724518 0.623265266418457
0.2826972007751465 0.21815909445285797 0.651196300983429
0.42118972539901733 0.23874637484550476 0.5641887187957764
0.38030827045440674 0.23441773653030396 0.6566413044929504
0.36746761202812195 0.17968231439590454 0.5474259257316589
0.20093542337417603 0.11928108334541321 0.6137199997901917
0.33102717995643616 0.25038281083106995 0.6426937580108643
0.40910083055496216 0.2174375355243683 0.47317102551460266
0.29957151412963867 0.2095952033996582 0.575114369392395
0.2175208032131195 0.12312276661396027 0.5950612425804138
0.35047104954719543 0.11593835055828094 0.6511434316635132
0.3723081946372986 0.11894475668668747 0.5092052221298218
0.34282979369163513 0.1253131628036499 0.5296024680137634
0.3221295475959778 0.20295993983745575 0.5721302628517151
0.20282915234565735 0.16118161380290985 0.47427693009376526
0.29686856269836426 0.1646813601255417 0.5335007905960083
0.27491694688796997 0.19951532781124115 0.5300740599632263
0.34652358293533325 0.16830375790596008 0.594664990901947
0.33806008100509644 0.2281501293182373 0.5279144048690796
0.3914206922054291 0.1747492104768753 0.5062785744667053
0.2003357708454132 0.1387728750705719 0.5684424042701721
0.3182123005390167 0.26238390803337097 0.489626407623291
0.3537169098854065 0.20748983323574066 0.6156476140022278
0.37912607192993164 0.10757281631231308 0.4729258418083191
0.2648039162158966 0.29377099871635437 0.5647183656692505
0.2592947483062744 0.1365358978509903 0.477043092250824
0.2550777792930603 0.18269094824790955 0.6423383951187134
0.299716591835022 0.14149832725524902 0.5288283824920654
0.2930696904659271 0.10972993820905685 0.5028000473976135
0.42245498299598694 0.25113362073898315 0.6203725337982178
0.19879774749279022 0.13562224805355072 0.5104759931564331
0.276294469833374 0.22083942592144012 0.4848040044307709
0.3581641614437103 0.22906087338924408 0.6045101284980774
0.35240864753723145 0.21277084946632385 0.6498806476593018
0.2963586747646332 0.2703581750392914 0.5739266872406006
0.3245982229709625 0.10738716274499893 0.6246000528335571
0.21039369702339172 0.12908205389976501 0.5324119925498962
0.2709597051143646 0.2546451985836029 0.4829444885253906
0.38077616691589355 0.2383362054824829 0.46932631731033325
0.36481791734695435 0.1516561210155487 0.5659911036491394
0.23744647204875946 0.22022120654582977 0.4561571478843689
0.310783714056015 0.1849467158317566 0.600354790687561
0.2732994854450226 0.22878943383693695 0.6066517233848572
0.22530411183834076 0.2601163387298584 0.6028560400009155
0.4133285880088806 0.2159065157175064 0.6210960149765015
0.33094900846481323 0.16644352674484253 0.6623523235321045
0.3269652724266052 0.2233559489250183 0.5031735301017761
0.37915733456611633 0.15775644779205322 0.5050987601280212
0.24548223614692688 0.14530760049819946 0.45847663283348083
0.34126734733581543 0.18117739260196686 0.663587749004364
0.2107524424791336 0.18782329559326172 0.505002498626709
0.2707342803478241 0.25158974528312683 0.5096145868301392
0.23753266036510468 0.11390480399131775 0.5412903428077698
0.3575984835624695 0.20898708701133728 0.5848058462142944
0.4174925684928894 0.22981137037277222 0.5563218593597412
0.23601962625980377 0.18091697990894318 0.4732801914215088
0.3664145767688751 0.1408291608095169 0.5950130224227905
0.4070163667201996 0.16916295886039734 0.4806056320667267
0.27145472168922424 0.15903566777706146 0.6003895401954651
0.4235728681087494 0.2340206801891327 0.5377485752105713
0.3441593647003174 0.10945839434862137 0.6515938639640808
0.19734229147434235 0.15822699666023254 0.5859363675117493
0.41584300994873047 0.21460120379924774 0.5174118280410767
0.24358657002449036 0.22236113250255585 0.6292521953582764
0.2820981740951538 0.2466968446969986 0.6215163469314575
0.3213548958301544 0.17629678547382355 0.5998111367225647
0.35702311992645264 0.24772262573242188 0.6269009113311768
0.28398263454437256 0.26510486006736755 0.6504838466644287
0.30782511830329895 0.19300946593284607 0.5798935890197754
0.3892524540424347 0.2534105181694031 0.5271086692810059
0.3442012071609497 0.22925350069999695 0.6224303841590881
0.24753424525260925 0.30174964666366577 0.5590116381645203
0.3417937159538269 0.12101492285728455 0.5087552666664124
0.24537740647792816 0.12385502457618713 0.5214393734931946
0.2823043465614319 0.28480562567710876 0.4575287699699402
0.3873031437397003 0.24399015307426453 0.6116978526115417
0.22747193276882172 0.2048151046037674 0.6227685809135437
0.2816098928451538 0.22683213651180267 0.5106449723243713
0.28695404529571533 0.2657299339771271 0.5926127433776855
0.33032864332199097 0.15826156735420227 0.6625898480415344
0.27488404512405396 0.1514568030834198 0.543820858001709
0.22134874761104584 0.12879106402397156 0.564301609992981
0.32861801981925964 0.1776309758424759 0.5469841957092285
0.24695943295955658 0.19644594192504883 0.6480667591094971
0.41962096095085144 0.20558658242225647 0.5453605651855469
0.31402620673179626 0.17008785903453827 0.49887537956237793
0.26816126704216003 0.18122807145118713 0.5866035223007202
0.29517823457717896 0.23146185278892517 0.5682395100593567
0.38911256194114685 0.23715011775493622 0.5007782578468323
0.25904718041419983 0.11056467145681381 0.45856720209121704
0.31391873955726624 0.11230847239494324 0.6310535073280334
0.36917394399642944 0.21182382106781006 0.5379317998886108
0.2834486663341522 0.11899904906749725 0.6487131714820862
0.3576990067958832 0.13105757534503937 0.6162884831428528
0.2582108974456787 0.2460181713104248 0.5361084938049316
0.24468015134334564 0.20602722465991974 0.6499255895614624
0.3547968566417694 0.27444320917129517 0.6042909026145935
0.3968396782875061 0.24628926813602448 0.48691463470458984
0.39885231852531433 0.2297411412000656 0.5452499389648438
0.370778888463974 0.18347573280334473 0.5359104871749878
0.25621289014816284 0.15384197235107422 0.6510114073753357
0.2440759837627411 0.15346913039684296 0.5843890905380249
0.2016577571630478 0.13966083526611328 0.5696287751197815
0.22072087228298187 0.11629787087440491 0.5218139886856079
0.41788387298583984 0.24629630148410797 0.5496429204940796
0.343099445104599 0.1991233080625534 0.5118041038513184
0.2705392837524414 0.11388785392045975 0.6657490730285645
0.22530411183834076 0.2601163387298584 0.6028560400009155
0.4133285880088806 0.2159065157175064 0.6210960149765015
0.33094900846481323 0.16644352674484253 0.6623523235321045
0.3269652724266052 0.2233559489250183 0.5031735301017761
0.37915733456611633 0.15775644779205322 0.5050987601280212
0.24548223614692688 0.14530760049819946 0.45847663283348083
0.34126734733581543 0.18117739260196686 0.663587749004364
0.2107524424791336 0.18782329559326172 0.505002498626709
0.2707342803478241 0.25158974528312683 0.5096145868301392
0.23753266036510468 0.11390480399131775 0.5412903428077698
0.3575984835624695 0.20898708701133728 0.5848058462142944
0.4174925684928894 0.22981137037277222 0.5563218593597412
0.23601962625980377 0.18091697990894318 0.4732801914215088
0.39701738953590393 0.2150198519229889 0.5229966640472412
0.35749551653862 0.13465838134288788 0.6434653997421265
0.22417151927947998 0.2847803831100464 0.6414766907691956
0.1963554322719574 0.1470777690410614 0.6282483339309692
0.3132335841655731 0.25084957480430603 0.5482384562492371
0.41024646162986755 0.20719872415065765 0.5313353538513184
0.26555293798446655 0.11954803019762039 0.5286479592323303
0.27543702721595764 0.27876725792884827 0.4814472198486328
0.28315696120262146 0.17442826926708221 0.6017761826515198
0.3027331829071045 0.25554606318473816 0.639572024345398
0.2729412317276001 0.15958115458488464 0.5247111916542053
0.3116630017757416 0.2446897327899933 0.6448779106140137
0.246060311794281 0.16313278675079346 0.5654032230377197
0.38184213638305664 0.18107746541500092 0.5875229239463806
0.27792781591415405 0.272667795419693 0.4979247450828552
0.22530411183834076 0.2601163387298584 0.6028560400009155
0.4133285880088806 0.2159065157175064 0.6210960149765015
0.33094900846481323 0.16644352674484253 0.6623523235321045
0.3269652724266052 0.2233559489250183 0.5031735301017761
0.37915733456611633 0.15775644779205322 0.5050987601280212
0.24548223614692688 0.14530760049819946 0.45847663283348083
0.34126734733581543 0.18117739260196686 0.663587749004364
0.2107524424791336 0.18782329559326172 0.505002498626709
0.2707342803478241 0.25158974528312683 0.5096145868301392
0.23753266036510468 0.11390480399131775 0.5412903428077698
0.3575984835624695 0.20898708701133728 0.5848058462142944
0.4174925684928894 0.22981137037277222 0.5563218593597412
0.23601962625980377 0.18091697990894318 0.4732801914215088
0.3151060938835144 0.17309992015361786 0.49878549575805664
0.39224207401275635 0.1692895144224167 0.571480393409729
0.21116647124290466 0.1407058984041214 0.6236481070518494
0.42327386140823364 0.22715722024440765 0.5319177508354187
0.24751661717891693 0.2875264286994934 0.49503692984580994
0.3779786229133606 0.17912903428077698 0.6381694078445435
0.27547597885131836 0.2894168794155121 0.5337579846382141
0.30902227759361267 0.16912545263767242 0.525096595287323
0.34100863337516785 0.19180336594581604 0.6544860601425171
0.32716861367225647 0.16814689338207245 0.49479642510414124
0.38675403594970703 0.1080729141831398 0.5399309396743774
0.27516406774520874 0.1536208689212799 0.5115979909896851
0.3193901777267456 0.2653957009315491 0.5963091254234314
0.20043647289276123 0.11927839368581772 0.5171841979026794
0.28328973054885864 0.13153129816055298 0.5879946351051331
0.35556554794311523 0.13717852532863617 0.5981428623199463
0.3516415059566498 0.10558326542377472 0.5971249341964722
0.33814629912376404 0.17849650979042053 0.5098164677619934
0.40427643060684204 0.22550781071186066 0.5123038291931152
0.42921876907348633 0.21238087117671967 0.5032302737236023
0.3081410825252533 0.24452073872089386 0.4950600266456604
0.3060643672943115 0.19512532651424408 0.6075078248977661
0.30868855118751526 0.21539990603923798 0.4787818491458893
0.20593465864658356 0.18724849820137024 0.6053141355514526
0.2388523817062378 0.2990042269229889 0.5715498328208923
0.37762269377708435 0.1068497896194458 0.5001776218414307
0.3496391475200653 0.24215157330036163 0.6565784811973572
0.23682954907417297 0.23703065514564514 0.4929971992969513
0.36504819989204407 0.1485780030488968 0.5337558388710022
0.22425724565982819 0.18610119819641113 0.6069470047950745
0.32130640745162964 0.16858313977718353 0.5543458461761475
0.26537024974823 0.137448251247406 0.5154054164886475
0.3337320387363434 0.21410532295703888 0.4697621166706085
0.34669092297554016 0.2774584889411926 0.6257575154304504
0.26601117849349976 0.2145588994026184 0.5490211844444275
0.30938446521759033 0.19287008047103882 0.5191794037818909
0.19734229147434235 0.15822699666023254 0.5859363675117493
0.3694569170475006 0.15939967334270477 0.6291092038154602
0.23668108880519867 0.24080882966518402 0.6371539831161499
0.3831980526447296 0.1915568858385086 0.5194130539894104
0.2730191946029663 0.13537609577178955 0.5833415389060974
0.2263653427362442 0.15486760437488556 0.5044820308685303
0.36772388219833374 0.1625654548406601 0.505118191242218
0.32757076621055603 0.22235950827598572 0.6557479500770569
0.3208615779876709 0.21927523612976074 0.6596989631652832
0.40932440757751465 0.2509717345237732 0.6272334456443787
0.23630450665950775 0.17830243706703186 0.5175912976264954
0.21458637714385986 0.14445452392101288 0.6414804458618164
0.3717913329601288 0.1392425149679184 0.668617844581604
0.30102235078811646 0.2078317254781723 0.5868869423866272
0.3899379372596741 0.24532058835029602 0.5249646306037903
0.4162468910217285 0.25424298644065857 0.5918990969657898
0.3756929337978363 0.13332898914813995 0.5526852011680603
0.19099730253219604 0.1343436986207962 0.5144466161727905
0.37762269377708435 0.1068497896194458 0.5001776218414307
0.3496391475200653 0.24215157330036163 0.6565784811973572
0.23682954907417297 0.23703065514564514 0.4929971992969513
0.32327800989151 0.1279149353504181 0.5106161832809448
0.2616201937198639 0.12214281409978867 0.5665947198867798
0.4145364761352539 0.22845275700092316 0.5473464727401733
0.21943224966526031 0.18131177127361298 0.5818191170692444
0.3333999514579773 0.23373505473136902 0.5253234505653381
0.3524405062198639 0.13852140307426453 0.5579665303230286
0.39375826716423035 0.18924765288829803 0.6763564944267273
0.30938446521759033 0.19287008047103882 0.5191794037818909
0.2874022424221039 0.1184849888086319 0.6124624013900757
0.3347758948802948 0.23184236884117126 0.5591251850128174
0.27330857515335083 0.20603078603744507 0.5566866993904114
0.41584300994873047 0.21460120379924774 0.5174118280410767
0.23668108880519867 0.24080882966518402 0.6371539831161499
0.3831980526447296 0.1915568858385086 0.5194130539894104
0.2730191946029663 0.13537609577178955 0.5833415389060974
0.2263653427362442 0.15486760437488556 0.5044820308685303
0.36772388219833374 0.1625654548406601 0.505118191242218
0.32757076621055603 0.22235950827598572 0.6557479500770569
0.22804008424282074 0.12310229241847992 0.48338210582733154
0.23630450665950775 0.17830243706703186 0.5175912976264954
0.21458637714385986 0.14445452392101288 0.6414804458618164
0.3717913329601288 0.1392425149679184 0.668617844581604
0.2237963080406189 0.1269352287054062 0.6027604937553406
0.2713162899017334 0.1572026014328003 0.49557188153266907
0.19766061007976532 0.13450106978416443 0.632597029209137
0.37762269377708435 0.1068497896194458 0.5001776218414307
0.3496391475200653 0.24215157330036163 0.6565784811973572
0.23682954907417297 0.23703065514564514 0.4929971992969513
0.36504819989204407 0.1485780030488968 0.5337558388710022
0.36504828929901123 0.1485779732465744 0.5337559580802917
0.4145364761352539 0.22845275700092316 0.5473464727401733
0.21943224966526031 0.18131177127361298 0.5818191170692444
0.3333999514579773 0.23373505473136902 0.5253234505653381
0.2280920296907425 0.22900445759296417 0.5888867378234863
0.34669092297554016 0.2774584889411926 0.6257575154304504
0.39375826716423035 0.18924765288829803 0.6763564944267273
0.240830659866333 0.11340472847223282 0.5983618497848511
0.2874022424221039 0.1184849888086319 0.6124624013900757
0.27330857515335083 0.20603078603744507 0.5566866993904114
0.3868488371372223 0.14632025361061096 0.5268566012382507
0.2896471917629242 0.17008788883686066 0.5006982088088989
0.3915514647960663 0.16533103585243225 0.5028714537620544
0.30192551016807556 0.2821606695652008 0.5158372521400452
0.3892524540424347 0.2534105181694031 0.5271086692810059
0.3631845712661743 0.25263431668281555 0.5678143501281738
0.3185798227787018 0.24725483357906342 0.5760730504989624
0.32241910696029663 0.212654709815979 0.6043384075164795
0.2231750786304474 0.21902543306350708 0.5491180419921875
0.23619675636291504 0.23034928739070892 0.48151159286499023
0.29558175802230835 0.22075656056404114 0.6330599784851074
0.3129297196865082 0.2788054049015045 0.59684157371521
0.3976474106311798 0.1598396599292755 0.5040227174758911
0.2690330445766449 0.27542784810066223 0.4711168110370636
0.22168618440628052 0.12646418809890747 0.5092883706092834
0.23669326305389404 0.20505258440971375 0.5317504405975342
0.38969793915748596 0.14950811862945557 0.5556890964508057
0.3480105996131897 0.17383190989494324 0.5497583150863647
0.3718756437301636 0.11464614421129227 0.6146358251571655
0.3394828140735626 0.22048909962177277 0.6560025215148926
0.24507762491703033 0.19265693426132202 0.562504768371582
0.2267674207687378 0.2030135691165924 0.5074660778045654
0.2855657637119293 0.11384399980306625 0.606834888458252
0.3362368643283844 0.12445978075265884 0.5777392387390137
0.22592958807945251 0.14739926159381866 0.6320766806602478
0.34534353017807007 0.12576322257518768 0.4951390027999878
0.29828396439552307 0.16804414987564087 0.6162957549095154
0.3607769012451172 0.2619673013687134 0.5785694122314453
0.3723187744617462 0.10288524627685547 0.5296838879585266
0.2612956464290619 0.1320052295923233 0.5780683159828186
0.2417491376399994 0.14595995843410492 0.5317274332046509
0.2779025733470917 0.13273270428180695 0.6606366038322449
0.3642987608909607 0.22527407109737396 0.6511568427085876
0.2335294783115387 0.16816698014736176 0.5777395963668823
0.27333196997642517 0.2944454252719879 0.5695322155952454
0.2264997810125351 0.14212138950824738 0.6385467052459717
0.23668108880519867 0.24080882966518402 0.6371539831161499
0.199476420879364 0.1391955316066742 0.5445821285247803
0.2844589650630951 0.19154781103134155 0.4842071533203125
0.24877798557281494 0.11731506884098053 0.5455726385116577
0.26059120893478394 0.286671906709671 0.45176228880882263
0.293312132358551 0.19618193805217743 0.49124640226364136
0.3285215497016907 0.18601375818252563 0.5399392247200012
0.374346524477005 0.13456539809703827 0.5479086637496948
0.37561526894569397 0.11099392920732498 0.5501131415367126
0.2953179180622101 0.25349754095077515 0.5936229228973389
0.3590179681777954 0.21609382331371307 0.5625326037406921
0.2534876763820648 0.2243291437625885 0.5620694160461426
0.403102308511734 0.1255735158920288 0.47875189781188965
0.2945133447647095 0.11372055113315582 0.5887390375137329
0.28400516510009766 0.14192304015159607 0.6605193614959717
0.33955568075180054 0.23109126091003418 0.5605146884918213
0.39494726061820984 0.2241697609424591 0.6305945515632629
0.2776748836040497 0.14257080852985382 0.5549317598342896
0.3504613935947418 0.12667730450630188 0.5602450370788574
0.20176848769187927 0.17473362386226654 0.557131290435791
0.28445497155189514 0.293012797832489 0.6255292892456055
0.3481076657772064 0.19750502705574036 0.5142457485198975
0.37909090518951416 0.1885228008031845 0.6412061452865601
0.2986632287502289 0.25419309735298157 0.6407274007797241
0.23338532447814941 0.2458800971508026 0.5263612270355225
0.34423282742500305 0.13956516981124878 0.6682959794998169
0.2713816165924072 0.2935791015625 0.5786488652229309
0.34730684757232666 0.202890545129776 0.6545597910881042
0.3681822419166565 0.19912438094615936 0.568292498588562
0.2690204083919525 0.2334025800228119 0.4900108277797699
0.23808783292770386 0.2405862659215927 0.6043744683265686
0.36424586176872253 0.22170016169548035 0.6217396855354309
0.39224207401275635 0.1692895144224167 0.571480393409729
0.3859670162200928 0.17190144956111908 0.5803371667861938
0.27287641167640686 0.1579781174659729 0.6216816902160645
0.3631845712661743 0.25263431668281555 0.5678143501281738
0.3185798227787018 0.24725483357906342 0.5760730504989624
0.32241910696029663 0.212654709815979 0.6043384075164795
0.2231750786304474 0.21902543306350708 0.5491180419921875
0.23619675636291504 0.23034928739070892 0.48151159286499023
0.29558175802230835 0.22075656056404114 0.6330599784851074
0.3129297196865082 0.2788054049015045 0.59684157371521
0.3976474106311798 0.1598396599292755 0.5040227174758911
0.2690330445766449 0.27542784810066223 0.4711168110370636
0.22168618440628052 0.12646418809890747 0.5092883706092834
0.23669326305389404 0.20505258440971375 0.5317504405975342
0.38969793915748596 0.14950811862945557 0.5556890964508057
0.3308385908603668 0.16576358675956726 0.6546361446380615
0.3954184651374817 0.2026214748620987 0.6148905754089355
0.21999895572662354 0.15283244848251343 0.6527745723724365
0.3301318287849426 0.12886671721935272 0.5824072360992432
0.23172210156917572 0.11987220495939255 0.46155640482902527
0.2596655786037445 0.29547253251075745 0.5597578883171082
0.37204819917678833 0.1061209961771965 0.49401959776878357
0.3019545376300812 0.21785977482795715 0.5129123330116272
0.3493974506855011 0.18217971920967102 0.6298689842224121
0.3588818609714508 0.18564562499523163 0.4704878330230713
0.24531051516532898 0.2495599389076233 0.6155374646186829
0.2777479588985443 0.28854790329933167 0.4555397629737854
0.25787562131881714 0.26597222685813904 0.6045544147491455
0.38180938363075256 0.1069469302892685 0.5236268043518066
0.23069466650485992 0.14166802167892456 0.4631841778755188
0.26706621050834656 0.2527170479297638 0.6256659030914307
0.3133183717727661 0.13800518214702606 0.5822699069976807
0.21116647124290466 0.1407058984041214 0.6236481070518494
0.374346524477005 0.13456539809703827 0.5479086637496948
0.37561526894569397 0.11099392920732498 0.5501131415367126
0.2953179180622101 0.25349754095077515 0.5936229228973389
0.3590179681777954 0.21609382331371307 0.5625326037406921
0.2534876763820648 0.2243291437625885 0.5620694160461426
0.403102308511734 0.1255735158920288 0.47875189781188965
0.2945133447647095 0.11372055113315582 0.5887390375137329
0.28400516510009766 0.14192304015159607 0.6605193614959717
0.33955568075180054 0.23109126091003418 0.5605146884918213
0.3533227741718292 0.2234194129705429 0.5118561387062073
0.39495033025741577 0.2244204431772232 0.6302836537361145
0.26942384243011475 0.11332246661186218 0.5556177496910095
0.37102755904197693 0.12334959208965302 0.681815505027771
0.3347044587135315 0.17941902577877045 0.5738515853881836
0.28440746665000916 0.26012149453163147 0.5172001123428345
0.27209314703941345 0.27578622102737427 0.48916327953338623
0.2223331779241562 0.13646823167800903 0.5753759145736694
0.37909090518951416 0.1885228008031845 0.6412061452865601
0.2986632287502289 0.25419309735298157 0.6407274007797241
0.23338532447814941 0.2458800971508026 0.5263612270355225
0.34423282742500305 0.13956516981124878 0.6682959794998169
0.2713816165924072 0.2935791015625 0.5786488652229309
0.34730684757232666 0.202890545129776 0.6545597910881042
0.3681822419166565 0.19912438094615936 0.568292498588562
0.31814366579055786 0.1297382414340973 0.6101511120796204
0.24148447811603546 0.21548737585544586 0.6263936161994934
0.23808783292770386 0.2405862659215927 0.6043744683265686
0.36424586176872253 0.22170016169548035 0.6217396855354309
0.22683529555797577 0.16194218397140503 0.6366139650344849
0.23122800886631012 0.29263219237327576 0.6395018100738525
0.20874662697315216 0.19785217940807343 0.5396192073822021
0.4174925684928894 0.22981137037277222 0.5563218593597412
0.374346524477005 0.13456539809703827 0.5479086637496948
0.3590179681777954 0.21609382331371307 0.5625326037406921
0.2534876763820648 0.2243291437625885 0.5620694160461426
0.403102308511734 0.1255735158920288 0.47875189781188965
0.2945133447647095 0.11372055113315582 0.5887390375137329
0.28400516510009766 0.14192304015159607 0.6605193614959717
0.3533227741718292 0.2234194129705429 0.5118561387062073
0.39495033025741577 0.2244204431772232 0.6302836537361145
0.26942384243011475 0.11332246661186218 0.5556177496910095
0.37102755904197693 0.12334959208965302 0.681815505027771
0.3347044587135315 0.17941902577877045 0.5738515853881836
0.28440746665000916 0.26012149453163147 0.5172001123428345
0.27209314703941345 0.27578622102737427 0.48916327953338623
0.2223331779241562 0.13646823167800903 0.5753759145736694
0.3901059031486511 0.18834836781024933 0.5570736527442932
0.2268107831478119 0.2329116016626358 0.5457429885864258
0.252782940864563 0.12827517092227936 0.6588404774665833
0.31503039598464966 0.15322187542915344 0.5949569344520569
0.21607616543769836 0.1174268126487732 0.5405035018920898
0.26001736521720886 0.20895755290985107 0.5934171080589294
0.38138189911842346 0.18806035816669464 0.6528803110122681
0.2945905923843384 0.19565625488758087 0.5609676241874695
0.4141004681587219 0.18453703820705414 0.540876567363739
0.23808783292770386 0.2405862659215927 0.6043744683265686
0.36424586176872253 0.22170016169548035 0.6217396855354309
0.22683529555797577 0.16194218397140503 0.6366139650344849
0.23122800886631012 0.29263219237327576 0.6395018100738525
0.20874662697315216 0.19785217940807343 0.5396192073822021
0.36466118693351746 0.21361389756202698 0.51728355884552
0.38580426573753357 0.11247380822896957 0.5597895383834839
0.3022819459438324 0.19092132151126862 0.6493563652038574
0.21826620399951935 0.15648576617240906 0.4553855061531067
0.3129297196865082 0.2788054049015045 0.59684157371521
0.3976474106311798 0.1598396599292755 0.5040227174758911
0.2690330445766449 0.27542784810066223 0.4711168110370636
0.22168618440628052 0.12646418809890747 0.5092883706092834
0.23669326305389404 0.20505258440971375 0.5317504405975342
0.38969793915748596 0.14950811862945557 0.5556890964508057
0.3480105996131897 0.17383190989494324 0.5497583150863647
0.3718756437301636 0.11464614421129227 0.6146358251571655
0.3394828140735626 0.22048909962177277 0.6560025215148926
0.35373151302337646 0.12076573818922043 0.5234693884849548
0.2591235339641571 0.24000708758831024 0.6127831935882568
0.37039002776145935 0.1721254587173462 0.6363839507102966
0.34219643473625183 0.13363327085971832 0.487334281206131
0.3129812479019165 0.10839047282934189 0.5422728657722473
0.2257922887802124 0.17985188961029053 0.47393956780433655
0.24839378893375397 0.15180930495262146 0.4774644672870636
0.25568482279777527 0.17070984840393066 0.6124447584152222
0.385053426027298 0.17317242920398712 0.5670267939567566
0.3623918890953064 0.19944071769714355 0.5244482159614563
0.29353082180023193 0.2823689579963684 0.5536490082740784
0.3171188533306122 0.21256031095981598 0.5239564776420593
0.30170321464538574 0.19564461708068848 0.5149170756340027
0.38684678077697754 0.20823416113853455 0.5010416507720947
0.2626509964466095 0.11610584706068039 0.5879412293434143
0.3724389970302582 0.22008438408374786 0.5454835891723633
0.26496508717536926 0.27513766288757324 0.4779355227947235
0.16983841359615326 0.1251453012228012 0.6453471779823303
0.33223193883895874 0.1441422700881958 0.6648979187011719
0.38976940512657166 0.22230492532253265 0.6028870940208435
0.318633109331131 0.1286356896162033 0.6524196267127991
0.21955104172229767 0.18190373480319977 0.5823351740837097
0.3151060938835144 0.17309992015361786 0.49878549575805664
0.3480105996131897 0.17383190989494324 0.5497583150863647
0.3718756437301636 0.11464614421129227 0.6146358251571655
0.3394828140735626 0.22048909962177277 0.6560025215148926
0.24507762491703033 0.19265693426132202 0.562504768371582
0.2267674207687378 0.2030135691165924 0.5074660778045654
0.2855657637119293 0.11384399980306625 0.606834888458252
0.3362368643283844 0.12445978075265884 0.5777392387390137
0.22592958807945251 0.14739926159381866 0.6320766806602478
0.34534353017807007 0.12576322257518768 0.4951390027999878
0.29828396439552307 0.16804414987564087 0.6162957549095154
0.3607769012451172 0.2619673013687134 0.5785694122314453
0.3723187744617462 0.10288524627685547 0.5296838879585266
0.2612956464290619 0.1320052295923233 0.5780683159828186
0.2417491376399994 0.14595995843410492 0.5317274332046509
0.2904326021671295 0.12740586698055267 0.5838110446929932
0.29131612181663513 0.2596581280231476 0.4667365849018097
0.24825988709926605 0.2775701582431793 0.6089423894882202
0.3578689396381378 0.13704466819763184 0.5393211245536804
0.28382763266563416 0.27490243315696716 0.5151118636131287
0.33702775835990906 0.1676923632621765 0.5912278294563293
0.25012683868408203 0.21347762644290924 0.6328936815261841
0.2482992708683014 0.2588790953159332 0.48084577918052673
0.2574533522129059 0.2933955192565918 0.4812566041946411
0.21547946333885193 0.2005317509174347 0.5718457698822021
0.3754529058933258 0.13811154663562775 0.5135475397109985
0.2716407775878906 0.19457627832889557 0.6559914350509644
0.3093682527542114 0.2146957963705063 0.619132399559021
0.3339526653289795 0.17866280674934387 0.553512454032898
0.3263514041900635 0.14241443574428558 0.49026933312416077
0.3850037157535553 0.18135859072208405 0.643951952457428
0.3178650140762329 0.16458408534526825 0.5499650835990906
0.3151060938835144 0.17309992015361786 0.49878549575805664
0.30311745405197144 0.1401175558567047 0.6073490381240845
0.20472835004329681 0.20130345225334167 0.5831649303436279
0.2339613437652588 0.12527300417423248 0.5652590394020081
0.2701683044433594 0.28899839520454407 0.5701301693916321
0.3702869415283203 0.10565651953220367 0.5882424712181091
0.33628401160240173 0.16783437132835388 0.5275102853775024
0.4020814597606659 0.2553353011608124 0.5038976073265076
0.20540809631347656 0.176079660654068 0.5760045051574707
0.36375248432159424 0.12186409533023834 0.6457761526107788
0.3133183717727661 0.13800518214702606 0.5822699069976807
0.2862638235092163 0.21851563453674316 0.6571356058120728
0.30774229764938354 0.23534582555294037 0.4683763384819031
0.38686633110046387 0.2127579152584076 0.6570791006088257
