ply
format ascii 1.0
element vertex 823
property float x
property float y
property float z
end_header
0.38682976365089417 0.14204297959804535 0.5392611622810364
0.27353158593177795 0.14521969854831696 0.4963380694389343
0.4049587547779083 0.21442019939422607 0.6423373818397522
0.40160346031188965 0.25423020124435425 0.5001230835914612
0.2324385941028595 0.19126416742801666 0.5346964597702026
0.260519415140152 0.1355915367603302 0.6314873695373535
0.22344236075878143 0.2743002772331238 0.6107622981071472
0.3148081302642822 0.23589251935482025 0.5054987072944641
0.374313086271286 0.22728319466114044 0.5449084639549255
0.24222025275230408 0.26271969079971313 0.5056787133216858
0.20349396765232086 0.18661274015903473 0.5966154336929321
0.24805757403373718 0.11284119635820389 0.5183879137039185
0.4246346354484558 0.24308301508426666 0.49131980538368225
0.24811699986457825 0.16766561567783356 0.4944729208946228
0.27066928148269653 0.15214253962039948 0.4759249985218048
0.2368694692850113 0.11449214071035385 0.5251249074935913
0.18950799107551575 0.13596132397651672 0.6422282457351685
0.2700808644294739 0.16791324317455292 0.6622768044471741
0.3783867359161377 0.2632269263267517 0.6408697962760925
0.2957063317298889 0.2357829064130783 0.6214818954467773
0.3339853882789612 0.12545403838157654 0.5944562554359436
0.2999729812145233 0.21900524199008942 0.5494312644004822
0.3794899880886078 0.20428632199764252 0.594929039478302
0.39390915632247925 0.21636471152305603 0.4802797734737396
0.3171432316303253 0.19767829775810242 0.6355941891670227
0.23484882712364197 0.15426012873649597 0.5490214824676514
0.38682976365089417 0.14204297959804535 0.5392611622810364
0.27353158593177795 0.14521969854831696 0.4963380694389343
0.4049587547779083 0.21442019939422607 0.6423373818397522
0.40160346031188965 0.25423020124435425 0.5001230835914612
0.2324385941028595 0.19126416742801666 0.5346964597702026
0.3505322337150574 0.18968181312084198 0.6430556774139404
0.26908549666404724 0.11273008584976196 0.4573335349559784
0.30215153098106384 0.17370137572288513 0.6164507269859314
0.39862939715385437 0.15913987159729004 0.5642654895782471
0.36841461062431335 0.27074822783470154 0.5346372127532959
0.2743559181690216 0.17161259055137634 0.5331727862358093
0.285256564617157 0.15390370786190033 0.5249052047729492
0.32816028594970703 0.1716078370809555 0.62804114818573
0.2508715093135834 0.22685512900352478 0.5641430020332336
0.23421993851661682 0.2275104522705078 0.6146990656852722
0.29893243312835693 0.1953536421060562 0.5856921672821045
0.3046486973762512 0.2165903002023697 0.5073977708816528
0.3379940390586853 0.13394194841384888 0.47091442346572876
0.3508683443069458 0.11186796426773071 0.5146758556365967
0.3396938145160675 0.11908069252967834 0.48647138476371765
0.39941078424453735 0.2653454542160034 0.562181830406189
0.4317825436592102 0.2438133805990219 0.4959408640861511
0.2979961037635803 0.15587757527828217 0.536544680595398
0.23521532118320465 0.14657381176948547 0.5348777174949646
0.26980140805244446 0.19273729622364044 0.5854895710945129
0.3169856071472168 0.2290002554655075 0.5885117650032043
0.37666866183280945 0.12897056341171265 0.5632104873657227
0.28391027450561523 0.2079508900642395 0.6577967405319214
0.36201152205467224 0.26486584544181824 0.6523054242134094
0.2363446205854416 0.28386104106903076 0.5531625747680664
0.24205175042152405 0.2239835411310196 0.5093493461608887
0.3569323718547821 0.23262366652488708 0.4821634590625763
0.21005991101264954 0.13302095234394073 0.48638278245925903
0.37870609760284424 0.15441691875457764 0.48887544870376587
0.3767673373222351 0.10817302018404007 0.6016145944595337
0.2942928671836853 0.2654500901699066 0.5013372898101807
0.3380391299724579 0.12359139323234558 0.5105032324790955
0.3489205241203308 0.1471988558769226 0.567606508731842
0.3942737877368927 0.13191944360733032 0.5996426343917847
0.3691389858722687 0.12005642801523209 0.5163615942001343
0.25653308629989624 0.30046147108078003 0.6444187760353088
0.31223583221435547 0.2821062505245209 0.46934279799461365
0.347828209400177 0.26188045740127563 0.49861255288124084
0.3649292290210724 0.10848059505224228 0.5998188853263855
0.2956116497516632 0.16391074657440186 0.6450808048248291
0.3109639883041382 0.25309476256370544 0.6556144952774048
0.3869268000125885 0.19742855429649353 0.6085922718048096
0.4201117157936096 0.18821662664413452 0.5290384888648987
0.377046138048172 0.19049453735351562 0.5825831890106201
0.32829365134239197 0.14322450757026672 0.5854581594467163
0.2594134509563446 0.17727285623550415 0.5594749450683594
0.3304019868373871 0.11875441670417786 0.4760686457157135
0.41595908999443054 0.24477271735668182 0.5679805874824524
0.3405129015445709 0.19691836833953857 0.5291736721992493
0.2607891261577606 0.20484013855457306 0.5387902855873108
0.41711682081222534 0.24203002452850342 0.6488879323005676
0.3298250734806061 0.21997135877609253 0.6169338226318359
0.3169856071472168 0.2290002554655075 0.5885117650032043
0.29445910453796387 0.27018991112709045 0.5892646908760071
0.30280646681785583 0.117772176861763 0.621944010257721
0.29061171412467957 0.23159973323345184 0.48846548795700073
0.2741527259349823 0.21303872764110565 0.643984317779541
0.3097057342529297 0.23488958179950714 0.4598500728607178
0.37666866183280945 0.12897056341171265 0.5632104873657227
0.28391027450561523 0.2079508900642395 0.6577967405319214
0.36201152205467224 0.26486584544181824 0.6523054242134094
0.2363446205854416 0.28386104106903076 0.5531625747680664
0.24205175042152405 0.2239835411310196 0.5093493461608887
0.3569323718547821 0.23262366652488708 0.4821634590625763
0.21005991101264954 0.13302095234394073 0.48638278245925903
0.37870609760284424 0.15441691875457764 0.48887544870376587
0.3792159855365753 0.10633128881454468 0.6061019897460938
0.3100304901599884 0.135771244764328 0.46390673518180847
0.22513847053050995 0.13422583043575287 0.5144435167312622
0.28852710127830505 0.14460614323616028 0.5150058269500732
0.36147540807724 0.1845727264881134 0.5402969717979431
0.3103269636631012 0.13406307995319366 0.46880412101745605
0.2147696614265442 0.20717720687389374 0.5653815269470215
0.34232842922210693 0.13302503526210785 0.6052324771881104
0.3618677258491516 0.10908467322587967 0.5102222561836243
0.2670116424560547 0.12897586822509766 0.5327379107475281
0.38301071524620056 0.24691343307495117 0.48989516496658325
0.20718592405319214 0.21379128098487854 0.6199667453765869
0.36488521099090576 0.13634829223155975 0.5359463691711426
0.35436612367630005 0.26283881068229675 0.6182038187980652
0.2682051956653595 0.2616787850856781 0.5131766200065613
0.4104985296726227 0.26649439334869385 0.6260505318641663
0.20510035753250122 0.1402256339788437 0.5989468097686768
0.20145566761493683 0.20097215473651886 0.6486302614212036
0.2424321323633194 0.19822625815868378 0.630427360534668
0.29445910453796387 0.27018991112709045 0.5892646908760071
0.30280646681785583 0.117772176861763 0.621944010257721
0.2219073474407196 0.12398214638233185 0.5002791285514832
0.23650337755680084 0.16740669310092926 0.6367708444595337
0.40282806754112244 0.20369118452072144 0.5557518601417542
0.2162625938653946 0.1418343037366867 0.6479453444480896
0.2994769513607025 0.2521878778934479 0.654080331325531
0.26433494687080383 0.1563626378774643 0.4627186059951782
0.40208929777145386 0.2033773958683014 0.6560459733009338
0.249012753367424 0.2075636088848114 0.5250371098518372
0.36336836218833923 0.1364002674818039 0.5395559072494507
0.33094948530197144 0.1296539157629013 0.5355421900749207
0.3171818256378174 0.1695752888917923 0.6585522294044495
0.2554670572280884 0.24549072980880737 0.6218606233596802
0.3501942455768585 0.11189756542444229 0.49993857741355896
0.3951103985309601 0.26920291781425476 0.6246804594993591
0.35824909806251526 0.12292955815792084 0.6386060118675232
0.29838356375694275 0.2518985867500305 0.5713587403297424
0.4214816987514496 0.2584799826145172 0.5442621111869812
0.38252413272857666 0.18461814522743225 0.6079394817352295
0.26603803038597107 0.1949521005153656 0.610180675983429
0.2905333340167999 0.12875311076641083 0.6201222538948059
0.29148346185684204 0.15027105808258057 0.4791295826435089
0.28835490345954895 0.2935304045677185 0.6308369636535645
0.2664226293563843 0.22423329949378967 0.5928187966346741
0.2719091475009918 0.2711964249610901 0.4867455065250397
0.34319865703582764 0.11843093484640121 0.5045509934425354
0.41181352734565735 0.22397315502166748 0.5610775351524353
0.28298625349998474 0.1589936763048172 0.5850703716278076
0.3125082850456238 0.26432788372039795 0.48109057545661926
0.23432433605194092 0.14218737185001373 0.6091504693031311
0.29445910453796387 0.27018991112709045 0.5892646908760071
0.30753716826438904 0.22883713245391846 0.4859093129634857
0.2883864641189575 0.1540623903274536 0.6302053332328796
0.285739004611969 0.25972652435302734 0.6286301016807556
0.3876655101776123 0.22308337688446045 0.6357004642486572
0.2541739344596863 0.17884477972984314 0.6276143193244934
0.24977439641952515 0.29516589641571045 0.5027119517326355
0.38230669498443604 0.1926332712173462 0.5883074402809143
0.22131969034671783 0.17703650891780853 0.6349683403968811
0.4038885831832886 0.24536088109016418 0.6267828345298767
0.27200862765312195 0.186367467045784 0.5025777220726013
0.35886725783348083 0.17898200452327728 0.5230221152305603
0.3049110174179077 0.16543355584144592 0.5093934535980225
0.2561509311199188 0.21302947402000427 0.5422313213348389
0.21179236471652985 0.13441912829875946 0.4787723422050476
0.3426797389984131 0.2699917256832123 0.5493982434272766
0.2598734498023987 0.2867765724658966 0.6386370062828064
0.3714592158794403 0.264572411775589 0.5430645942687988
0.21821865439414978 0.1322617530822754 0.625862181186676
0.2753886282444 0.14453478157520294 0.655385434627533
0.24957789480686188 0.2748774290084839 0.4786807894706726
0.3525888919830322 0.19959388673305511 0.6485282182693481
0.2578211724758148 0.17566744983196259 0.5221621990203857
0.28810232877731323 0.24078531563282013 0.573552131652832
0.3839964270591736 0.2206699550151825 0.568498432636261
0.24972978234291077 0.2835191488265991 0.5718160271644592
0.21018663048744202 0.14400063455104828 0.6405773162841797
0.3648872971534729 0.2664491534233093 0.6303380131721497
0.30911582708358765 0.22228513658046722 0.5219477415084839
0.2456207573413849 0.1446230262517929 0.514674961566925
0.3181825280189514 0.17060546576976776 0.5973343253135681
0.1981179416179657 0.15994895994663239 0.6156894564628601
0.319580614566803 0.18058662116527557 0.659342348575592
0.3569323718547821 0.23262366652488708 0.4821634590625763
0.21005991101264954 0.13302095234394073 0.48638278245925903
0.37870609760284424 0.15441691875457764 0.48887544870376587
0.3767673373222351 0.10817302018404007 0.6016145944595337
0.36748549342155457 0.13058720529079437 0.6055025458335876
0.249012753367424 0.2075636088848114 0.5250371098518372
0.36336836218833923 0.1364002674818039 0.5395559072494507
0.33094948530197144 0.1296539157629013 0.5355421900749207
0.3171818256378174 0.1695752888917923 0.6585522294044495
0.2554670572280884 0.24549072980880737 0.6218606233596802
0.3501942455768585 0.11189756542444229 0.49993857741355896
0.24157793819904327 0.20551124215126038 0.45126470923423767
0.31052514910697937 0.1931139975786209 0.5906791687011719
0.2367088496685028 0.13909299671649933 0.4710000455379486
0.2193305790424347 0.23376689851284027 0.641516923904419
0.2767675817012787 0.11064891517162323 0.5126442909240723
0.3536261320114136 0.11632312834262848 0.6050790548324585
0.27843374013900757 0.20318035781383514 0.4718041718006134
0.37086033821105957 0.11149876564741135 0.637743353843689
0.3275272250175476 0.25566837191581726 0.6316518783569336
0.34166091680526733 0.24358327686786652 0.48420095443725586
0.3472263216972351 0.12288665026426315 0.510679304599762
0.21758705377578735 0.13951018452644348 0.5037141442298889
0.39414578676223755 0.12154923379421234 0.5012913346290588
0.30122363567352295 0.17182613909244537 0.48850688338279724
0.3795787990093231 0.21931299567222595 0.6175321340560913
0.3411276340484619 0.12647655606269836 0.5708657503128052
0.2842175364494324 0.16446149349212646 0.49860745668411255
0.3015117943286896 0.18074040114879608 0.5550895929336548
0.28868764638900757 0.25428950786590576 0.6501784324645996
0.2619141638278961 0.20289507508277893 0.59406578540802
0.2439088225364685 0.1870817393064499 0.5773155689239502
0.2219073474407196 0.12398214638233185 0.5002791285514832
0.23650337755680084 0.16740669310092926 0.6367708444595337
0.40282806754112244 0.20369118452072144 0.5557518601417542
0.2162625938653946 0.1418343037366867 0.6479453444480896
0.2994769513607025 0.2521878778934479 0.654080331325531
0.26433494687080383 0.1563626378774643 0.4627186059951782
0.40208929777145386 0.2033773958683014 0.6560459733009338
0.249012753367424 0.2075636088848114 0.5250371098518372
0.36336836218833923 0.1364002674818039 0.5395559072494507
0.33094948530197144 0.1296539157629013 0.5355421900749207
0.28235405683517456 0.28921785950660706 0.5693567991256714
0.38290342688560486 0.1459607481956482 0.5621630549430847
0.35831472277641296 0.1992826908826828 0.6051475405693054
0.3449901342391968 0.1821073442697525 0.6002373695373535
0.37041518092155457 0.14954808354377747 0.4817821681499481
0.2256057858467102 0.18962505459785461 0.5852916836738586
0.25491005182266235 0.19479601085186005 0.612459123134613
0.3729386329650879 0.2595704197883606 0.6186239719390869
0.26502665877342224 0.18830221891403198 0.6405138969421387
0.41550585627555847 0.23057851195335388 0.5755269527435303
0.3286573588848114 0.16840437054634094 0.6076202988624573
0.23383697867393494 0.24196100234985352 0.49154195189476013
0.3783867359161377 0.2632269263267517 0.6408697962760925
0.41181352734565735 0.22397315502166748 0.5610775351524353
0.28298625349998474 0.1589936763048172 0.5850703716278076
0.3125082850456238 0.26432788372039795 0.48109057545661926
0.23432433605194092 0.14218737185001373 0.6091504693031311
0.41681167483329773 0.2188841551542282 0.4941576421260834
0.3426326513290405 0.15738137066364288 0.5530439019203186
0.32582902908325195 0.19107478857040405 0.6021763682365417
0.25500714778900146 0.29128313064575195 0.6307954788208008
0.319213330745697 0.27283695340156555 0.5178393721580505
0.3229987621307373 0.21943536400794983 0.5856529474258423
0.3681214153766632 0.147401824593544 0.6722336411476135
0.3870719075202942 0.11635611951351166 0.47546619176864624
0.36722585558891296 0.21593673527240753 0.5138635635375977
0.24669337272644043 0.11835421621799469 0.4824153184890747
0.2921929657459259 0.2580079436302185 0.46309539675712585
0.2420348972082138 0.18125328421592712 0.6008475422859192
0.23454298079013824 0.17542201280593872 0.6350908279418945
0.3724699020385742 0.25257229804992676 0.5135807394981384
0.30613502860069275 0.15553168952465057 0.6407440304756165
0.38661205768585205 0.18757759034633636 0.5756009221076965
0.29625147581100464 0.15774312615394592 0.6132442355155945
0.3071437180042267 0.2504134178161621 0.5985574722290039
0.2391708344221115 0.20107080042362213 0.5787436366081238
0.2516636550426483 0.131784588098526 0.48457932472229004
0.22911317646503448 0.12301775813102722 0.5215652585029602
0.3633442223072052 0.20474347472190857 0.5896438360214233
0.3675491213798523 0.25697752833366394 0.6478239297866821
0.27072566747665405 0.1627214401960373 0.46812501549720764
0.26059970259666443 0.18666085600852966 0.5573598742485046
0.309747576713562 0.24961493909358978 0.5396349430084229
0.36995118856430054 0.20269381999969482 0.6733123660087585
0.2861347496509552 0.20292921364307404 0.6366183161735535
0.42618629336357117 0.23205256462097168 0.5209285020828247
0.2875383198261261 0.1133541464805603 0.5574890375137329
0.35707515478134155 0.10820048302412033 0.47185397148132324
0.23867584764957428 0.20783846080303192 0.6059912443161011
0.30752116441726685 0.2374468743801117 0.4926142394542694
0.344058632850647 0.23719528317451477 0.5667202472686768
0.28745967149734497 0.1425386220216751 0.494047075510025
0.3566589653491974 0.1859881728887558 0.5841633677482605
0.288338303565979 0.13629595935344696 0.48935937881469727
0.22531439363956451 0.26948386430740356 0.6209812760353088
0.3660014569759369 0.117287278175354 0.6472301483154297
0.34177011251449585 0.17556777596473694 0.6499485373497009
0.39870429039001465 0.19069111347198486 0.6117632985115051
0.342768132686615 0.2097262293100357 0.5222491025924683
0.36522018909454346 0.21241821348667145 0.6123234629631042
0.2745794355869293 0.22696658968925476 0.5403114557266235
0.3513803780078888 0.16960974037647247 0.5242540240287781
0.27252817153930664 0.14769034087657928 0.4594924747943878
0.32053136825561523 0.2039819061756134 0.6598316431045532
0.29885196685791016 0.16949371993541718 0.552818238735199
0.30246803164482117 0.24285094439983368 0.59135901927948
0.2957192063331604 0.16290481388568878 0.6466662883758545
0.2946506440639496 0.16694624722003937 0.5327094793319702
0.2549877464771271 0.2747518718242645 0.45539966225624084
0.40244975686073303 0.23544669151306152 0.6728590726852417
0.36795899271965027 0.16500015556812286 0.5121396780014038
0.3735509514808655 0.12399085611104965 0.6004129648208618
0.3945634365081787 0.13699257373809814 0.5935964584350586
0.2757335901260376 0.11043471097946167 0.5543662905693054
0.39384177327156067 0.19107146561145782 0.6610181331634521
0.21946057677268982 0.20433124899864197 0.579250156879425
0.3729156255722046 0.26525431871414185 0.5482751131057739
0.24218207597732544 0.23693272471427917 0.4939238727092743
0.31916093826293945 0.12665830552577972 0.47493839263916016
0.3905785083770752 0.1638621985912323 0.5507273077964783
0.2935507297515869 0.27229756116867065 0.5103682279586792
0.29895204305648804 0.2713804543018341 0.5388323664665222
0.2825796604156494 0.26154348254203796 0.4869360327720642
0.3448684513568878 0.16599041223526 0.5379430055618286
0.3513778746128082 0.23691251873970032 0.6390241980552673
0.36405834555625916 0.15724028646945953 0.6464486122131348
0.35010620951652527 0.17447687685489655 0.6561994552612305
0.30984655022621155 0.2711179852485657 0.6080775856971741
0.4119206666946411 0.2633955478668213 0.6667549014091492
0.3248715400695801 0.25990116596221924 0.48672226071357727
0.2453451156616211 0.2211296707391739 0.6140315532684326
0.28400710225105286 0.22205357253551483 0.6064137816429138
0.27723047137260437 0.16919080913066864 0.4842742681503296
0.269173800945282 0.16293132305145264 0.4720363914966583
0.40077850222587585 0.20029084384441376 0.6181493997573853
0.33092525601387024 0.11092622578144073 0.48317617177963257
0.30112776160240173 0.2732832431793213 0.5218226313591003
0.25059524178504944 0.11782155185937881 0.4638121724128723
0.22113046050071716 0.1713535189628601 0.4599720239639282
0.2923116981983185 0.1347387135028839 0.6170305013656616
0.39464709162712097 0.22352281212806702 0.5996717214584351
0.3141472041606903 0.13281787931919098 0.5778847932815552
0.22465915977954865 0.2349419891834259 0.5403672456741333
0.2740488350391388 0.11713118851184845 0.471475213766098
0.2405402511358261 0.2703871428966522 0.507942259311676
0.37360328435897827 0.18087516725063324 0.478158175945282
0.35430851578712463 0.1418825089931488 0.5994647145271301
0.3740300238132477 0.10834786295890808 0.5891755819320679
0.37221893668174744 0.25709497928619385 0.4701424241065979
0.2670583724975586 0.1890249103307724 0.6541882753372192
0.3484892249107361 0.1634398251771927 0.5362229347229004
0.35397541522979736 0.25382575392723083 0.6350170373916626
0.32416853308677673 0.18657636642456055 0.5918585062026978
0.4100598096847534 0.2608397305011749 0.5482802391052246
0.21187081933021545 0.14629283547401428 0.5453721284866333
0.22560639679431915 0.16719792783260345 0.651189923286438
0.3119913637638092 0.22692419588565826 0.6076680421829224
0.31016862392425537 0.15435820817947388 0.521706223487854
0.19772033393383026 0.1845094859600067 0.6200566291809082
0.4112076163291931 0.2084660679101944 0.5383658409118652
0.38564473390579224 0.16687875986099243 0.6657528281211853
0.3108311593532562 0.2380012720823288 0.5341609120368958
0.323091596364975 0.24826815724372864 0.5279718637466431
0.38767629861831665 0.14660438895225525 0.6691020131111145
0.4264048933982849 0.24762389063835144 0.4975423812866211
0.18929676711559296 0.15712210536003113 0.6429369449615479
0.36432671546936035 0.19670337438583374 0.5579004883766174
0.387492299079895 0.11056573688983917 0.5722317099571228
0.34491440653800964 0.15000711381435394 0.49086394906044006
0.2848788797855377 0.133890762925148 0.6580871939659119
0.30475449562072754 0.2832238972187042 0.5013368725776672
0.3949589431285858 0.181660458445549 0.6404203176498413
0.2729465365409851 0.29553860425949097 0.5291661620140076
0.36776113510131836 0.19821545481681824 0.47453829646110535
0.28242388367652893 0.11752849817276001 0.4924789369106293
0.3345722556114197 0.1631307601928711 0.6010509133338928
0.3620105981826782 0.26357442140579224 0.5315655469894409
0.3125900328159332 0.20657658576965332 0.5373842120170593
0.27274104952812195 0.192440927028656 0.4851357638835907
0.32013991475105286 0.24404306709766388 0.5929651856422424
0.44567838311195374 0.2557549774646759 0.48890364170074463
0.36729633808135986 0.13429473340511322 0.5459425449371338
0.3482207655906677 0.19981740415096283 0.46876540780067444
0.24194617569446564 0.2485022097826004 0.5819026827812195
0.3811124563217163 0.10994820296764374 0.6517885327339172
0.23078769445419312 0.2337840050458908 0.516059935092926
0.2289082258939743 0.12302441895008087 0.5136082768440247
0.37158405780792236 0.20658031105995178 0.5329086184501648
0.2993164658546448 0.23021052777767181 0.5032318830490112
0.3312203884124756 0.23603686690330505 0.6255245804786682
0.3683539032936096 0.1536201685667038 0.4825115203857422
0.3253299593925476 0.18090741336345673 0.543637752532959
0.3201327323913574 0.1886219084262848 0.5535724759101868
0.21522767841815948 0.1650475710630417 0.6416005492210388
0.24858133494853973 0.14144529402256012 0.6355454325675964
0.29102542996406555 0.27576202154159546 0.4955037832260132
0.3847919702529907 0.12895061075687408 0.5842409133911133
0.2906248867511749 0.26885607838630676 0.45634564757347107
0.3191829025745392 0.18268920481204987 0.46965935826301575
0.4192013144493103 0.18197502195835114 0.5370913743972778
0.26490548253059387 0.18366357684135437 0.6481648683547974
0.3392695486545563 0.2482033669948578 0.4741617739200592
0.3233310282230377 0.17926670610904694 0.6352658271789551
0.24586045742034912 0.19391651451587677 0.6326988339424133
0.260763019323349 0.18430891633033752 0.5689322352409363
0.2366049736738205 0.22608539462089539 0.5790839791297913
0.3262442350387573 0.13026349246501923 0.4769424498081207
0.26953092217445374 0.19046254456043243 0.591658353805542
0.3805980086326599 0.13756956160068512 0.4742763042449951
0.31142547726631165 0.25943005084991455 0.6017701625823975
0.36583083868026733 0.14062505960464478 0.5160847902297974
0.2512807250022888 0.23633569478988647 0.6130516529083252
0.3020371198654175 0.18040315806865692 0.5195414423942566
0.21675102412700653 0.16625796258449554 0.5448467135429382
0.36893507838249207 0.12544536590576172 0.5369437336921692
0.22950764000415802 0.17005328834056854 0.47418856620788574
0.2604426145553589 0.27936893701553345 0.5508222579956055
0.30580011010169983 0.2707500457763672 0.5550375580787659
0.21822908520698547 0.2451673001050949 0.6325235366821289
0.2144160121679306 0.12819784879684448 0.45421239733695984
0.2959572672843933 0.2661532759666443 0.5690822601318359
0.38262102007865906 0.15149140357971191 0.6030246615409851
0.2860913872718811 0.11671478301286697 0.5174010396003723
0.3328637182712555 0.26951608061790466 0.4618178606033325
0.3517785966396332 0.14001622796058655 0.48463720083236694
0.24714869260787964 0.2759532332420349 0.5283079147338867
0.38013574481010437 0.136053666472435 0.5920016169548035
0.2305423766374588 0.15241505205631256 0.6233161687850952
0.3243010640144348 0.16171616315841675 0.6043673157691956
0.34793224930763245 0.13510774075984955 0.638401985168457
0.32367217540740967 0.2296203374862671 0.49174433946609497
0.2690679728984833 0.26138216257095337 0.5860411524772644
0.2681843340396881 0.25017625093460083 0.5103030800819397
0.19359806180000305 0.1563505083322525 0.6408935785293579
0.39363402128219604 0.2657942771911621 0.48548009991645813
0.27306556701660156 0.12102066725492477 0.5705921649932861
0.30536505579948425 0.14363916218280792 0.6545305848121643
0.2996630370616913 0.18362869322299957 0.5485026240348816
0.1938142478466034 0.12034133076667786 0.5412524938583374
0.24656637012958527 0.2288530021905899 0.5822200775146484
0.27333492040634155 0.16994434595108032 0.5696290731430054
0.2862403988838196 0.1486283391714096 0.4642961323261261
0.20713290572166443 0.1174241155385971 0.4877626299858093
0.22791366279125214 0.1989210546016693 0.6479915976524353
0.3625340759754181 0.19237957894802094 0.6372218132019043
0.2379658818244934 0.18372972309589386 0.5437062978744507
0.3662121593952179 0.2040744572877884 0.6509656310081482
0.23109200596809387 0.23038704693317413 0.4989960789680481
0.30773842334747314 0.14037801325321198 0.5666058659553528
0.2987053394317627 0.16736674308776855 0.6407314538955688
0.37556251883506775 0.15465202927589417 0.5355815887451172
0.3701431453227997 0.1583196073770523 0.4876481592655182
0.4145171344280243 0.1738579124212265 0.5222280025482178
0.3171227276325226 0.17173439264297485 0.4778572916984558
0.3061469495296478 0.16325052082538605 0.48819589614868164
0.4042489528656006 0.18612362444400787 0.6212953925132751
0.2092413604259491 0.11856814473867416 0.48044607043266296
0.21354474127292633 0.13150091469287872 0.46311986446380615
0.26925256848335266 0.14243164658546448 0.5729869604110718
0.380993515253067 0.21643492579460144 0.5429037809371948
0.3608276844024658 0.21694372594356537 0.49287453293800354
0.24356701970100403 0.1212468296289444 0.46021920442581177
0.29796698689460754 0.2798585891723633 0.5121440291404724
0.3524588346481323 0.1416599452495575 0.47787144780158997
0.20540547370910645 0.12382420897483826 0.6062430143356323
0.25896888971328735 0.27698832750320435 0.47228682041168213
0.399184912443161 0.21153293550014496 0.5197198390960693
0.303340345621109 0.15725339949131012 0.5734708309173584
0.2714923620223999 0.17258375883102417 0.6051718592643738
0.2716151177883148 0.20259885489940643 0.5861345529556274
0.21811893582344055 0.1727077215909958 0.49325141310691833
0.24323555827140808 0.22180266678333282 0.621491551399231
0.32057514786720276 0.1870955377817154 0.5624895691871643
0.38638895750045776 0.20806218683719635 0.5979374647140503
0.35021066665649414 0.14849144220352173 0.4821169972419739
0.3019729554653168 0.2014809548854828 0.6450081467628479
0.29041028022766113 0.28419724106788635 0.560797929763794
0.3046315312385559 0.21221204102039337 0.46709227561950684
0.3662121593952179 0.2040744572877884 0.6509656310081482
0.23109200596809387 0.23038704693317413 0.4989960789680481
0.30773842334747314 0.14037801325321198 0.5666058659553528
0.2987053394317627 0.16736674308776855 0.6407314538955688
0.37556251883506775 0.15465202927589417 0.5355815887451172
0.3701431453227997 0.1583196073770523 0.4876481592655182
0.4145171344280243 0.1738579124212265 0.5222280025482178
0.3426326513290405 0.15738137066364288 0.5530439019203186
0.40244975686073303 0.23544669151306152 0.6728590726852417
0.36795899271965027 0.16500015556812286 0.5121396780014038
0.3735509514808655 0.12399085611104965 0.6004129648208618
0.3945634365081787 0.13699257373809814 0.5935964584350586
0.29720962047576904 0.2827795445919037 0.5276719927787781
0.25601837038993835 0.21317158639431 0.46025407314300537
0.4138161838054657 0.23414921760559082 0.5130898356437683
0.24366559088230133 0.20624808967113495 0.5463902950286865
0.2614668309688568 0.12420310825109482 0.48521554470062256
0.37433117628097534 0.11812373995780945 0.6634557843208313
0.26496565341949463 0.2495107799768448 0.49703338742256165
0.2428649663925171 0.20661894977092743 0.45856645703315735
0.28494060039520264 0.24368785321712494 0.45416364073753357
0.25543710589408875 0.20595863461494446 0.6061676740646362
0.2067360281944275 0.16433103382587433 0.5952553749084473
0.22791366279125214 0.1989210546016693 0.6479915976524353
0.3625340759754181 0.19237957894802094 0.6372218132019043
0.2379658818244934 0.18372972309589386 0.5437062978744507
0.3662121593952179 0.2040744572877884 0.6509656310081482
0.23109200596809387 0.23038704693317413 0.4989960789680481
0.30773842334747314 0.14037801325321198 0.5666058659553528
0.2987053394317627 0.16736674308776855 0.6407314538955688
0.37556251883506775 0.15465202927589417 0.5355815887451172
0.3701431453227997 0.1583196073770523 0.4876481592655182
0.4145171344280243 0.1738579124212265 0.5222280025482178
0.36380642652511597 0.18599720299243927 0.6479196548461914
0.4047921895980835 0.21493268013000488 0.6364390850067139
0.3342074751853943 0.2834656536579132 0.5647060871124268
0.33353951573371887 0.24897916615009308 0.4856388568878174
0.33201202750205994 0.13330157101154327 0.6585139632225037
0.35248902440071106 0.11068844795227051 0.4724261164665222
0.21110767126083374 0.1473177969455719 0.6166061758995056
0.3191829025745392 0.18268920481204987 0.46965935826301575
0.4192013144493103 0.18197502195835114 0.5370913743972778
0.26490548253059387 0.18366357684135437 0.6481648683547974
0.3091830909252167 0.14402437210083008 0.5693013072013855
0.32442277669906616 0.28722572326660156 0.6072643399238586
0.1965993046760559 0.15614989399909973 0.5865252614021301
0.3718274235725403 0.18420149385929108 0.5768610835075378
0.2713962197303772 0.29059335589408875 0.6444423794746399
0.31789061427116394 0.1899964064359665 0.6634601354598999
0.3334285318851471 0.10725904256105423 0.549126148223877
0.2913743257522583 0.15025117993354797 0.6221305727958679
0.2849299907684326 0.2920617461204529 0.5957115292549133
0.35803836584091187 0.10818943381309509 0.47669658064842224
0.4018327593803406 0.14000311493873596 0.5074597001075745
0.24497069418430328 0.16349978744983673 0.6075869798660278
0.20421361923217773 0.15092843770980835 0.5591723322868347
0.2103053480386734 0.16182565689086914 0.48127225041389465
0.2487979680299759 0.29055601358413696 0.4997367858886719
0.27256786823272705 0.18164393305778503 0.5296481251716614
0.3440048098564148 0.17129366099834442 0.6719285249710083
0.24468383193016052 0.11271276324987411 0.5419318079948425
0.28162577748298645 0.159767284989357 0.5637621879577637
0.32151439785957336 0.20838648080825806 0.5690561532974243
0.27003923058509827 0.17258605360984802 0.575928807258606
0.2955714166164398 0.24014200270175934 0.46076643466949463
0.3388541340827942 0.25402483344078064 0.5142136216163635
0.31112682819366455 0.17495951056480408 0.5172201991081238
0.3743878901004791 0.10771709680557251 0.6196318864822388
0.2285376787185669 0.15784746408462524 0.6529964208602905
0.3901168406009674 0.18761399388313293 0.6384799480438232
0.2250557392835617 0.15696299076080322 0.5844743847846985
0.3253299593925476 0.18090741336345673 0.543637752532959
0.21460793912410736 0.24753215909004211 0.6374749541282654
0.33917635679244995 0.11234023422002792 0.6243682503700256
0.2893643379211426 0.14194832742214203 0.6427238583564758
0.3103407919406891 0.25403890013694763 0.5553396344184875
0.32433241605758667 0.2390170693397522 0.5207090973854065
0.34754371643066406 0.20513826608657837 0.5561258792877197
0.28996995091438293 0.13909529149532318 0.4728575348854065
0.3661750853061676 0.16220998764038086 0.6398493647575378
0.3088303208351135 0.2700261175632477 0.5452225804328918
0.3281392753124237 0.2767043113708496 0.48537346720695496
0.3775327205657959 0.14461107552051544 0.5792827010154724
0.37063342332839966 0.193297877907753 0.5663251876831055
0.33677342534065247 0.13100796937942505 0.6580246090888977
0.3341921269893646 0.22702059149742126 0.5194917917251587
0.23949208855628967 0.11513134837150574 0.6564444899559021
0.22791366279125214 0.1989210546016693 0.6479915976524353
0.3625340759754181 0.19237957894802094 0.6372218132019043
0.2379658818244934 0.18372972309589386 0.5437062978744507
0.3662121593952179 0.2040744572877884 0.6509656310081482
0.23109200596809387 0.23038704693317413 0.4989960789680481
0.30773842334747314 0.14037801325321198 0.5666058659553528
0.3094547688961029 0.23419225215911865 0.5465604662895203
0.39530983567237854 0.2538406252861023 0.5366275906562805
0.24768343567848206 0.24722492694854736 0.5296646356582642
0.3958117961883545 0.14011086523532867 0.5140135288238525
0.3605746924877167 0.19260522723197937 0.5559718608856201
0.3867482841014862 0.27414271235466003 0.6528890132904053
0.3067857027053833 0.2500222623348236 0.5207520723342896
0.2699788212776184 0.110614113509655 0.45923468470573425
0.32420459389686584 0.11357995122671127 0.6340131759643555
0.34157514572143555 0.20230279862880707 0.5627350807189941
0.36452412605285645 0.13476039469242096 0.650879979133606
0.37395235896110535 0.13979016244411469 0.6842249035835266
0.2307802438735962 0.27043041586875916 0.5945221185684204
0.3392695486545563 0.2482033669948578 0.4741617739200592
0.3233310282230377 0.17926670610904694 0.6352658271789551
0.24586045742034912 0.19391651451587677 0.6326988339424133
0.260763019323349 0.18430891633033752 0.5689322352409363
0.2366049736738205 0.22608539462089539 0.5790839791297913
0.3262442350387573 0.13026349246501923 0.4769424498081207
0.26953092217445374 0.19046254456043243 0.591658353805542
0.2791154980659485 0.12181755155324936 0.5587490797042847
0.3686906397342682 0.16773536801338196 0.5065286755561829
0.35528525710105896 0.15726172924041748 0.6300274729728699
0.21973209083080292 0.13033926486968994 0.4890051484107971
0.23598434031009674 0.16840782761573792 0.5704814791679382
0.37484028935432434 0.14507585763931274 0.5972774624824524
0.2434270977973938 0.18219995498657227 0.649011492729187
0.3308211863040924 0.11786506325006485 0.5032758116722107
0.36636337637901306 0.11083804070949554 0.5900625586509705
0.362324059009552 0.19301581382751465 0.5072218775749207
0.3882605731487274 0.23561416566371918 0.5433800220489502
0.2767733931541443 0.12189981341362 0.6133586168289185
0.4118139147758484 0.2295369803905487 0.4731086194515228
0.25024962425231934 0.2356245219707489 0.617806077003479
0.3545067608356476 0.11134655773639679 0.6548362970352173
0.20536530017852783 0.15662480890750885 0.5869709849357605
0.4211244285106659 0.2214377522468567 0.5182141661643982
0.24813275039196014 0.22193311154842377 0.6302397847175598
0.2851811647415161 0.2480018138885498 0.6224777698516846
0.32823312282562256 0.17944151163101196 0.601343035697937
0.3597172498703003 0.25353774428367615 0.6277366280555725
0.28575780987739563 0.2665680944919586 0.6514836549758911
0.2549877464771271 0.2747518718242645 0.45539966225624084
0.4103926718235016 0.20465520024299622 0.48282888531684875
0.35461750626564026 0.1648094207048416 0.5701188445091248
0.41942572593688965 0.21825672686100006 0.5213865637779236
0.3664504587650299 0.2190031111240387 0.4806974232196808
0.35631996393203735 0.20837849378585815 0.532152533531189
0.3873109221458435 0.165650874376297 0.5264945030212402
0.3897783160209656 0.2484261691570282 0.6478954553604126
0.3970385193824768 0.1113017350435257 0.515213131904602
0.30387401580810547 0.1387144774198532 0.593015193939209
0.40487316250801086 0.2641938030719757 0.48402974009513855
0.3691895008087158 0.23057344555854797 0.6501061320304871
0.40453070402145386 0.23488976061344147 0.48952940106391907
0.3759751319885254 0.22826986014842987 0.5722140073776245
0.3152971565723419 0.16069333255290985 0.48572343587875366
0.30432283878326416 0.1787177175283432 0.6164659261703491
0.41968321800231934 0.22869007289409637 0.5842818021774292
0.3244168758392334 0.16179165244102478 0.5382810235023499
0.3247462511062622 0.1733432114124298 0.6086314916610718
0.35192668437957764 0.11635260283946991 0.4917680025100708
0.3768444061279297 0.1650848388671875 0.6311277747154236
0.2401360422372818 0.2399151474237442 0.6380806565284729
0.3895401656627655 0.19677990674972534 0.5206138491630554
0.28202366828918457 0.13599243760108948 0.5850147008895874
0.23498140275478363 0.1542855054140091 0.5049411654472351
0.37553730607032776 0.16642935574054718 0.5068666338920593
0.3316285014152527 0.2266615331172943 0.6569077372550964
0.3250995874404907 0.22321011126041412 0.6608933210372925
0.3319425880908966 0.1258343905210495 0.6680977940559387
0.28889837861061096 0.11916694045066833 0.5619505047798157
0.411659836769104 0.2597291171550751 0.628143846988678
0.31812936067581177 0.20622988045215607 0.5987438559532166
0.28242388367652893 0.11752849817276001 0.4924789369106293
0.2580767869949341 0.22552569210529327 0.6545358300209045
0.25876376032829285 0.26729491353034973 0.6305954456329346
0.2691076099872589 0.1700957864522934 0.5555441975593567
0.2755422592163086 0.26127564907073975 0.4886578917503357
0.21238921582698822 0.20245763659477234 0.6088567972183228
0.30376219749450684 0.12813140451908112 0.6331767439842224
0.38929685950279236 0.24097196757793427 0.6368793249130249
0.37930792570114136 0.11109936237335205 0.6175243258476257
0.3062926232814789 0.20380374789237976 0.5579386353492737
0.2939121127128601 0.12397574633359909 0.5917899012565613
0.27148401737213135 0.12587058544158936 0.6563923358917236
0.22533458471298218 0.2877519726753235 0.6365720629692078
0.28861430287361145 0.1733429878950119 0.5146246552467346
0.32143598794937134 0.18796934187412262 0.6236509084701538
0.2579013705253601 0.16725309193134308 0.4979863464832306
0.385349839925766 0.10851820558309555 0.5180261731147766
0.37288108468055725 0.2633657455444336 0.4788847863674164
0.31839048862457275 0.16085928678512573 0.5817445516586304
0.384169340133667 0.18575763702392578 0.639914333820343
0.27723804116249084 0.28981250524520874 0.5341725945472717
0.31673386693000793 0.1711488664150238 0.526282012462616
0.34663093090057373 0.1966894567012787 0.6559708714485168
0.3350476026535034 0.1705867499113083 0.49605637788772583
0.3966125547885895 0.10980162769556046 0.5425971150398254
0.2837274372577667 0.1544293761253357 0.5125384330749512
0.36585038900375366 0.20962992310523987 0.6316125392913818
0.2924143970012665 0.1911584734916687 0.48631274700164795
0.36342886090278625 0.21987754106521606 0.4962945282459259
0.37030690908432007 0.18927165865898132 0.4772917628288269
0.28306490182876587 0.11081168055534363 0.5691570043563843
0.28034836053848267 0.2358052134513855 0.5208296179771423
0.32736480236053467 0.1817605197429657 0.5316008925437927
0.22560639679431915 0.16719792783260345 0.651189923286438
0.289259135723114 0.27464210987091064 0.4922948181629181
0.3006512522697449 0.13980792462825775 0.598273515701294
0.3180427551269531 0.15714631974697113 0.5095915794372559
0.378146767616272 0.10738193243741989 0.6212289333343506
0.31927767395973206 0.22966425120830536 0.5420004725456238
0.30887794494628906 0.12179434299468994 0.5996415019035339
0.31655651330947876 0.2577449083328247 0.6241692304611206
0.28718915581703186 0.2199227660894394 0.65235435962677
0.4249250292778015 0.24683088064193726 0.5648688077926636
0.38337942957878113 0.24192801117897034 0.6577006578445435
0.3741946220397949 0.18434198200702667 0.5488623976707458
0.21035614609718323 0.11810080707073212 0.6153296232223511
0.33355191349983215 0.2547851800918579 0.6436089277267456
0.41461360454559326 0.22306974232196808 0.473788321018219
0.3050975203514099 0.2116789072751999 0.5760893821716309
0.22693674266338348 0.12216443568468094 0.5964674949645996
0.3604113459587097 0.1187341958284378 0.6541925072669983
0.38186728954315186 0.12110157310962677 0.5116860270500183
0.3521759808063507 0.12733006477355957 0.5317797660827637
0.3279109299182892 0.20612412691116333 0.5732080936431885
0.2115536332130432 0.16022656857967377 0.47442060708999634
0.30477175116539 0.16629089415073395 0.5346905589103699
0.2814180552959442 0.2002730518579483 0.5308037400245667
0.35367462038993835 0.17241999506950378 0.5963897705078125
0.34299686551094055 0.2318257987499237 0.5284716486930847
0.39854294061660767 0.17990747094154358 0.5078942179679871
0.2092125415802002 0.13718605041503906 0.5693526268005371
0.32192689180374146 0.26478391885757446 0.4897273778915405
0.358718603849411 0.21275757253170013 0.6168982982635498
0.3894549310207367 0.10873541235923767 0.47562500834465027
0.26570433378219604 0.29361242055892944 0.5653049349784851
0.26880520582199097 0.13673336803913116 0.47770336270332336
0.2615761458873749 0.18327325582504272 0.6436380743980408
0.30857327580451965 0.14286409318447113 0.5302741527557373
0.30349528789520264 0.1101461723446846 0.5042757987976074
0.42483723163604736 0.2604309022426605 0.6213281750679016
0.20813143253326416 0.1341705471277237 0.5107580423355103
0.2822452187538147 0.22144928574562073 0.48513978719711304
0.3621214032173157 0.23459874093532562 0.6054721474647522
0.35687869787216187 0.2184288054704666 0.6511387825012207
0.29850131273269653 0.27214619517326355 0.5746023654937744
0.33509474992752075 0.10845264047384262 0.627766489982605
0.21982960402965546 0.127949059009552 0.5329729914665222
0.27536314725875854 0.25481024384498596 0.4831167459487915
0.38553935289382935 0.24296633899211884 0.4694487452507019
0.37275028228759766 0.1558443158864975 0.5679842829704285
0.24375419318675995 0.21944954991340637 0.4562259018421173
0.31727784872055054 0.18767118453979492 0.6017388701438904
0.2775847315788269 0.22965598106384277 0.6075960397720337
0.22785323858261108 0.25818032026290894 0.6034565567970276
0.4175748825073242 0.2246852070093155 0.6225095391273499
0.33801570534706116 0.1706298142671585 0.6642194390296936
0.3324093818664551 0.22626030445098877 0.5036383271217346
0.38710448145866394 0.1619560867547989 0.5070300102233887
0.25485333800315857 0.1453259438276291 0.45896315574645996
0.34741854667663574 0.18607600033283234 0.6652229428291321
0.2181479036808014 0.18659095466136932 0.5053226351737976
0.27503031492233276 0.2518695592880249 0.5099205374717712
0.24770423769950867 0.11365404725074768 0.5422452688217163
0.3627699315547943 0.21408282220363617 0.5859236717224121
0.4217302203178406 0.23756031692028046 0.5570807456970215
0.24390025436878204 0.18054066598415375 0.4736119508743286
0.37484028935432434 0.14507585763931274 0.5972774624824524
0.41452595591545105 0.17440377175807953 0.48253554105758667
0.2792729139328003 0.15994785726070404 0.6018812656402588
0.4278382956981659 0.24165013432502747 0.5383077263832092
0.3545067608356476 0.11134655773639679 0.6548362970352173
0.20536530017852783 0.15662480890750885 0.5869709849357605
0.4211244285106659 0.2214377522468567 0.5182141661643982
0.24813275039196014 0.22193311154842377 0.6302397847175598
0.2851811647415161 0.2480018138885498 0.6224777698516846
0.32823312282562256 0.17944151163101196 0.601343035697937
0.3597172498703003 0.25353774428367615 0.6277366280555725
0.28575780987739563 0.2665680944919586 0.6514836549758911
0.3140900433063507 0.19548353552818298 0.5810856223106384
0.39289590716362 0.2594280540943146 0.527209460735321
0.34803518652915955 0.2342219352722168 0.6234529614448547
0.24812182784080505 0.3005649745464325 0.5594125390052795
0.3514467775821686 0.12267149984836578 0.5108972191810608
0.25514185428619385 0.12373028695583344 0.5222342610359192
0.2852233052253723 0.2852916419506073 0.4575453996658325
0.39025941491127014 0.2512853741645813 0.6125442981719971
0.23300758004188538 0.20392490923404694 0.6237576007843018
0.28704506158828735 0.22771866619586945 0.511086642742157
0.28915655612945557 0.2670744061470032 0.5934028029441833
0.3378698229789734 0.1622958481311798 0.6646144390106201
0.2833641469478607 0.15225811302661896 0.5450238585472107
0.23066604137420654 0.12785789370536804 0.5653106570243835
0.3357207477092743 0.1806512475013733 0.5482904314994812
0.25277045369148254 0.19663307070732117 0.6492634415626526
0.42500677704811096 0.21310722827911377 0.5465010404586792
0.3218453824520111 0.17213480174541473 0.4999839961528778
0.2750256359577179 0.18194815516471863 0.5877766609191895
0.2996688485145569 0.23326799273490906 0.5690100789070129
0.39371511340141296 0.24267679452896118 0.5009862184524536
0.2699788212776184 0.110614113509655 0.45923468470573425
0.32420459389686584 0.11357995122671127 0.6340131759643555
0.3745688498020172 0.21690867841243744 0.5387827157974243
0.29323747754096985 0.12003947049379349 0.6512573957443237
0.36670321226119995 0.13471923768520355 0.6188274621963501
0.2624766230583191 0.24580514430999756 0.5365409851074219
0.24999919533729553 0.20602083206176758 0.6510730981826782
0.3561572730541229 0.2798455059528351 0.6048381328582764
0.40116843581199646 0.25185516476631165 0.4869195818901062
0.40328067541122437 0.236430361866951 0.5458745956420898
0.37740522623062134 0.18821397423744202 0.5372611284255981
0.26405972242355347 0.15459510684013367 0.6526145935058594
0.2522575855255127 0.15323878824710846 0.5856677889823914
0.21049217879772186 0.13811446726322174 0.5705571174621582
0.23080775141716003 0.11568616330623627 0.5223567485809326
0.4214805066585541 0.25392085313796997 0.5500472187995911
0.3494446277618408 0.20264306664466858 0.5126919150352478
0.28050944209098816 0.11459710448980331 0.6683003306388855
0.22785323858261108 0.25818032026290894 0.6034565567970276
0.4175748825073242 0.2246852070093155 0.6225095391273499
0.33801570534706116 0.1706298142671585 0.6642194390296936
0.3324093818664551 0.22626030445098877 0.5036383271217346
0.38710448145866394 0.1619560867547989 0.5070300102233887
0.25485333800315857 0.1453259438276291 0.45896315574645996
0.34741854667663574 0.18607600033283234 0.6652229428291321
0.2181479036808014 0.18659095466136932 0.5053226351737976
0.27503031492233276 0.2518695592880249 0.5099205374717712
0.24770423769950867 0.11365404725074768 0.5422452688217163
0.3627699315547943 0.21408282220363617 0.5859236717224121
0.4217302203178406 0.23756031692028046 0.5570807456970215
0.24390025436878204 0.18054066598415375 0.4736119508743286
0.40228816866874695 0.22116205096244812 0.5237531065940857
0.36631205677986145 0.13907280564308167 0.6460077166557312
0.2248542606830597 0.28253263235092163 0.6422253847122192
0.20463863015174866 0.14565753936767578 0.6296752095222473
0.3168655037879944 0.2534674108028412 0.5487856268882751
0.41573187708854675 0.21403132379055023 0.5323367714881897
0.2754838168621063 0.11978224664926529 0.5298125743865967
0.2785744369029999 0.27903667092323303 0.4815484881401062
0.29022055864334106 0.17587700486183167 0.6031608581542969
0.30508551001548767 0.25813043117523193 0.6405481696128845
0.281186044216156 0.1603541374206543 0.5256844758987427
0.3145999014377594 0.2478971779346466 0.6458919644355774
0.2539469301700592 0.16295412182807922 0.5664805173873901
0.3881727457046509 0.18702486157417297 0.5890993475914001
0.2812202572822571 0.27315255999565125 0.498118132352829
0.22785323858261108 0.25818032026290894 0.6034565567970276
0.4175748825073242 0.2246852070093155 0.6225095391273499
0.33801570534706116 0.1706298142671585 0.6642194390296936
0.3324093818664551 0.22626030445098877 0.5036383271217346
0.38710448145866394 0.1619560867547989 0.5070300102233887
0.25485333800315857 0.1453259438276291 0.45896315574645996
0.34741854667663574 0.18607600033283234 0.6652229428291321
0.2181479036808014 0.18659095466136932 0.5053226351737976
0.27503031492233276 0.2518695592880249 0.5099205374717712
0.24770423769950867 0.11365404725074768 0.5422452688217163
0.3627699315547943 0.21408282220363617 0.5859236717224121
0.4217302203178406 0.23756031692028046 0.5570807456970215
0.24390025436878204 0.18054066598415375 0.4736119508743286
0.3227924704551697 0.17521260678768158 0.4998624920845032
0.3991236984729767 0.17535798251628876 0.5732086896896362
0.21972744166851044 0.1396256387233734 0.6251389980316162
0.42788639664649963 0.234644815325737 0.5325721502304077
0.2501410245895386 0.2864133417606354 0.49500226974487305
0.384169340133667 0.18575763702392578 0.639914333820343
0.27723804116249084 0.28981250524520874 0.5341725945472717
0.31673386693000793 0.1711488664150238 0.526282012462616
