ply
format ascii 1.0
element vertex 825
property float x
property float y
property float z
end_header
0.4041794240474701 0.13873015344142914 0.6013804078102112
0.38036221265792847 0.12345373630523682 0.5190567374229431
0.2549852132797241 0.30313342809677124 0.645243227481842
0.3140716254711151 0.28775060176849365 0.470048725605011
0.35046741366386414 0.2686801552772522 0.499363511800766
0.3769242465496063 0.11079664528369904 0.6023755669593811
0.3033764362335205 0.16751135885715485 0.6463301181793213
0.3128521740436554 0.2582186460494995 0.6567217111587524
0.39245474338531494 0.20588302612304688 0.6096276044845581
0.4265591502189636 0.19806809723377228 0.5303375720977783
0.383187472820282 0.19799545407295227 0.5837318301200867
0.3375546336174011 0.14729587733745575 0.587192714214325
0.2669321894645691 0.17991474270820618 0.5604808926582336
0.3419051170349121 0.12079822272062302 0.4786189794540405
0.4186617434024811 0.255185604095459 0.568750262260437
0.3468618392944336 0.2027098536491394 0.5302795767784119
0.2668071687221527 0.2077649086713791 0.539482593536377
0.41966313123703003 0.2530517876148224 0.6497160196304321
0.3340129256248474 0.22586914896965027 0.61805260181427
0.3207247257232666 0.23444537818431854 0.5895839333534241
0.2954254746437073 0.2748558223247528 0.5902850031852722
0.31337976455688477 0.11982754617929459 0.6238290667533875
0.29527705907821655 0.23599274456501007 0.4890613853931427
0.2786311209201813 0.21646632254123688 0.6449931263923645
0.3142559230327606 0.24003402888774872 0.4605560898780823
0.3870187997817993 0.1341504007577896 0.5653913617134094
0.2887750566005707 0.21164309978485107 0.6588374972343445
0.3632727563381195 0.27259862422943115 0.6532425880432129
0.23699377477169037 0.2855997085571289 0.5532822012901306
0.24718564748764038 0.2261139452457428 0.5096173882484436
0.3612947165966034 0.23944126069545746 0.4829389452934265
0.2206999659538269 0.1330557018518448 0.48726609349250793
0.3879808485507965 0.15994343161582947 0.4910547733306885
0.39143070578575134 0.10870128870010376 0.6085906028747559
0.32062670588493347 0.13840411603450775 0.4660066068172455
0.23541788756847382 0.13499493896961212 0.5154045224189758
0.29820016026496887 0.14750240743160248 0.516555905342102
0.36838167905807495 0.19093117117881775 0.5415636301040649
0.3209514915943146 0.13665243983268738 0.47090092301368713
0.22044207155704498 0.20787450671195984 0.5655927062034607
0.3522808849811554 0.1370564103126526 0.6070780754089355
0.3738365173339844 0.11098555475473404 0.5131413340568542
0.27728408575057983 0.13096265494823456 0.5342286229133606
0.3864431381225586 0.2549858093261719 0.49049612879753113
0.2116585224866867 0.2141728401184082 0.6202893853187561
0.37492653727531433 0.14112187922000885 0.5381269454956055
0.3557165563106537 0.2701864242553711 0.6192203760147095
0.2708210349082947 0.26527586579322815 0.5135785937309265
0.4115527272224426 0.27702733874320984 0.626824676990509
0.21406306326389313 0.14056529104709625 0.5996304154396057
0.20653055608272552 0.2011752873659134 0.6489916443824768
0.24787570536136627 0.20032933354377747 0.6312153339385986
0.2954254746437073 0.2748558223247528 0.5902850031852722
0.31337976455688477 0.11982754617929459 0.6238290667533875
0.23281797766685486 0.12440722435712814 0.5013169646263123
0.2437596470117569 0.16923154890537262 0.6375997066497803
0.4081644117832184 0.2128884494304657 0.556788980960846
0.22463321685791016 0.14279057085514069 0.6486469507217407
0.3013633191585541 0.2568020820617676 0.655171275138855
0.273894727230072 0.1586834043264389 0.4639985263347626
0.407184898853302 0.21324576437473297 0.656919538974762
0.2550402581691742 0.20996275544166565 0.5255511403083801
0.37338098883628845 0.14115853607654572 0.5417057871818542
0.3412846028804779 0.13296329975128174 0.5376311540603638
0.32470816373825073 0.17401593923568726 0.659744381904602
0.2577385902404785 0.2482878565788269 0.6226495504379272
0.36197763681411743 0.11382235586643219 0.5027231574058533
0.3960222899913788 0.2788080871105194 0.6254792809486389
0.369191437959671 0.12700317800045013 0.6404219269752502
0.3007581830024719 0.2567266523838043 0.5723052620887756
0.4236504137516022 0.26896530389785767 0.5448690056800842
0.38892799615859985 0.19250144064426422 0.6090598106384277
0.27190306782722473 0.19800840318202972 0.6111774444580078
0.30024972558021545 0.13123929500579834 0.6217360496520996
0.3011685013771057 0.15319015085697174 0.4807136356830597
0.2874477207660675 0.29784563183784485 0.6319524645805359
0.27046990394592285 0.22752442955970764 0.5936536192893982
0.274238646030426 0.27504685521125793 0.4871090352535248
0.3544905483722687 0.12088267505168915 0.5071005821228027
0.41580113768577576 0.23400212824344635 0.5619552135467529
0.2912611663341522 0.16219967603683472 0.5864628553390503
0.3152129650115967 0.26986902952194214 0.4817785322666168
0.24307496845722198 0.14363940060138702 0.6101477146148682
0.2954254746437073 0.2748558223247528 0.5902850031852722
0.31234464049339294 0.23382997512817383 0.4866197109222412
0.2966867685317993 0.15728624165058136 0.631542980670929
0.28706082701683044 0.26390036940574646 0.6296817064285278
0.39149799942970276 0.23212386667728424 0.6366230845451355
0.2608935832977295 0.18133974075317383 0.6285791397094727
0.2505737841129303 0.2978487014770508 0.5028340220451355
0.38825350999832153 0.20053674280643463 0.5894205570220947
0.2280111312866211 0.17827506363391876 0.635608434677124
0.40624961256980896 0.25551047921180725 0.6276413798332214
0.2795374095439911 0.18953721225261688 0.5034756660461426
0.3662959635257721 0.18496255576610565 0.5243963599205017
0.3135093152523041 0.16924312710762024 0.5107872486114502
0.26160871982574463 0.21581631898880005 0.5428146123886108
0.22242195904254913 0.13449808955192566 0.4796791970729828
0.3441990613937378 0.2767483592033386 0.5503845810890198
0.25923433899879456 0.2896583080291748 0.6394904255867004
0.3733765184879303 0.27256837487220764 0.543883204460144
0.2271938920021057 0.13308891654014587 0.6267196536064148
0.2840954661369324 0.14713849127292633 0.6565840840339661
0.25179997086524963 0.27755120396614075 0.47878706455230713
0.3580856919288635 0.2062552571296692 0.6495627760887146
0.2658391296863556 0.17819833755493164 0.523097038269043
0.2912081778049469 0.24512149393558502 0.5744428038597107
0.3882710337638855 0.2290842980146408 0.5694404244422913
0.25005903840065 0.2860015630722046 0.5723003149032593
0.21851308643817902 0.14473304152488708 0.6412407159805298
0.3659922480583191 0.2743537425994873 0.6312835812568665
0.314029335975647 0.22731366753578186 0.5227747559547424
0.25536981225013733 0.14632539451122284 0.5157752633094788
0.3257209062576294 0.17519629001617432 0.5987149477005005
0.205958291888237 0.16013166308403015 0.6161753535270691
0.3263799846172333 0.18531058728694916 0.660467267036438
0.3612947165966034 0.23944126069545746 0.4829389452934265
0.2206999659538269 0.1330557018518448 0.48726609349250793
0.3879808485507965 0.15994343161582947 0.4910547733306885
0.3888189494609833 0.11078499257564545 0.6041081547737122
0.3777388632297516 0.13557465374469757 0.6073802709579468
0.2550402581691742 0.20996275544166565 0.5255511403083801
0.37338098883628845 0.14115853607654572 0.5417057871818542
0.3412846028804779 0.13296329975128174 0.5376311540603638
0.32470816373825073 0.17401593923568726 0.659744381904602
0.2577385902404785 0.2482878565788269 0.6226495504379272
0.36197763681411743 0.11382235586643219 0.5027231574058533
0.2484094500541687 0.20722387731075287 0.45168447494506836
0.3166806697845459 0.19781973958015442 0.5918856263160706
0.24712304770946503 0.14015598595142365 0.4721333086490631
0.22226300835609436 0.23474960029125214 0.6419587731361389
0.2881619334220886 0.1117958277463913 0.5144836902618408
0.36489811539649963 0.1193314641714096 0.607344388961792
0.2851092219352722 0.20668065547943115 0.47251975536346436
0.38279151916503906 0.11469201743602753 0.6398211717605591
0.32927206158638 0.26168209314346313 0.6327588558197021
0.34544384479522705 0.24996145069599152 0.4849567413330078
0.35821768641471863 0.125859335064888 0.5131468772888184
0.2277553230524063 0.13999436795711517 0.5045878887176514
0.4053238332271576 0.12587475776672363 0.5042443871498108
0.30964064598083496 0.1755666583776474 0.4898148477077484
0.38369661569595337 0.2277519553899765 0.6185016632080078
0.3515084385871887 0.13005214929580688 0.5729585886001587
0.29302656650543213 0.1676904261112213 0.49987509846687317
0.308788001537323 0.18492043018341064 0.5563344359397888
0.290367066860199 0.2584677040576935 0.6512333750724792
0.26740923523902893 0.20587149262428284 0.5949550867080688
0.2506560683250427 0.18920676410198212 0.578100860118866
0.23281797766685486 0.12440722435712814 0.5013169646263123
0.2437596470117569 0.16923154890537262 0.6375997066497803
0.4081644117832184 0.2128884494304657 0.556788980960846
0.22463321685791016 0.14279057085514069 0.6486469507217407
0.3013633191585541 0.2568020820617676 0.655171275138855
0.273894727230072 0.1586834043264389 0.4639985263347626
0.407184898853302 0.21324576437473297 0.656919538974762
0.2550402581691742 0.20996275544166565 0.5255511403083801
0.37338098883628845 0.14115853607654572 0.5417057871818542
0.3412846028804779 0.13296329975128174 0.5376311540603638
0.28236523270606995 0.2933603525161743 0.5702630281448364
0.39208853244781494 0.15246674418449402 0.5640345215797424
0.36384570598602295 0.2061273604631424 0.6062535643577576
0.35170990228652954 0.18795323371887207 0.6014863848686218
0.3801087439060211 0.15436184406280518 0.48408573865890503
0.2321038395166397 0.19093717634677887 0.5858645439147949
0.260751873254776 0.1974232792854309 0.6133626699447632
0.37448951601982117 0.2678954303264618 0.6195480823516846
0.2711416482925415 0.19120553135871887 0.6415160894393921
0.41896894574165344 0.24100971221923828 0.5763949751853943
0.3362826406955719 0.17331786453723907 0.6089978814125061
0.23802588880062103 0.24372072517871857 0.4916071891784668
0.3796972930431366 0.2718888819217682 0.6417415142059326
0.41580113768577576 0.23400212824344635 0.5619552135467529
0.2912611663341522 0.16219967603683472 0.5864628553390503
0.3152129650115967 0.26986902952194214 0.4817785322666168
0.24307496845722198 0.14363940060138702 0.6101477146148682
0.4215829372406006 0.2284373641014099 0.4949759840965271
0.35125356912612915 0.16233651340007782 0.5546789765357971
0.33200281858444214 0.19634093344211578 0.6033976674079895
0.25410109758377075 0.2939450442790985 0.6315923929214478
0.32102951407432556 0.27864331007003784 0.5186893343925476
0.3274175524711609 0.22503136098384857 0.5867404937744141
0.3773026764392853 0.1540932059288025 0.6733627319335938
0.3988913595676422 0.11931847035884857 0.47870075702667236
0.3723328113555908 0.22313261032104492 0.5147563815116882
0.25798842310905457 0.11928243190050125 0.4838286340236664
0.29542073607444763 0.26273784041404724 0.46364352107048035
0.24884043633937836 0.18329787254333496 0.6016882061958313
0.24135302007198334 0.17718802392482758 0.6358746290206909
0.375443696975708 0.26041173934936523 0.5142629146575928
0.3144666254520416 0.15931206941604614 0.6421115398406982
0.392942875623703 0.1955648809671402 0.5767751932144165
0.304433137178421 0.1613379269838333 0.6146466732025146
0.309327095746994 0.25557610392570496 0.5996323823928833
0.24501129984855652 0.20304211974143982 0.5793648362159729
0.2622564733028412 0.13326728343963623 0.48589959740638733
0.23986762762069702 0.12377506494522095 0.5226410031318665
0.36858081817626953 0.21189074218273163 0.5907244682312012
0.3692901134490967 0.26500722765922546 0.6487435698509216
0.27988874912261963 0.16536806523799896 0.46936333179473877
0.26757124066352844 0.18943238258361816 0.5582795143127441
0.31267619132995605 0.25494566559791565 0.5404872894287109
0.37528231739997864 0.2103494107723236 0.6742038726806641
0.2913628816604614 0.20676976442337036 0.6377120614051819
0.4300132989883423 0.2425408959388733 0.52167809009552
0.29846855998039246 0.11486687511205673 0.5594062209129333
0.36940300464630127 0.10964716970920563 0.474921852350235
0.24370302259922028 0.20980656147003174 0.6066597104072571
0.31173092126846313 0.2425549030303955 0.49331265687942505
0.34743255376815796 0.24386605620384216 0.5677220225334167
0.29740017652511597 0.14525851607322693 0.49563777446746826
0.3631708025932312 0.1923646777868271 0.5853798985481262
0.2985957860946655 0.13880418241024017 0.491050660610199
0.22593624889850616 0.27052780985832214 0.6213726997375488
0.3774847984313965 0.12125559151172638 0.6490963697433472
0.3488893508911133 0.18121038377285004 0.6511059403419495
0.404620885848999 0.19985517859458923 0.612804114818573
0.34837061166763306 0.21584093570709229 0.5232333540916443
0.36985117197036743 0.21991613507270813 0.6133570075035095
0.27907848358154297 0.23067155480384827 0.5409721732139587
0.3594447076320648 0.17505113780498505 0.5257693529129028
0.2825196087360382 0.1500927209854126 0.46098950505256653
0.3258020281791687 0.2091192603111267 0.6609100699424744
0.3068411648273468 0.1733768880367279 0.554184079170227
0.30522382259368896 0.24778331816196442 0.5923957824707031
0.30354782938957214 0.16648408770561218 0.6479154825210571
0.302979052066803 0.17060264945030212 0.5340462923049927
0.2573806345462799 0.2777143120765686 0.4556027948856354
0.40551915764808655 0.24553591012954712 0.6736607551574707
0.3763718008995056 0.1708059161901474 0.5138604640960693
0.3842795193195343 0.1286928355693817 0.6024683117866516
0.4041125774383545 0.1441364586353302 0.5953096747398376
0.2868209183216095 0.11161615699529648 0.5561553835868835
0.39979222416877747 0.20020686089992523 0.6618809103965759
0.2251046746969223 0.20531518757343292 0.5796114802360535
0.3747347593307495 0.27333980798721313 0.5491001605987549
0.24663476645946503 0.23912465572357178 0.4940970540046692
0.3301521837711334 0.1290433704853058 0.47722357511520386
0.3986043930053711 0.1713922917842865 0.5523366332054138
0.295524924993515 0.2770889103412628 0.5110125541687012
0.300554484128952 0.2763402760028839 0.5396596789360046
0.2854536473751068 0.2658494710922241 0.4874095022678375
0.35307085514068604 0.17120078206062317 0.5394703149795532
0.35441747307777405 0.243986576795578 0.640041708946228
0.37242740392684937 0.16369739174842834 0.6476597189903259
0.3573042154312134 0.1805175542831421 0.6573038697242737
0.31060734391212463 0.27644479274749756 0.6092150211334229
0.4132173955440521 0.2741211950778961 0.667511522769928
0.32775214314460754 0.2658410370349884 0.48745834827423096
0.24937403202056885 0.22341392934322357 0.6147480607032776
0.2880759835243225 0.22605836391448975 0.6074322462081909
0.2859060764312744 0.17223089933395386 0.48543792963027954
0.2783001959323883 0.16555622220039368 0.4732424318790436
0.40603941679000854 0.20981191098690033 0.619131863117218
0.3428257703781128 0.11241329461336136 0.48582160472869873
0.30287638306617737 0.2783699333667755 0.5225867033004761
0.2620636820793152 0.11877397447824478 0.46531885862350464
0.2300587296485901 0.17193451523780823 0.46066007018089294
0.30170750617980957 0.13752935826778412 0.6185939908027649
0.3984762728214264 0.23283933103084564 0.6005988121032715
0.3239622712135315 0.13604208827018738 0.579738199710846
0.228777214884758 0.23612961173057556 0.5404282808303833
0.28542470932006836 0.11853687465190887 0.4732643961906433
0.24274557828903198 0.272535115480423 0.507955014705658
0.3811366558074951 0.18702851235866547 0.47969868779182434
0.36375191807746887 0.146845743060112 0.6012030839920044
0.3860294818878174 0.11089134216308594 0.5917746424674988
0.37520357966423035 0.2646237909793854 0.47074174880981445
0.27310827374458313 0.19194500148296356 0.6551716327667236
0.3568600118160248 0.1686825007200241 0.5378096103668213
0.3559001684188843 0.2611240744590759 0.6360197067260742
0.33070650696754456 0.19168828427791595 0.5931118130683899
0.4120941758155823 0.2707471549510956 0.5488935112953186
0.22128713130950928 0.14678195118904114 0.5460696816444397
0.2327447086572647 0.16863730549812317 0.6518792510032654
0.31573453545570374 0.23211926221847534 0.6087790131568909
0.3192633092403412 0.15806683897972107 0.5232914686203003
0.20412804186344147 0.18457330763339996 0.6203890442848206
0.4163264334201813 0.2180919051170349 0.5393584370613098
0.3932742774486542 0.1752564162015915 0.6666621565818787
0.3145737648010254 0.2432846873998642 0.5349964499473572
0.3262214660644531 0.2541179358959198 0.5288273096084595
0.39674097299575806 0.1549481600522995 0.67011958360672
0.4296082854270935 0.25786763429641724 0.49810147285461426
0.19701600074768066 0.15711943805217743 0.6433197259902954
0.3702959418296814 0.20357832312583923 0.5590257048606873
0.3992305397987366 0.11393075436353683 0.574766218662262
0.35450804233551025 0.15419359505176544 0.4928766191005707
0.29428398609161377 0.13643710315227509 0.6594412922859192
0.3062317371368408 0.2885068953037262 0.5020654201507568
0.40148183703422546 0.19069962203502655 0.6413798332214355
0.27325916290283203 0.29935121536254883 0.5297926664352417
0.3741840124130249 0.20465268194675446 0.47572073340415955
0.2935979962348938 0.11910394579172134 0.4943339228630066
0.3425666093826294 0.16811008751392365 0.6024951934814453
0.36412572860717773 0.2710995674133301 0.5323976278305054
0.3183645009994507 0.211539626121521 0.5383678078651428
0.2800385355949402 0.195641428232193 0.48594731092453003
0.32280880212783813 0.24974001944065094 0.5940447449684143
0.4484904110431671 0.26684632897377014 0.4894470274448395
0.37739551067352295 0.13918952643871307 0.5481117367744446
0.35473519563674927 0.20553159713745117 0.4699273407459259
0.24447359144687653 0.25060969591140747 0.5823635458946228
0.3932092785835266 0.11359483003616333 0.6537535190582275
0.2352587878704071 0.23534303903579712 0.5161594748497009
0.2397407442331314 0.12373059242963791 0.5146992206573486
0.3770884871482849 0.21388600766658783 0.5339223742485046
0.30392104387283325 0.2349323034286499 0.5039250254631042
0.33429738879203796 0.24213147163391113 0.6266183853149414
0.37778183817863464 0.15855497121810913 0.4846946895122528
0.3326219618320465 0.18587206304073334 0.5449125170707703
0.32687509059906006 0.19360049068927765 0.5547699928283691
0.22252942621707916 0.1660710871219635 0.6422159671783447
0.25720199942588806 0.14335453510284424 0.6366162896156311
0.29298216104507446 0.28049224615097046 0.4960784912109375
0.39505133032798767 0.13472162187099457 0.5862573981285095
0.2932767868041992 0.2736133337020874 0.4568899869918823
0.3270091414451599 0.1870252639055252 0.47097718715667725
0.42599472403526306 0.19179153442382812 0.5384695529937744
0.2712925970554352 0.1864974945783615 0.6491611003875732
0.34283095598220825 0.25450366735458374 0.4749041199684143
0.3301772177219391 0.18420106172561646 0.6364946961402893
0.2515805959701538 0.1961502730846405 0.6335344910621643
0.26774537563323975 0.18707537651062012 0.5698975324630737
0.24074387550354004 0.22794847190380096 0.5795186161994934
0.33704864978790283 0.13295920193195343 0.4792437255382538
0.27585741877555847 0.19361598789691925 0.592684268951416
0.3911029100418091 0.14204110205173492 0.477019339799881
0.3129930794239044 0.26481014490127563 0.6028733849525452
0.3757670521736145 0.14536195993423462 0.5183051824569702
0.254262238740921 0.23892705142498016 0.6137896776199341
0.30966588854789734 0.18450254201889038 0.5207237601280212
0.2251640409231186 0.16706593334674835 0.5454674959182739
0.3796699643135071 0.12965001165866852 0.5393666625022888
0.2383652776479721 0.17114190757274628 0.4749336540699005
0.26136690378189087 0.282467782497406 0.5513425469398499
0.3071853816509247 0.27597033977508545 0.5559883713722229
0.2204565554857254 0.2460217922925949 0.6329058408737183
0.2255137860774994 0.1281890720129013 0.4552735388278961
0.29743123054504395 0.2709115147590637 0.5700291395187378
0.3913082182407379 0.15854822099208832 0.6045028567314148
0.29711297154426575 0.1183527410030365 0.5192759037017822
0.3353273272514343 0.2757931351661682 0.4625646471977234
0.3620282709598541 0.14383172988891602 0.48696744441986084
0.2486925572156906 0.27839529514312744 0.5284982919692993
0.3899269998073578 0.14209850132465363 0.5938360095024109
0.23866727948188782 0.15391236543655396 0.6241865158081055
0.3323671221733093 0.16631148755550385 0.605817973613739
0.3578815758228302 0.13961711525917053 0.6400244832038879
0.32833507657051086 0.2352270781993866 0.49253082275390625
0.2706337869167328 0.26486438512802124 0.5868327021598816
0.2715516984462738 0.25373587012290955 0.5107161402702332
0.20136654376983643 0.15648874640464783 0.6413310766220093
0.3961019217967987 0.2743234634399414 0.48590564727783203
0.28341466188430786 0.12278344482183456 0.5722545981407166
0.31444063782691956 0.1470327079296112 0.6559393405914307
0.30682551860809326 0.1877788007259369 0.5496959090232849
0.20447887480258942 0.12004433572292328 0.5418951511383057
0.25044992566108704 0.2312334030866623 0.5827844738960266
0.2811511754989624 0.1729944497346878 0.5708501935005188
0.29613229632377625 0.1513572335243225 0.46591654419898987
0.21846143901348114 0.11731361597776413 0.48873016238212585
0.23316040635108948 0.20040038228034973 0.6486411690711975
0.36844828724861145 0.19940048456192017 0.6382681727409363
0.24534854292869568 0.18553298711776733 0.5444016456604004
0.3713863492012024 0.2115638256072998 0.651942253112793
0.23595330119132996 0.23194946348667145 0.4990980327129364
0.3172120749950409 0.14374354481697083 0.5683718323707581
0.3062674105167389 0.1711539328098297 0.641988217830658
0.38442349433898926 0.16073906421661377 0.5374337434768677
0.3792063295841217 0.16361434757709503 0.4896876811981201
0.4219561517238617 0.182977095246315 0.5238096714019775
0.3255813419818878 0.17578451335430145 0.47932255268096924
0.3150521516799927 0.1668732464313507 0.4896814525127411
0.41043391823768616 0.1957089900970459 0.622316300868988
0.22056373953819275 0.11849600821733475 0.48144063353538513
0.22442297637462616 0.13153572380542755 0.46411511301994324
0.2784993648529053 0.14486107230186462 0.5744325518608093
0.3857491910457611 0.22446046769618988 0.5438370108604431
0.366056889295578 0.22376102209091187 0.4937523305416107
0.25491076707839966 0.12211009114980698 0.4616185426712036
0.29947808384895325 0.28484731912612915 0.5128555297851562
0.3626895844936371 0.1454770863056183 0.4802270829677582
0.21495945751667023 0.12406551837921143 0.6070241928100586
0.26110902428627014 0.28018367290496826 0.47250768542289734
0.40431106090545654 0.2202974408864975 0.5206381678581238
0.31185296177864075 0.16104555130004883 0.5750039219856262
0.2787901759147644 0.1756141036748886 0.6063425540924072
0.27720460295677185 0.20596115291118622 0.5870848298072815
0.2267082780599594 0.17336082458496094 0.49386066198349
0.24714554846286774 0.2239765226840973 0.6222041249275208
0.3273317813873291 0.19207996129989624 0.563715398311615
0.39125901460647583 0.2166297286748886 0.5989413261413574
0.3599870502948761 0.15262755751609802 0.4842711389064789
0.3073337972164154 0.20587638020515442 0.6461324691772461
0.29086336493492126 0.28873077034950256 0.5617221593856812
0.3106304109096527 0.2167782038450241 0.4678990840911865
0.3713863492012024 0.2115638256072998 0.651942253112793
0.23595330119132996 0.23194946348667145 0.4990980327129364
0.3172120749950409 0.14374354481697083 0.5683718323707581
0.3062674105167389 0.1711539328098297 0.641988217830658
0.38442349433898926 0.16073906421661377 0.5374337434768677
0.3792063295841217 0.16361434757709503 0.4896876811981201
0.4219561517238617 0.182977095246315 0.5238096714019775
0.35125356912612915 0.16233651340007782 0.5546789765357971
0.40551915764808655 0.24553591012954712 0.6736607551574707
0.3763718008995056 0.1708059161901474 0.5138604640960693
0.3842795193195343 0.1286928355693817 0.6024683117866516
0.4041125774383545 0.1441364586353302 0.5953096747398376
0.29830342531204224 0.28770676255226135 0.5284726023674011
0.26221367716789246 0.2157800942659378 0.46068960428237915
0.4176374673843384 0.24387121200561523 0.513767421245575
0.24956689774990082 0.20840945839881897 0.5469114780426025
0.272384911775589 0.12571261823177338 0.4867311120033264
0.38579243421554565 0.12301675230264664 0.6651164889335632
0.2685230076313019 0.2529175579547882 0.497379869222641
0.2495640367269516 0.20847797393798828 0.45897313952445984
0.2890947461128235 0.247966006398201 0.45467934012413025
0.2605959475040436 0.20867331326007843 0.6070147752761841
0.21459421515464783 0.16481372714042664 0.5957892537117004
0.23316040635108948 0.20040038228034973 0.6486411690711975
0.36844828724861145 0.19940048456192017 0.6382681727409363
0.24534854292869568 0.18553298711776733 0.5444016456604004
0.3713863492012024 0.2115638256072998 0.651942253112793
0.23595330119132996 0.23194946348667145 0.4990980327129364
0.3172120749950409 0.14374354481697083 0.5683718323707581
0.3062674105167389 0.1711539328098297 0.641988217830658
0.38442349433898926 0.16073906421661377 0.5374337434768677
0.3792063295841217 0.16361434757709503 0.4896876811981201
0.4219561517238617 0.182977095246315 0.5238096714019775
0.37015077471733093 0.19299310445785522 0.6489408016204834
0.40907925367355347 0.22501583397388458 0.6373493075370789
0.3347319960594177 0.2898881435394287 0.5657856464385986
0.3370257616043091 0.2551257908344269 0.48638656735420227
0.3420557975769043 0.1371489316225052 0.66009920835495
0.3646409213542938 0.11232426017522812 0.47540193796157837
0.21952594816684723 0.1480175405740738 0.6173127293586731
0.3270091414451599 0.1870252639055252 0.47097718715667725
0.42599472403526306 0.19179153442382812 0.5384695529937744
0.2712925970554352 0.1864974945783615 0.6491611003875732
0.3184509575366974 0.14756982028484344 0.5710219144821167
0.32421013712882996 0.29321640729904175 0.6084395051002502
0.2050347924232483 0.15616478025913239 0.5869824290275574
0.3784397840499878 0.1912340372800827 0.5780861377716064
0.27054595947265625 0.294025182723999 0.6454152464866638
0.32408207654953003 0.19477827847003937 0.6645359992980957
0.34508436918258667 0.10877904295921326 0.5515927076339722
0.2999207079410553 0.153493732213974 0.6235398054122925
0.2844313085079193 0.2962908446788788 0.59673011302948
0.3703177869319916 0.10967420041561127 0.47974827885627747
0.4116777181625366 0.1465953141450882 0.5099437832832336
0.2527153491973877 0.16555851697921753 0.6085716485977173
0.2132788598537445 0.15117986500263214 0.559730052947998
0.21962659060955048 0.16205891966819763 0.4819422960281372
0.24990013241767883 0.29319003224372864 0.49982699751853943
0.28010261058807373 0.18478547036647797 0.5306671857833862
0.35151299834251404 0.17694568634033203 0.6729997396469116
0.2557664215564728 0.11358470469713211 0.5432518124580383
0.2900918126106262 0.1629190295934677 0.5651551485061646
0.3268318772315979 0.21377113461494446 0.57014000415802
0.27762871980667114 0.17556068301200867 0.5770982503890991
0.2998630404472351 0.24482983350753784 0.4613639712333679
0.34177249670028687 0.2604948580265045 0.5150399804115295
0.31907323002815247 0.1792144775390625 0.518510103225708
0.3865513801574707 0.11022017151117325 0.6219607591629028
0.23616407811641693 0.1593668907880783 0.6537282466888428
0.39625605940818787 0.19633890688419342 0.6394459009170532
0.23341001570224762 0.15817540884017944 0.5852735638618469
0.3326219618320465 0.18587206304073334 0.5449125170707703
0.21664217114448547 0.24817901849746704 0.6378161907196045
0.350718230009079 0.11452071368694305 0.6265888214111328
0.29834669828414917 0.14486092329025269 0.6441172361373901
0.3127746284008026 0.25940442085266113 0.5562730431556702
0.32812902331352234 0.24482376873493195 0.521544873714447
0.3530988395214081 0.21149402856826782 0.5572040677070618
0.30023670196533203 0.14164301753044128 0.474597692489624
0.3741738498210907 0.16888579726219177 0.6410399675369263
0.31041067838668823 0.275392085313797 0.5461392402648926
0.33012810349464417 0.28284233808517456 0.48613885045051575
0.3867858052253723 0.1508275717496872 0.5810711979866028
0.3767237067222595 0.20043718814849854 0.5674729347229004
0.34702807664871216 0.13491559028625488 0.6596471071243286
0.33875638246536255 0.233071431517601 0.5203671455383301
0.24921350181102753 0.11609490215778351 0.6575596928596497
0.23316040635108948 0.20040038228034973 0.6486411690711975
0.36844828724861145 0.19940048456192017 0.6382681727409363
0.24534854292869568 0.18553298711776733 0.5444016456604004
0.3713863492012024 0.2115638256072998 0.651942253112793
0.23595330119132996 0.23194946348667145 0.4990980327129364
0.3172120749950409 0.14374354481697083 0.5683718323707581
0.3133045732975006 0.2393856942653656 0.5474463105201721
0.397889643907547 0.2629033327102661 0.5372781753540039
0.25105857849121094 0.2497197985649109 0.5299515128135681
0.40564507246017456 0.14643354713916779 0.5163998603820801
0.36683952808380127 0.1992117166519165 0.5571361780166626
0.3874014616012573 0.28331315517425537 0.6536970138549805
0.3099338710308075 0.2552361786365509 0.5215117931365967
0.28186339139938354 0.11161097139120102 0.46108195185661316
0.335489422082901 0.11562315374612808 0.6361079216003418
0.34727779030799866 0.20838600397109985 0.5638425350189209
0.37458327412605286 0.14038336277008057 0.652334988117218
0.3837490677833557 0.14688947796821594 0.6852850317955017
0.23165763914585114 0.2718028724193573 0.5948677062988281
0.34283095598220825 0.25450366735458374 0.4749041199684143
0.3301772177219391 0.18420106172561646 0.6364946961402893
0.2515805959701538 0.1961502730846405 0.6335344910621643
0.26774537563323975 0.18707537651062012 0.5698975324630737
0.24074387550354004 0.22794847190380096 0.5795186161994934
0.33704864978790283 0.13295920193195343 0.4792437255382538
0.27585741877555847 0.19361598789691925 0.592684268951416
0.2895468473434448 0.12373542040586472 0.5604945421218872
0.37696152925491333 0.17360815405845642 0.5082172751426697
0.36367008090019226 0.16307798027992249 0.6313759088516235
0.23043915629386902 0.13071754574775696 0.4899942874908447
0.24391469359397888 0.1701117753982544 0.5713222622871399
0.3840484917163849 0.15126806497573853 0.5989351868629456
0.2497881054878235 0.1842847764492035 0.649847149848938
0.3420875072479248 0.1200430616736412 0.5057059526443481
0.37812909483909607 0.11355172097682953 0.5926002264022827
0.36894628405570984 0.19942378997802734 0.5083972215652466
0.39182716608047485 0.24427048861980438 0.5441676378250122
0.28677767515182495 0.12376756966114044 0.6149610280990601
0.4161010980606079 0.23865662515163422 0.47383373975753784
0.25323739647865295 0.23816300928592682 0.6185486316680908
0.3665218651294708 0.1140606552362442 0.6569066047668457
0.21374379098415375 0.1570219248533249 0.5875301361083984
0.4255775809288025 0.231557697057724 0.5190463662147522
0.25197386741638184 0.22432571649551392 0.6310184001922607
0.2873304784297943 0.2521459758281708 0.6235131025314331
0.3351632356643677 0.1845703274011612 0.6026386022567749
0.3616560697555542 0.2611435353755951 0.6287203431129456
0.2865747809410095 0.2706353962421417 0.6525378823280334
0.2573806345462799 0.2777143120765686 0.4556027948856354
0.4160836338996887 0.2134704440832138 0.4838704764842987
0.3626335561275482 0.17051328718662262 0.571621835231781
0.42404407262802124 0.22829166054725647 0.5222570300102234
0.37155869603157043 0.2259819358587265 0.4815603792667389
0.361829549074173 0.21504487097263336 0.5331621170043945
0.39544618129730225 0.1727072149515152 0.5281801223754883
0.3920029103755951 0.2577558159828186 0.6487433314323425
0.40885451436042786 0.1145835667848587 0.5182852745056152
0.31323662400245667 0.1419590413570404 0.5946848392486572
0.4073941707611084 0.27320122718811035 0.4844260513782501
0.372638463973999 0.23856934905052185 0.6510487794876099
0.40850457549095154 0.243874654173851 0.49017027020454407
0.3797823190689087 0.23637104034423828 0.5731555819511414
0.3243517279624939 0.16443076729774475 0.48733460903167725
0.31123384833335876 0.18296144902706146 0.6177421808242798
0.4231778681278229 0.23946286737918854 0.5851836800575256
0.33292683959007263 0.16622625291347504 0.5398153066635132
0.3320445716381073 0.17822548747062683 0.6099676489830017
0.3635098338127136 0.11865077912807465 0.4945277273654938
0.3845900297164917 0.17247071862220764 0.6322915554046631
0.242680162191391 0.2419513314962387 0.6387342810630798
0.39564749598503113 0.20471738278865814 0.5217355489730835
0.2914837896823883 0.13857632875442505 0.5865986943244934
0.2443850040435791 0.15567412972450256 0.5058654546737671
0.38385897874832153 0.17258328199386597 0.5086104869842529
0.3354038894176483 0.23259864747524261 0.6579669117927551
0.3291112184524536 0.22878175973892212 0.6619601845741272
0.3425866663455963 0.129283145070076 0.6697440147399902
0.29947391152381897 0.1210855096578598 0.5638255476951599
0.4131176471710205 0.27035701274871826 0.6289451122283936
0.32334306836128235 0.21144048869609833 0.599899172782898
0.2935979962348938 0.11910394579172134 0.4943339228630066
0.2616127133369446 0.22830627858638763 0.6553947925567627
0.25947490334510803 0.2701948583126068 0.6314172744750977
0.27707359194755554 0.1729969084262848 0.5567116737365723
0.278432697057724 0.2652549147605896 0.4890679717063904
0.21775458753108978 0.20314417779445648 0.6092560291290283
0.31367820501327515 0.1308613270521164 0.6348504424095154
0.3919805884361267 0.2502375543117523 0.637762188911438
0.3911344110965729 0.11437465995550156 0.6197212338447571
0.31205329298973083 0.2085205465555191 0.5589852929115295
0.3040317893028259 0.12627558410167694 0.5935720801353455
0.2811579406261444 0.1278335005044937 0.6577335596084595
0.22456179559230804 0.2886665165424347 0.6369852423667908
0.2967546582221985 0.17690178751945496 0.5158157348632812
0.3277224600315094 0.1930084079504013 0.6248706579208374
0.2666318118572235 0.16966797411441803 0.49899032711982727
0.39740219712257385 0.11096924543380737 0.5210814476013184
0.37554284930229187 0.27101197838783264 0.47944000363349915
0.32662707567214966 0.16522420942783356 0.5832538604736328
0.39045432209968567 0.19403250515460968 0.640896201133728
0.2778018116950989 0.2938133180141449 0.5348489284515381
0.3248108923435211 0.17553000152111053 0.5276534557342529
0.3523503541946411 0.20297852158546448 0.657004177570343
0.3433496356010437 0.1752881109714508 0.4975619912147522
0.40845733880996704 0.11318106204271317 0.5454118251800537
0.29294922947883606 0.1574760377407074 0.513925313949585
0.3706375062465668 0.21717149019241333 0.6326250433921814
0.29970407485961914 0.19503918290138245 0.48728346824645996
0.3684440553188324 0.2268761247396469 0.49713826179504395
0.3772928714752197 0.19555965065956116 0.4786404073238373
0.29404208064079285 0.11209703236818314 0.5710286498069763
0.2844727635383606 0.23982885479927063 0.5214255452156067
0.33470118045806885 0.18675602972507477 0.532860279083252
0.2327447086572647 0.16863730549812317 0.6518792510032654
0.2913146913051605 0.27929991483688354 0.4928434193134308
0.30991116166114807 0.14301133155822754 0.5998964905738831
0.3270748257637024 0.16106152534484863 0.511194109916687
0.3903333246707916 0.1099652349948883 0.623526930809021
0.3234653174877167 0.23520146310329437 0.5429090857505798
0.3192357122898102 0.1242469996213913 0.6015554666519165
0.31813114881515503 0.2632986605167389 0.6252984404563904
0.2912437319755554 0.22387973964214325 0.6534102559089661
0.4275066554546356 0.25773343443870544 0.5656368136405945
0.3860667049884796 0.2508337199687958 0.6585648655891418
0.3809785544872284 0.19135120511054993 0.5501289367675781
0.22004295885562897 0.11845486611127853 0.6161977052688599
0.3353930115699768 0.2610384225845337 0.6446849703788757
0.41923901438713074 0.2322831004858017 0.4745831787586212
0.31015175580978394 0.2164517641067505 0.5771429538726807
0.2367263287305832 0.12299399077892303 0.5974847078323364
0.37180209159851074 0.12268906086683273 0.6560072302818298
0.39304596185684204 0.12501516938209534 0.5144783854484558
0.3627718985080719 0.1310381293296814 0.5340836048126221
0.33332258462905884 0.21173681318759918 0.5743167400360107
0.2210094928741455 0.16046759486198425 0.47512781620025635
0.31309774518013 0.17023982107639313 0.5360894203186035
0.2877449095249176 0.20397664606571198 0.5316861271858215
0.36104899644851685 0.17837613821029663 0.597723126411438
0.3471253216266632 0.23831233382225037 0.5293624401092529
0.40579089522361755 0.18783199787139893 0.5093726515769958
0.21873173117637634 0.1375897079706192 0.5700610876083374
0.32452139258384705 0.2706524729728699 0.49046820402145386
0.36333730816841125 0.21994026005268097 0.6179478168487549
0.40176108479499817 0.11081469804048538 0.47900623083114624
0.2655021846294403 0.2969452440738678 0.5660123825073242
0.2791488766670227 0.13882938027381897 0.4791874587535858
0.2679813504219055 0.18600986897945404 0.6446236371994019
0.3181975483894348 0.14619098603725433 0.5320160388946533
0.31506025791168213 0.1114247664809227 0.5065010190010071
0.4262343943119049 0.27179551124572754 0.6221352219581604
0.21850578486919403 0.13424882292747498 0.5115593671798706
0.2876124382019043 0.2253948152065277 0.4857185184955597
0.3653348684310913 0.24218973517417908 0.6064822673797607
0.3611624836921692 0.22561180591583252 0.6521382331848145
0.29952147603034973 0.2770148515701294 0.5756010413169861
0.34692898392677307 0.11013080924749374 0.6300801038742065
0.23022007942199707 0.12852723896503448 0.533889889717102
0.27868711948394775 0.2587455213069916 0.48352789878845215
0.38919973373413086 0.2509327828884125 0.47010043263435364
0.3813247084617615 0.16213399171829224 0.569654643535614
0.2496272474527359 0.22147738933563232 0.4565257132053375
0.32369616627693176 0.19254253804683685 0.6029878854751587
0.28110644221305847 0.23343297839164734 0.6085624098777771
0.22945144772529602 0.2594360113143921 0.6038258671760559
0.42119085788726807 0.23561206459999084 0.6234275698661804
0.34553372859954834 0.1759774088859558 0.6653568148612976
0.3371713161468506 0.2321888655424118 0.5044774413108826
0.3956543803215027 0.16859228909015656 0.5089184045791626
0.26503005623817444 0.1471184492111206 0.4602847695350647
0.3538661599159241 0.1921817660331726 0.6662402749061584
0.22581392526626587 0.1873086541891098 0.505774736404419
0.2782764434814453 0.2557601034641266 0.5103924870491028
0.25872769951820374 0.11462080478668213 0.5435996055603027
0.36743128299713135 0.22137081623077393 0.5869678854942322
0.4249229431152344 0.24819238483905792 0.5578752160072327
0.2521183490753174 0.18233942985534668 0.47433844208717346
0.3840484917163849 0.15126806497573853 0.5989351868629456
0.42220067977905273 0.18274074792861938 0.48433446884155273
0.28733396530151367 0.16305716335773468 0.6032081246376038
0.43097472190856934 0.25243982672691345 0.5390302538871765
0.3665218651294708 0.1140606552362442 0.6569066047668457
0.21374379098415375 0.1570219248533249 0.5875301361083984
0.4255775809288025 0.231557697057724 0.5190463662147522
0.25197386741638184 0.22432571649551392 0.6310184001922607
0.2873304784297943 0.2521459758281708 0.6235131025314331
0.3351632356643677 0.1845703274011612 0.6026386022567749
0.3616560697555542 0.2611435353755951 0.6287203431129456
0.2865747809410095 0.2706353962421417 0.6525378823280334
0.32016274333000183 0.20037154853343964 0.5822674036026001
0.39528584480285645 0.2683103382587433 0.5278169512748718
0.3512476086616516 0.24112172424793243 0.6245012283325195
0.24762652814388275 0.30295583605766296 0.5598152279853821
0.3624719977378845 0.12572705745697021 0.5134102702140808
0.26580342650413513 0.1252247840166092 0.5236162543296814
0.2869708240032196 0.2898842990398407 0.45803841948509216
0.3923231065273285 0.2605617642402649 0.6134172677993774
0.2381056249141693 0.20561672747135162 0.6244187951087952
0.29177126288414 0.2319435179233551 0.5117287039756775
0.29027342796325684 0.27149081230163574 0.5943969488143921
0.345976322889328 0.16745790839195251 0.6658191084861755
0.2924109101295471 0.1552947610616684 0.5464836955070496
0.24063964188098907 0.12886151671409607 0.56634920835495
0.34293776750564575 0.18599238991737366 0.549579918384552
0.25826090574264526 0.19910433888435364 0.6501477956771851
0.4297044575214386 0.22372542321681976 0.5474855899810791
0.3300689160823822 0.17652498185634613 0.5013806819915771
0.28191953897476196 0.18520687520503998 0.5889038443565369
0.30333036184310913 0.23804457485675812 0.5699514746665955
0.3972626328468323 0.2513080835342407 0.5015844702720642
0.28186339139938354 0.11161097139120102 0.46108195185661316
0.335489422082901 0.11562315374612808 0.6361079216003418
0.37936708331108093 0.22459177672863007 0.5397154092788696
0.3036218583583832 0.12208893895149231 0.6529412269592285
0.3766760528087616 0.14003652334213257 0.6204999685287476
0.26580795645713806 0.24904534220695496 0.5370228886604309
0.2548406422138214 0.20840802788734436 0.6519169807434082
0.35649770498275757 0.28728190064430237 0.6058667898178101
0.40429407358169556 0.26072606444358826 0.4874264597892761
0.40671640634536743 0.24590741097927094 0.5466276407241821
0.3840138912200928 0.19540342688560486 0.538489580154419
0.27211108803749084 0.15710167586803436 0.6536776423454285
0.2607860267162323 0.1553780883550644 0.5868264436721802
0.21994923055171967 0.13857939839363098 0.5712770819664001
0.24194510281085968 0.11632531136274338 0.5235145092010498
0.4238325357437134 0.2644718289375305 0.5507053136825562
0.35552024841308594 0.20882448554039001 0.5137321352958679
0.2911122143268585 0.11609882116317749 0.669851541519165
0.22945144772529602 0.2594360113143921 0.6038258671760559
0.42119085788726807 0.23561206459999084 0.6234275698661804
0.34553372859954834 0.1759774088859558 0.6653568148612976
0.3371713161468506 0.2321888655424118 0.5044774413108826
0.3956543803215027 0.16859228909015656 0.5089184045791626
0.26503005623817444 0.1471184492111206 0.4602847695350647
0.3538661599159241 0.1921817660331726 0.6662402749061584
0.22581392526626587 0.1873086541891098 0.505774736404419
0.2782764434814453 0.2557601034641266 0.5103924870491028
0.25872769951820374 0.11462080478668213 0.5435996055603027
0.36743128299713135 0.22137081623077393 0.5869678854942322
0.4249229431152344 0.24819238483905792 0.5578752160072327
0.2521183490753174 0.18233942985534668 0.47433844208717346
0.4067927896976471 0.23026812076568604 0.5245728492736816
0.3760199546813965 0.14498308300971985 0.6474170088768005
0.2243870496749878 0.2834150195121765 0.6426391005516052
0.21299248933792114 0.14613816142082214 0.6303066611289978
0.3194158971309662 0.25910523533821106 0.5497121214866638
0.42053210735321045 0.2239321917295456 0.5332672595977783
0.2862432897090912 0.12150246649980545 0.5315030217170715
0.2804914712905884 0.283247709274292 0.4819776713848114
0.2973693311214447 0.1795850396156311 0.6044228672981262
0.30657002329826355 0.263098806142807 0.6416724920272827
0.28997859358787537 0.16348329186439514 0.5269961357116699
0.31683048605918884 0.2532162666320801 0.6470028758049011
0.26220396161079407 0.16527433693408966 0.5675769448280334
0.39446014165878296 0.19519415497779846 0.5902450680732727
0.28330397605895996 0.277438223361969 0.4986002743244171
0.22945144772529602 0.2594360113143921 0.6038258671760559
0.42119085788726807 0.23561206459999084 0.6234275698661804
0.34553372859954834 0.1759774088859558 0.6653568148612976
0.3371713161468506 0.2321888655424118 0.5044774413108826
0.3956543803215027 0.16859228909015656 0.5089184045791626
0.26503005623817444 0.1471184492111206 0.4602847695350647
0.3538661599159241 0.1921817660331726 0.6662402749061584
0.22581392526626587 0.1873086541891098 0.505774736404419
0.2782764434814453 0.2557601034641266 0.5103924870491028
0.25872769951820374 0.11462080478668213 0.5435996055603027
0.36743128299713135 0.22137081623077393 0.5869678854942322
0.4249229431152344 0.24819238483905792 0.5578752160072327
0.2521183490753174 0.18233942985534668 0.47433844208717346
0.33082452416419983 0.17971302568912506 0.5012134313583374
0.40620043873786926 0.18396006524562836 0.5745252370834351
0.22839559614658356 0.1406038999557495 0.6259685754776001
0.43146273493766785 0.24536685645580292 0.5333359837532043
0.2515370845794678 0.28912994265556335 0.49510055780410767
0.39045432209968567 0.19403250515460968 0.640896201133728
0.2778018116950989 0.2938133180141449 0.5348489284515381
0.3248108923435211 0.17553000152111053 0.5276534557342529
0.3523503541946411 0.20297852158546448 0.657004177570343
0.3433496356010437 0.1752881109714508 0.4975619912147522
0.40845733880996704 0.11318106204271317 0.5454118251800537
0.29294922947883606 0.1574760377407074 0.513925313949585
0.3225105404853821 0.2745315432548523 0.5981783866882324
0.22139905393123627 0.11822286248207092 0.5184229612350464
0.3021116554737091 0.13512542843818665 0.5915346741676331
0.3737802505493164 0.1462295949459076 0.602239727973938
0.374054491519928 0.10874977707862854 0.6029759645462036
0.35284659266471863 0.18704426288604736 0.5123401284217834
0.41315758228302 0.24125735461711884 0.5134991407394409
0.4392821192741394 0.23014642298221588 0.5049812197685242
0.3163597583770752 0.25190532207489014 0.4960313141345978
0.3177318274974823 0.2025585174560547 0.6099860668182373
0.3203173577785492 0.22232572734355927 0.48001766204833984
0.21895916759967804 0.18647445738315582 0.6067640781402588
0.23887552320957184 0.2992154359817505 0.5722588896751404
0.3998200595378876 0.11028552800416946 0.5060330033302307
0.35483333468437195 0.2549969255924225 0.6585028171539307
0.24662528932094574 0.23817911744117737 0.4933079779148102
0.38227564096450806 0.15818756818771362 0.5376348495483398
0.237298846244812 0.1868256777524948 0.608683705329895
0.3365841507911682 0.17616647481918335 0.557191014289856
0.2845427989959717 0.14024224877357483 0.5178240537643433
0.345270574092865 0.22271119058132172 0.4711754024028778
0.3476671874523163 0.2896557152271271 0.6274558901786804
0.2768731415271759 0.21842066943645477 0.5504480004310608
0.3227840065956116 0.19986391067504883 0.5211147665977478
0.21374379098415375 0.1570219248533249 0.5875301361083984
0.3845900297164917 0.17247071862220764 0.6322915554046631
0.242680162191391 0.2419513314962387 0.6387342810630798
0.39564749598503113 0.20471738278865814 0.5217355489730835
0.2914837896823883 0.13857632875442505 0.5865986943244934
0.2443850040435791 0.15567412972450256 0.5058654546737671
0.38385897874832153 0.17258328199386597 0.5086104869842529
0.3354038894176483 0.23259864747524261 0.6579669117927551
0.3291112184524536 0.22878175973892212 0.6619601845741272
0.4131176471710205 0.27035701274871826 0.6289451122283936
0.25189581513404846 0.17977634072303772 0.5189513564109802
0.23129314184188843 0.14485672116279602 0.6437709927558899
0.38945910334587097 0.1528923511505127 0.6720834374427795
0.3115708827972412 0.21486233174800873 0.5890437364578247
0.39680546522140503 0.2602163553237915 0.5257956981658936
0.4202904999256134 0.2734445035457611 0.5933323502540588
0.39419421553611755 0.14315298199653625 0.557065486907959
0.21079176664352417 0.13244791328907013 0.5154502987861633
0.3998200595378876 0.11028552800416946 0.5060330033302307
0.35483333468437195 0.2549969255924225 0.6585028171539307
0.24662528932094574 0.23817911744117737 0.4933079779148102
0.3432086110115051 0.1325848251581192 0.5146198868751526
0.2816382050514221 0.12407767027616501 0.5697653293609619
0.42233121395111084 0.246259868144989 0.5488229393959045
0.23352424800395966 0.18156975507736206 0.5833770632743835
0.34194082021713257 0.2435140609741211 0.5266821384429932
0.3706459105014801 0.14672450721263885 0.5620589256286621
0.40462490916252136 0.20699667930603027 0.6788671612739563
0.3227840065956116 0.19986391067504883 0.5211147665977478
0.3076522946357727 0.12140393257141113 0.6166688799858093
0.34276485443115234 0.24210584163665771 0.5608354210853577
0.28488659858703613 0.21051478385925293 0.5583912134170532
0.4255775809288025 0.231557697057724 0.5190463662147522
0.242680162191391 0.2419513314962387 0.6387342810630798
0.39564749598503113 0.20471738278865814 0.5217355489730835
0.2914837896823883 0.13857632875442505 0.5865986943244934
0.2443850040435791 0.15567412972450256 0.5058654546737671
0.38385897874832153 0.17258328199386597 0.5086104869842529
