ply
format ascii 1.0
element vertex 825
property float x
property float y
property float z
end_header
0.328171044588089 0.21802982687950134 0.6007108092308044
0.3057657480239868 0.12124242633581161 0.49706751108169556
0.2652577757835388 0.23221425712108612 0.6556036472320557
0.2604549527168274 0.27479317784309387 0.6317452192306519
0.2853253483772278 0.17698754370212555 0.5578608512878418
0.28056061267852783 0.2712348401546478 0.49021729826927185
0.22352637350559235 0.20441105961799622 0.6092419028282166
0.32403120398521423 0.13424265384674072 0.6350795030593872
0.393922358751297 0.26037412881851196 0.6384546160697937
0.4034431278705597 0.11892571300268173 0.6207273006439209
0.3173762559890747 0.21477825939655304 0.5600827932357788
0.31469303369522095 0.12952803075313568 0.5945445895195007
0.2914199233055115 0.1303761899471283 0.6576271057128906
0.22442957758903503 0.2913515269756317 0.6369677186012268
0.3050781488418579 0.18154925107955933 0.517509937286377
0.33380240201950073 0.19908525049686432 0.6254130005836487
0.27586981654167175 0.17277871072292328 0.5006874203681946
0.41093093156814575 0.11485029011964798 0.5246106386184692
0.37703463435173035 0.2807389497756958 0.48118123412132263
0.3349611759185791 0.170747309923172 0.5843350887298584
0.39613497257232666 0.20321407914161682 0.6411604881286621
0.2780880928039551 0.2998325824737549 0.5358010530471802
0.3329179584980011 0.18120156228542328 0.5293596982955933
0.35771894454956055 0.20994962751865387 0.657293975353241
0.351637601852417 0.18139083683490753 0.49967968463897705
0.4215201139450073 0.11850768327713013 0.5484415292739868
0.30270808935165405 0.16145266592502594 0.5158647894859314
0.37480539083480835 0.22579152882099152 0.6331562399864197
0.3068509101867676 0.20019984245300293 0.4890255928039551
0.3724239468574524 0.23583118617534637 0.49884676933288574
0.38356274366378784 0.20390523970127106 0.4806402921676636
0.30574876070022583 0.11401549726724625 0.5724639296531677
0.28794270753860474 0.24563048779964447 0.5224810242652893
0.34180134534835815 0.19315801560878754 0.534424364566803
0.24052339792251587 0.1703244298696518 0.6518284678459167
0.29265838861465454 0.2860075533390045 0.49413639307022095
0.31959760189056396 0.14722372591495514 0.6007459759712219
0.3364669382572174 0.16620907187461853 0.5133161544799805
0.4031371474266052 0.11358800530433655 0.6245413422584534
0.32689258456230164 0.2424897402524948 0.5441585779190063
0.3300810754299164 0.12757982313632965 0.6024083495140076
0.31956273317337036 0.270255982875824 0.6261425614356995
0.2952671945095062 0.22890613973140717 0.6538506746292114
0.42885369062423706 0.27042487263679504 0.5669443011283875
0.3881051540374756 0.26033154129981995 0.659213125705719
0.3872362971305847 0.1999683678150177 0.5515505075454712
0.2307572364807129 0.11920219659805298 0.6161307096481323
0.33697378635406494 0.2683274745941162 0.6455146074295044
0.42247286438941956 0.24420054256916046 0.4763152003288269
0.31476691365242004 0.22277535498142242 0.5780763030052185
0.2474290281534195 0.12445767968893051 0.5978754758834839
0.38328343629837036 0.12728819251060486 0.6560120582580566
0.4051574170589447 0.13072673976421356 0.5176546573638916
0.3741993010044098 0.13597233593463898 0.536537230014801
0.33822277188301086 0.21883326768875122 0.5753675699234009
0.23133262991905212 0.16046908497810364 0.4765838086605072
0.3215981125831604 0.17540164291858673 0.5377143025398254
0.29378095269203186 0.20913414657115936 0.5328813791275024
0.3681411147117615 0.18543866276741028 0.5985711216926575
0.35032185912132263 0.24655836820602417 0.5308386087417603
0.4123762547969818 0.1977682262659073 0.51124107837677
0.22910185158252716 0.13847754895687103 0.5705934762954712
0.3263354003429413 0.2784982919692993 0.4921198785305023
0.3673301637172699 0.2283526360988617 0.6186274290084839
0.41551336646080017 0.11418314278125763 0.48320621252059937
0.26540929079055786 0.3022903501987457 0.5666787028312683
0.290409117937088 0.1415189951658249 0.4816337525844574
0.2747107446193695 0.18952485918998718 0.6448945999145508
0.32840588688850403 0.15062940120697021 0.5340043902397156
0.32771697640419006 0.11321645230054855 0.5094348192214966
0.4267352521419525 0.2842318117618561 0.6230008006095886
0.22987134754657745 0.1345173865556717 0.5129719972610474
0.29237693548202515 0.2310216873884201 0.48707497119903564
0.3678291440010071 0.2510528564453125 0.6073662638664246
0.3649207651615143 0.23359359800815582 0.6526464223861694
0.3004104793071747 0.2837633788585663 0.5765545964241028
0.35935938358306885 0.11228017508983612 0.6305980086326599
0.24159058928489685 0.12954017519950867 0.5352046489715576
0.28124380111694336 0.26464056968688965 0.48471614718437195
0.39155393838882446 0.2611891031265259 0.47185760736465454
0.38983502984046936 0.16988177597522736 0.5711140632629395
0.2553533911705017 0.22436316311359406 0.4576909840106964
0.32990485429763794 0.19860884547233582 0.6037535071372986
0.2844555079936981 0.23876596987247467 0.6091398000717163
0.2313002049922943 0.26224008202552795 0.6039296984672546
0.4238620102405548 0.2476983219385147 0.6240935921669006
0.3528953194618225 0.1817043423652649 0.6653579473495483
0.3410191535949707 0.2399338185787201 0.5061091780662537
0.4040154814720154 0.17705921828746796 0.5111085772514343
0.2761397361755371 0.14929349720478058 0.46259868144989014
0.3600243628025055 0.19872801005840302 0.6663550138473511
0.2338508665561676 0.18824981153011322 0.5066947340965271
0.28081434965133667 0.2615363299846649 0.5114230513572693
0.2707033157348633 0.11607557535171509 0.5452594757080078
0.3713531494140625 0.23012875020503998 0.5879451036453247
0.426872193813324 0.2606864869594574 0.5592350959777832
0.26077279448509216 0.18459708988666534 0.4758600890636444
0.39322003722190857 0.1587981879711151 0.5999829173088074
0.42912426590919495 0.19351501762866974 0.48648276925086975
0.29576677083969116 0.16719801723957062 0.6039312481880188
0.43273255228996277 0.2653326988220215 0.5405492186546326
0.37884441018104553 0.11727054417133331 0.6570205688476562
0.22282828390598297 0.15778061747550964 0.5876770615577698
0.4287285804748535 0.24398048222064972 0.5206540822982788
0.25593242049217224 0.2279517948627472 0.6312487721443176
0.2894003391265869 0.25788426399230957 0.62410569190979
0.3418925106525421 0.19082552194595337 0.603403627872467
0.36308854818344116 0.2697696387767792 0.6296090483665466
0.2875528037548065 0.2761975824832916 0.6530971527099609
0.32591956853866577 0.2066343128681183 0.5832207798957825
0.39641883969306946 0.27906763553619385 0.5293171405792236
0.3538978099822998 0.2491586059331894 0.6252744197845459
0.24721840023994446 0.30738088488578796 0.5602848529815674
0.3745022714138031 0.12985804677009583 0.5163815021514893
0.2773886024951935 0.12729626893997192 0.5255615711212158
0.2880559265613556 0.2965856194496155 0.4594506621360779
0.3935879170894623 0.2709765136241913 0.6143012046813965
0.24348950386047363 0.20819713175296783 0.6245535016059875
0.295813649892807 0.2379290759563446 0.5129416584968567
0.29135212302207947 0.27774178981781006 0.5951669216156006
0.35396501421928406 0.17299935221672058 0.665745735168457
0.3019464313983917 0.15936590731143951 0.5480314493179321
0.2514861226081848 0.13055941462516785 0.5672961473464966
0.34988653659820557 0.1927211433649063 0.5509743094444275
0.26401808857917786 0.20239198207855225 0.6503533720970154
0.4332285225391388 0.23644588887691498 0.5489768385887146
0.3383289575576782 0.18224206566810608 0.5033981800079346
0.28895139694213867 0.1896468997001648 0.5896810293197632
0.3064708113670349 0.24455393850803375 0.5708842873573303
0.3994928300380707 0.2620448172092438 0.5032156705856323
0.2948959767818451 0.11295133084058762 0.46407970786094666
0.3472119867801666 0.11816094070672989 0.6363803744316101
0.38321608304977417 0.23403510451316833 0.5411367416381836
0.31454700231552124 0.12458169460296631 0.6529093384742737
0.38670575618743896 0.14642976224422455 0.6211252212524414
0.2686375379562378 0.2540147006511688 0.5377858281135559
0.25989702343940735 0.21169905364513397 0.6520929932594299
0.3566649556159973 0.295989990234375 0.6070394515991211
0.40598416328430176 0.2718742787837982 0.48908162117004395
0.40893834829330444 0.25720807909965515 0.5479984283447266
0.3900127708911896 0.20429523289203644 0.5400084853172302
0.28073930740356445 0.16017337143421173 0.6537835597991943
0.2698969841003418 0.15845467150211334 0.5875889658927917
0.23024803400039673 0.1395411640405655 0.5718038082122803
0.25416356325149536 0.11733317375183105 0.525293231010437
0.42485862970352173 0.276928186416626 0.5520973205566406
0.36086949706077576 0.2167462557554245 0.5153847932815552
0.30234456062316895 0.11792557686567307 0.6696025729179382
0.2313002049922943 0.26224008202552795 0.6039296984672546
0.4238620102405548 0.2476983219385147 0.6240935921669006
0.3528953194618225 0.1817043423652649 0.6653579473495483
0.3410191535949707 0.2399338185787201 0.5061091780662537
0.4040154814720154 0.17705921828746796 0.5111085772514343
0.2761397361755371 0.14929349720478058 0.46259868144989014
0.3600243628025055 0.19872801005840302 0.6663550138473511
0.2338508665561676 0.18824981153011322 0.5066947340965271
0.28081434965133667 0.2615363299846649 0.5114230513572693
0.2707033157348633 0.11607557535171509 0.5452594757080078
0.3713531494140625 0.23012875020503998 0.5879451036453247
0.426872193813324 0.2606864869594574 0.5592350959777832
0.26077279448509216 0.18459708988666534 0.4758600890636444
0.41010743379592896 0.24141769111156464 0.5261040925979614
0.38553479313850403 0.15167735517024994 0.6474549770355225
0.2245081663131714 0.2860026955604553 0.642584502696991
0.22218123078346252 0.14682728052139282 0.6301003098487854
0.3213440477848053 0.2665698826313019 0.5509136319160461
0.42414623498916626 0.23595693707466125 0.5347991585731506
0.2978759706020355 0.12388084083795547 0.5335680842399597
0.2816869020462036 0.2895358204841614 0.4831980764865875
0.30464255809783936 0.18439559638500214 0.6051389575004578
0.3080049157142639 0.26945608854293823 0.6423919796943665
0.2991938591003418 0.16761060059070587 0.5286785960197449
0.31886497139930725 0.2597382962703705 0.6476996541023254
0.27092379331588745 0.16856002807617188 0.5685297250747681
0.40009361505508423 0.2048136293888092 0.5912229418754578
0.2846810221672058 0.2837664783000946 0.49975869059562683
0.2313002049922943 0.26224008202552795 0.6039296984672546
0.4238620102405548 0.2476983219385147 0.6240935921669006
0.3528953194618225 0.1817043423652649 0.6653579473495483
0.3410191535949707 0.2399338185787201 0.5061091780662537
0.4040154814720154 0.17705921828746796 0.5111085772514343
0.2761397361755371 0.14929349720478058 0.46259868144989014
0.3600243628025055 0.19872801005840302 0.6663550138473511
0.2338508665561676 0.18824981153011322 0.5066947340965271
0.28081434965133667 0.2615363299846649 0.5114230513572693
0.2707033157348633 0.11607557535171509 0.5452594757080078
0.3713531494140625 0.23012875020503998 0.5879451036453247
0.426872193813324 0.2606864869594574 0.5592350959777832
0.26077279448509216 0.18459708988666534 0.4758600890636444
0.3388230800628662 0.1855696737766266 0.5031902194023132
0.41274431347846985 0.19416293501853943 0.5758281946182251
0.23789545893669128 0.1420392096042633 0.625951886177063
0.4336725175380707 0.25827479362487793 0.5348944067955017
0.2523067891597748 0.2938125431537628 0.49590572714805603
0.39613497257232666 0.20321407914161682 0.6411604881286621
0.2780880928039551 0.2998325824737549 0.5358010530471802
0.3329179584980011 0.18120156228542328 0.5293596982955933
0.35771894454956055 0.20994962751865387 0.657293975353241
0.351637601852417 0.18139083683490753 0.49967968463897705
0.4215201139450073 0.11850768327713013 0.5484415292739868
0.30270808935165405 0.16145266592502594 0.5158647894859314
0.3234063982963562 0.28198331594467163 0.5992076992988586
0.2335708886384964 0.1185721829533577 0.5199781656265259
0.3122809827327728 0.13885240256786346 0.592523455619812
0.3834228515625 0.15279507637023926 0.6032142043113708
0.3871568441390991 0.11154665052890778 0.6043961048126221
0.35996225476264954 0.19405902922153473 0.5141555666923523
0.41579923033714294 0.2529071867465973 0.5150874257087708
0.4425027370452881 0.24348801374435425 0.5066861510276794
0.31911250948905945 0.2592330276966095 0.49756935238838196
0.32319945096969604 0.20864151418209076 0.6106964349746704
0.3251129388809204 0.22921313345432281 0.48171883821487427
0.22593320906162262 0.187669038772583 0.6067783236503601
0.23858225345611572 0.30309662222862244 0.5725643038749695
0.4134502708911896 0.11390078812837601 0.5098747611045837
0.35678520798683167 0.26285260915756226 0.6592600345611572
0.250666081905365 0.2416122853755951 0.49413347244262695
0.3914289176464081 0.16562023758888245 0.5396215319633484
0.24419058859348297 0.18915674090385437 0.608903169631958
0.3442619740962982 0.18237589299678802 0.5585563778877258
0.29531291127204895 0.1434212476015091 0.5198569297790527
0.349817156791687 0.2305954396724701 0.4730413556098938
0.3477552831172943 0.29778674244880676 0.6285869479179382
0.2817065417766571 0.2234758734703064 0.5513125658035278
0.329038143157959 0.20622618496418 0.5226552486419678
0.22282828390598297 0.15778061747550964 0.5876770615577698
0.3918967843055725 0.18071864545345306 0.6326149106025696
0.24542778730392456 0.24524419009685516 0.6388418674468994
0.40089133381843567 0.21459856629371643 0.5233521461486816
0.30150747299194336 0.14219264686107635 0.5876336693763733
0.25455567240715027 0.15748971700668335 0.5074183344841003
0.3919779360294342 0.18042132258415222 0.5107064843177795
0.3388298451900482 0.23936137557029724 0.6585342288017273
0.33284085988998413 0.23516429960727692 0.6624823212623596
0.41376355290412903 0.2819441258907318 0.6297736167907715
0.26021885871887207 0.1825006753206253 0.5201489925384521
0.24044254422187805 0.1463736891746521 0.6436625123023987
0.3982026278972626 0.16117645800113678 0.6717782616615295
0.31623461842536926 0.22114619612693787 0.5899027585983276
0.39837518334388733 0.2710207402706146 0.5273008942604065
0.4206848442554474 0.2856849431991577 0.594380259513855
0.4042777419090271 0.151117205619812 0.5590605139732361
0.22221067547798157 0.13237443566322327 0.5167233347892761
0.4134502708911896 0.11390078812837601 0.5098747611045837
0.35678520798683167 0.26285260915756226 0.6592600345611572
0.250666081905365 0.2416122853755951 0.49413347244262695
0.3545956015586853 0.1367131769657135 0.5172803997993469
0.29265427589416504 0.12673509120941162 0.5711051225662231
0.4244457185268402 0.2585715055465698 0.5502370595932007
0.24105006456375122 0.18362241983413696 0.5837544202804565
0.3448464274406433 0.2516443729400635 0.5281661152839661
0.38054487109184265 0.15320871770381927 0.5637819170951843
0.4095027446746826 0.21707886457443237 0.6789407730102539
0.329038143157959 0.20622618496418 0.5226552486419678
0.31854912638664246 0.12420830130577087 0.6172101497650146
0.34552186727523804 0.250176340341568 0.5620529651641846
0.2902100682258606 0.21576225757598877 0.5593094825744629
0.4287285804748535 0.24398048222064972 0.5206540822982788
0.24542778730392456 0.24524419009685516 0.6388418674468994
0.40089133381843567 0.21459856629371643 0.5233521461486816
0.30150747299194336 0.14219264686107635 0.5876336693763733
0.25455567240715027 0.15748971700668335 0.5074183344841003
0.3919779360294342 0.18042132258415222 0.5107064843177795
0.3388298451900482 0.23936137557029724 0.6585342288017273
0.26135802268981934 0.12453112006187439 0.48720335960388184
0.26021885871887207 0.1825006753206253 0.5201489925384521
0.24044254422187805 0.1463736891746521 0.6436625123023987
0.3982026278972626 0.16117645800113678 0.6717782616615295
0.25294435024261475 0.12899282574653625 0.6056950688362122
0.2987857758998871 0.1647113561630249 0.4997449219226837
0.22502505779266357 0.13427597284317017 0.6346482634544373
0.4134502708911896 0.11390078812837601 0.5098747611045837
0.35678520798683167 0.26285260915756226 0.6592600345611572
0.250666081905365 0.2416122853755951 0.49413347244262695
0.3914289176464081 0.16562023758888245 0.5396215319633484
0.39142900705337524 0.16562022268772125 0.5396216511726379
0.4244457185268402 0.2585715055465698 0.5502370595932007
0.24105006456375122 0.18362241983413696 0.5837544202804565
0.3448464274406433 0.2516443729400635 0.5281661152839661
0.24044916033744812 0.23220905661582947 0.590206503868103
0.3477552831172943 0.29778674244880676 0.6285869479179382
0.4095027446746826 0.21707886457443237 0.6789407730102539
0.2723217010498047 0.11569865047931671 0.602028489112854
0.31854912638664246 0.12420830130577087 0.6172101497650146
0.2902100682258606 0.21576225757598877 0.5593094825744629
0.4130781888961792 0.16699308156967163 0.5331437587738037
0.31445997953414917 0.1799566000699997 0.5047760009765625
0.4144539535045624 0.1875666379928589 0.5085043907165527
0.3063200116157532 0.2963857650756836 0.5182648301124573
0.39641883969306946 0.27906763553619385 0.5293171405792236
0.36960187554359436 0.2752399742603302 0.5704898834228516
0.3263199031352997 0.26369157433509827 0.5788956880569458
0.335942804813385 0.22900281846523285 0.6073786616325378
0.23892070353031158 0.22143372893333435 0.5501497387886047
0.251549631357193 0.23469944298267365 0.48273855447769165
0.3076200485229492 0.2334468513727188 0.6358838677406311
0.3147199749946594 0.2944301664829254 0.5997695326805115
0.4213854670524597 0.18298669159412384 0.5100632309913635
0.27616211771965027 0.2852399945259094 0.4727344810962677
0.25387322902679443 0.1277478188276291 0.5126343369483948
0.25533583760261536 0.20958243310451508 0.5335284471511841
0.4143972098827362 0.1722857803106308 0.5611955523490906
0.3694015145301819 0.1910112202167511 0.5539847016334534
0.40443703532218933 0.12774185836315155 0.6203935146331787
0.35086432099342346 0.2393127828836441 0.6587587594985962
0.26493290066719055 0.19840660691261292 0.5648581385612488
0.24671289324760437 0.20587380230426788 0.5090556740760803
0.317639023065567 0.11856456100940704 0.6118316054344177
0.3669451177120209 0.1352052241563797 0.5837143063545227
0.2515355348587036 0.1505737602710724 0.6345430612564087
0.3774726688861847 0.1354425996541977 0.5028719902038574
0.3205292820930481 0.17951397597789764 0.6198016405105591
0.365336537361145 0.2843249440193176 0.5812487602233887
0.40886855125427246 0.10841365903615952 0.5388110876083374
0.2904551327228546 0.13752481341362 0.5822221636772156
0.27026936411857605 0.15031367540359497 0.5351744890213013
0.3062480390071869 0.13972318172454834 0.6639953851699829
0.3741737902164459 0.24830316007137299 0.6538321375846863
0.25731632113456726 0.17227879166603088 0.5803610682487488
0.2735743522644043 0.304258793592453 0.5717800855636597
0.25274163484573364 0.145207479596138 0.6410389542579651
0.24542778730392456 0.24524419009685516 0.6388418674468994
0.2289808839559555 0.13857533037662506 0.5468003153800964
0.3059033453464508 0.20166033506393433 0.48749756813049316
0.2811791002750397 0.12052420526742935 0.5498625636100769
0.2664487957954407 0.2951103150844574 0.45315203070640564
0.3134500980377197 0.20759348571300507 0.49449044466018677
0.34842485189437866 0.20149992406368256 0.5437051653862
0.4028366506099701 0.15210439264774323 0.5543267130851746
0.4095689654350281 0.12184765189886093 0.5579886436462402
0.30177947878837585 0.2667256295681 0.5963011384010315
0.37199193239212036 0.2373792827129364 0.5656410455703735
0.267198771238327 0.23160000145435333 0.5639565587043762
0.43440699577331543 0.1432241052389145 0.488344669342041
0.32684454321861267 0.11886408925056458 0.5941848754882812
0.3108953535556793 0.15014204382896423 0.6637672185897827
0.3503055274486542 0.25006821751594543 0.5634562373161316
0.4043196141719818 0.2526707351207733 0.6333459615707397
0.30582672357559204 0.15021705627441406 0.5594440698623657
0.38090306520462036 0.13937658071517944 0.5666012763977051
0.22561384737491608 0.1746281534433365 0.5587514638900757
0.2832408547401428 0.3042137324810028 0.6282389760017395
0.36594921350479126 0.21569424867630005 0.517884373664856
0.39539068937301636 0.2132866084575653 0.6440795063972473
0.3042149841785431 0.267505943775177 0.6435078978538513
0.24467279016971588 0.24989894032478333 0.5273029804229736
0.371536523103714 0.15523017942905426 0.6717270612716675
0.27146056294441223 0.3030625581741333 0.5808894038200378
0.36179929971694946 0.22253473103046417 0.6573320627212524
0.3838185667991638 0.22112518548965454 0.5716948509216309
0.28286582231521606 0.24286645650863647 0.4919474720954895
0.24755187332630157 0.24523583054542542 0.6059805154800415
0.374908447265625 0.24469035863876343 0.624548077583313
0.41274431347846985 0.19416293501853943 0.5758281946182251
0.4059939384460449 0.19579005241394043 0.584424614906311
0.2970159649848938 0.16621416807174683 0.6250293850898743
0.36960187554359436 0.2752399742603302 0.5704898834228516
0.3263199031352997 0.26369157433509827 0.5788956880569458
0.335942804813385 0.22900281846523285 0.6073786616325378
0.23892070353031158 0.22143372893333435 0.5501497387886047
0.251549631357193 0.23469944298267365 0.48273855447769165
0.3076200485229492 0.2334468513727188 0.6358838677406311
0.3147199749946594 0.2944301664829254 0.5997695326805115
0.4213854670524597 0.18298669159412384 0.5100632309913635
0.27616211771965027 0.2852399945259094 0.4727344810962677
0.25387322902679443 0.1277478188276291 0.5126343369483948
0.25533583760261536 0.20958243310451508 0.5335284471511841
0.4143972098827362 0.1722857803106308 0.5611955523490906
0.35289061069488525 0.18101096153259277 0.657765805721283
0.4088185429573059 0.23072317242622375 0.6179322600364685
0.2444739192724228 0.1555602103471756 0.6548482775688171
0.3598524332046509 0.139826700091362 0.5879632830619812
0.2661069631576538 0.12129130959510803 0.4657200872898102
0.260233610868454 0.3031795918941498 0.5615146160125732
0.4082239270210266 0.11211877316236496 0.5037830471992493
0.31729206442832947 0.23128657042980194 0.5156773328781128
0.36777421832084656 0.20111018419265747 0.6330010294914246
0.3794715404510498 0.20307639241218567 0.47510576248168945
0.25265052914619446 0.2552776038646698 0.6173337697982788
0.28299564123153687 0.299661248922348 0.45733463764190674
0.26221027970314026 0.2735336124897003 0.6065463423728943
0.41725438833236694 0.11543800681829453 0.5327184200286865
0.261930376291275 0.1439024806022644 0.4668324589729309
0.2733297646045685 0.2616886794567108 0.6279826164245605
0.34133926033973694 0.1486142873764038 0.5871768593788147
0.23789545893669128 0.1420392096042633 0.625951886177063
0.4028366506099701 0.15210439264774323 0.5543267130851746
0.4095689654350281 0.12184765189886093 0.5579886436462402
0.30177947878837585 0.2667256295681 0.5963011384010315
0.37199193239212036 0.2373792827129364 0.5656410455703735
0.267198771238327 0.23160000145435333 0.5639565587043762
0.43440699577331543 0.1432241052389145 0.488344669342041
0.32684454321861267 0.11886408925056458 0.5941848754882812
0.3108953535556793 0.15014204382896423 0.6637672185897827
0.3503055274486542 0.25006821751594543 0.5634562373161316
0.36648258566856384 0.24343210458755493 0.5148023366928101
0.404280424118042 0.2529211640357971 0.6330347061157227
0.3021896779537201 0.11709076166152954 0.5606715083122253
0.40111106634140015 0.14325883984565735 0.6851633191108704
0.35482290387153625 0.1956188678741455 0.5776177048683167
0.2925339639186859 0.2720453441143036 0.5192703604698181
0.2786613404750824 0.28606000542640686 0.49083375930786133
0.25098979473114014 0.1386319398880005 0.578244149684906
0.39539068937301636 0.2132866084575653 0.6440795063972473
0.3042149841785431 0.267505943775177 0.6435078978538513
0.24467279016971588 0.24989894032478333 0.5273029804229736
0.371536523103714 0.15523017942905426 0.6717270612716675
0.27146056294441223 0.3030625581741333 0.5808894038200378
0.36179929971694946 0.22253473103046417 0.6573320627212524
0.3838185667991638 0.22112518548965454 0.5716948509216309
0.3474903404712677 0.1397046446800232 0.614936888217926
0.25523045659065247 0.22080349922180176 0.6284024119377136
0.24755187332630157 0.24523583054542542 0.6059805154800415
0.374908447265625 0.24469035863876343 0.624548077583313
0.25015386939048767 0.1654774695634842 0.6388692259788513
0.23005197942256927 0.29498475790023804 0.640817403793335
0.22903549671173096 0.19830423593521118 0.5408896207809448
0.426872193813324 0.2606864869594574 0.5592350959777832
0.4028366506099701 0.15210439264774323 0.5543267130851746
0.37199193239212036 0.2373792827129364 0.5656410455703735
0.267198771238327 0.23160000145435333 0.5639565587043762
0.43440699577331543 0.1432241052389145 0.488344669342041
0.32684454321861267 0.11886408925056458 0.5941848754882812
0.3108953535556793 0.15014204382896423 0.6637672185897827
0.36648258566856384 0.24343210458755493 0.5148023366928101
0.404280424118042 0.2529211640357971 0.6330347061157227
0.3021896779537201 0.11709076166152954 0.5606715083122253
0.40111106634140015 0.14325883984565735 0.6851633191108704
0.35482290387153625 0.1956188678741455 0.5776177048683167
0.2925339639186859 0.2720453441143036 0.5192703604698181
0.2786613404750824 0.28606000542640686 0.49083375930786133
0.25098979473114014 0.1386319398880005 0.578244149684906
0.40736332535743713 0.21339014172554016 0.5609106421470642
0.2399785816669464 0.2358432561159134 0.5466576814651489
0.28121182322502136 0.1330156773328781 0.6618434190750122
0.34014710783958435 0.16557122766971588 0.5991880297660828
0.2487812042236328 0.1182742491364479 0.5436557531356812
0.2755722999572754 0.2169608622789383 0.5958189368247986
0.39767464995384216 0.21337227523326874 0.6556288599967957
0.3129101097583771 0.20772220194339752 0.5641418695449829
0.4317679703235626 0.2138134390115738 0.5451855063438416
0.24755187332630157 0.24523583054542542 0.6059805154800415
0.374908447265625 0.24469035863876343 0.624548077583313
0.25015386939048767 0.1654774695634842 0.6388692259788513
0.23005197942256927 0.29498475790023804 0.640817403793335
0.22903549671173096 0.19830423593521118 0.5408896207809448
0.37901628017425537 0.23489394783973694 0.5204344987869263
0.41892409324645996 0.12596891820430756 0.5672808289527893
0.319914311170578 0.20351935923099518 0.6522473096847534
0.24778373539447784 0.1574399471282959 0.45837944746017456
0.3147199749946594 0.2944301664829254 0.5997695326805115
0.4213854670524597 0.18298669159412384 0.5100632309913635
0.27616211771965027 0.2852399945259094 0.4727344810962677
0.25387322902679443 0.1277478188276291 0.5126343369483948
0.25533583760261536 0.20958243310451508 0.5335284471511841
0.4143972098827362 0.1722857803106308 0.5611955523490906
0.3694015145301819 0.1910112202167511 0.5539847016334534
0.40443703532218933 0.12774185836315155 0.6203935146331787
0.35086432099342346 0.2393127828836441 0.6587587594985962
0.38612625002861023 0.1313178986310959 0.5310677886009216
0.2681666910648346 0.2479235827922821 0.6149526834487915
0.39015114307403564 0.19432902336120605 0.6395066976547241
0.37312379479408264 0.14412571489810944 0.494682252407074
0.34730902314186096 0.11281879246234894 0.5491423010826111
0.25089031457901 0.18211686611175537 0.47629308700561523
0.2774934768676758 0.15656742453575134 0.48129719495773315
0.27787163853645325 0.17751279473304749 0.6153591871261597
0.40512582659721375 0.19664348661899567 0.5712584257125854
0.3791668713092804 0.21982276439666748 0.5280203819274902
0.29630976915359497 0.2953554689884186 0.5561737418174744
0.33281850814819336 0.2277660071849823 0.5270026326179504
0.321125328540802 0.20822162926197052 0.518225371837616
0.4018069803714752 0.23220989108085632 0.5043331980705261
0.2941526174545288 0.11995457112789154 0.5923661589622498
0.3847733438014984 0.2432013303041458 0.5484970808029175
0.2720354497432709 0.2843214273452759 0.4794347286224365
0.19807276129722595 0.12248402833938599 0.6469646096229553
0.35875681042671204 0.15813778340816498 0.6683303713798523
0.39991530776023865 0.24950343370437622 0.6057485342025757
0.34833863377571106 0.13873057067394257 0.6565573215484619
0.24104775488376617 0.18422818183898926 0.5842613577842712
0.3388230800628662 0.1855696737766266 0.5031902194023132
0.3694015145301819 0.1910112202167511 0.5539847016334534
0.40443703532218933 0.12774185836315155 0.6203935146331787
0.35086432099342346 0.2393127828836441 0.6587587594985962
0.26493290066719055 0.19840660691261292 0.5648581385612488
0.24671289324760437 0.20587380230426788 0.5090556740760803
0.317639023065567 0.11856456100940704 0.6118316054344177
0.3669451177120209 0.1352052241563797 0.5837143063545227
0.2515355348587036 0.1505737602710724 0.6345430612564087
0.3774726688861847 0.1354425996541977 0.5028719902038574
0.3205292820930481 0.17951397597789764 0.6198016405105591
0.365336537361145 0.2843249440193176 0.5812487602233887
0.40886855125427246 0.10841365903615952 0.5388110876083374
0.2904551327228546 0.13752481341362 0.5822221636772156
0.27026936411857605 0.15031367540359497 0.5351744890213013
0.32021212577819824 0.1347523182630539 0.5886722207069397
0.3007655143737793 0.2725171744823456 0.46892908215522766
0.2504192292690277 0.28339293599128723 0.6106792092323303
0.38655680418014526 0.15179237723350525 0.5456428527832031
0.2895578145980835 0.28675639629364014 0.5171423554420471
0.3590255677700043 0.1835329830646515 0.5951763391494751
0.2640654742717743 0.21998438239097595 0.635111391544342
0.2583327889442444 0.265360027551651 0.4820229113101959
0.261569082736969 0.30130645632743835 0.4824618101119995
0.23407869040966034 0.20205548405647278 0.5732141137123108
0.40415269136428833 0.1547784060239792 0.520612359046936
0.28889042139053345 0.20339487493038177 0.6585983037948608
0.32252076268196106 0.22924500703811646 0.6221042275428772
0.354716032743454 0.1945321410894394 0.5574521422386169
0.3557380437850952 0.15290242433547974 0.49661916494369507
0.40251198410987854 0.20713260769844055 0.6468408107757568
0.3417509198188782 0.1776961386203766 0.5543361902236938
0.3388230800628662 0.1855696737766266 0.5031902194023132
0.3304910659790039 0.15010271966457367 0.6116520166397095
0.2229345440864563 0.2012217938899994 0.5842854976654053
0.26456648111343384 0.1280251294374466 0.5687518119812012
0.2713460326194763 0.29838326573371887 0.5722638368606567
0.40566858649253845 0.11335193365812302 0.5956684947013855
0.35972145199775696 0.18279163539409637 0.5321263074874878
0.4094913601875305 0.28213950991630554 0.5058291554450989
0.22831042110919952 0.1764947921037674 0.5776515007019043
0.39462992548942566 0.13761591911315918 0.6502429842948914
0.34133926033973694 0.1486142873764038 0.5871768593788147
0.29873257875442505 0.22964315116405487 0.6598028540611267
0.3208068609237671 0.24968986213207245 0.4709813892841339
0.3983941972255707 0.2397625595331192 0.6597458720207214
0.38486018776893616 0.12069817632436752 0.6105682253837585
0.41308462619781494 0.18188931047916412 0.6478448510169983
0.30839166045188904 0.30061036348342896 0.6466860771179199
0.3264286518096924 0.12423789501190186 0.5670166611671448
0.3444036543369293 0.16794933378696442 0.6250687837600708
0.4342198967933655 0.18310809135437012 0.48497533798217773
0.3021530508995056 0.20289377868175507 0.6546528339385986
0.3618937134742737 0.14997264742851257 0.5698985457420349
0.41060230135917664 0.18656109273433685 0.6066139340400696
0.4301171600818634 0.27491071820259094 0.5176239013671875
0.34350213408470154 0.12512925267219543 0.5670177936553955
0.253020703792572 0.1167246624827385 0.543509304523468
0.4106552302837372 0.13888834416866302 0.6223490238189697
0.36831527948379517 0.15907210111618042 0.6660245656967163
0.3337205648422241 0.14046600461006165 0.4826141595840454
0.32620349526405334 0.1349712461233139 0.5842217206954956
0.29845574498176575 0.20341239869594574 0.6061521172523499
0.38337987661361694 0.11420765519142151 0.5668505430221558
0.41274431347846985 0.19416293501853943 0.5758281946182251
0.25830090045928955 0.28768444061279297 0.6049361824989319
0.2567717432975769 0.24689409136772156 0.5416712760925293
0.2645917236804962 0.22704194486141205 0.5887278914451599
0.37948140501976013 0.13178817927837372 0.5322213172912598
0.2941628694534302 0.20543445646762848 0.49775218963623047
0.37647297978401184 0.28228774666786194 0.47659632563591003
0.30061304569244385 0.20596346259117126 0.5962978601455688
0.37505415081977844 0.2756127715110779 0.5334147810935974
0.2677561044692993 0.13078473508358002 0.5107063055038452
0.25071942806243896 0.1969839185476303 0.48971879482269287
0.43634626269340515 0.26755857467651367 0.5249642729759216
0.3019697070121765 0.11488151550292969 0.5293335914611816
0.25939375162124634 0.19397284090518951 0.6185789704322815
0.35945776104927063 0.25128424167633057 0.5697945356369019
0.31257960200309753 0.19250066578388214 0.6500528454780579
0.3953879773616791 0.28073063492774963 0.5682604908943176
0.32197335362434387 0.23257039487361908 0.5751341581344604
0.29352104663848877 0.25903400778770447 0.6480350494384766
0.2896577715873718 0.23091556131839752 0.5923383831977844
0.23924356698989868 0.16534152626991272 0.48958590626716614
0.2739356458187103 0.19842787086963654 0.5462137460708618
0.2726595997810364 0.29836714267730713 0.6153476238250732
0.3468467891216278 0.1883489489555359 0.4894959032535553
0.3189327120780945 0.18346114456653595 0.6297165155410767
0.3048950731754303 0.19006724655628204 0.6488868594169617
0.29668647050857544 0.3014313280582428 0.6256583333015442
0.33025509119033813 0.28530576825141907 0.5804005265235901
0.40585869550704956 0.20408624410629272 0.6589128971099854
0.3491731286048889 0.22281941771507263 0.645825207233429
0.2893756926059723 0.20019112527370453 0.5246636867523193
0.34773948788642883 0.12901416420936584 0.660959005355835
0.34552186727523804 0.250176340341568 0.5620529651641846
0.2900388240814209 0.14530512690544128 0.5839323997497559
0.3839174211025238 0.2096688151359558 0.6752899289131165
0.4035814106464386 0.25699326395988464 0.5312178730964661
0.29961317777633667 0.2501041889190674 0.48920243978500366
0.2518232464790344 0.19884741306304932 0.5723976492881775
0.4156911075115204 0.13881118595600128 0.5437791347503662
0.26945167779922485 0.17348124086856842 0.6450948715209961
0.3845757842063904 0.19017240405082703 0.6615015268325806
0.2775667607784271 0.20729279518127441 0.592068076133728
0.30743253231048584 0.22887615859508514 0.6512011885643005
0.22324584424495697 0.13298095762729645 0.547681987285614
0.33516576886177063 0.16466379165649414 0.5629741549491882
0.39533531665802 0.22678205370903015 0.5537850260734558
0.297675222158432 0.2654038071632385 0.48490700125694275
0.2727699279785156 0.2838518023490906 0.4537772536277771
0.32298988103866577 0.15187127888202667 0.4863525629043579
0.43391746282577515 0.22656972706317902 0.49542638659477234
0.38997843861579895 0.17817631363868713 0.5895110368728638
0.31819185614585876 0.1369720995426178 0.6664320230484009
0.2552364468574524 0.1529761701822281 0.48864278197288513
0.33248722553253174 0.21580836176872253 0.554153561592102
0.42565667629241943 0.2255413979291916 0.5257186889648438
0.2685677111148834 0.17913921177387238 0.642104983329773
0.3396826684474945 0.1125541478395462 0.5317437648773193
0.26293396949768066 0.16487433016300201 0.476655513048172
0.36714112758636475 0.2577666640281677 0.49758848547935486
0.3177286982536316 0.21134503185749054 0.46237918734550476
0.2551617920398712 0.17231328785419464 0.594687283039093
0.3455997705459595 0.28654757142066956 0.5567081570625305
0.4052824079990387 0.25002521276474 0.5035879015922546
0.22184617817401886 0.12570010125637054 0.6146106719970703
0.2902100682258606 0.21576225757598877 0.5593094825744629
0.4143972098827362 0.1722857803106308 0.5611955523490906
0.3694015145301819 0.1910112202167511 0.5539847016334534
0.40443703532218933 0.12774185836315155 0.6203935146331787
0.40443703532218933 0.12774185836315155 0.6203935146331787
0.35086432099342346 0.2393127828836441 0.6587587594985962
0.26493290066719055 0.19840660691261292 0.5648581385612488
0.2515355348587036 0.1505737602710724 0.6345430612564087
0.3774726688861847 0.1354425996541977 0.5028719902038574
0.3205292820930481 0.17951397597789764 0.6198016405105591
0.365336537361145 0.2843249440193176 0.5812487602233887
0.365336537361145 0.2843249440193176 0.5812487602233887
0.40886855125427246 0.10841365903615952 0.5388110876083374
0.2904551327228546 0.13752481341362 0.5822221636772156
0.2948445677757263 0.2775759994983673 0.59541916847229
0.31827452778816223 0.14172017574310303 0.6504967212677002
0.24245360493659973 0.15769754350185394 0.6453362107276917
0.26888227462768555 0.2184736132621765 0.5169424414634705
0.3226010799407959 0.2812688946723938 0.5652401447296143
0.401650071144104 0.14107243716716766 0.5854479670524597
0.31556236743927 0.2437705248594284 0.5169181227684021
0.38486018776893616 0.12069817632436752 0.6105682253837585
0.4450507164001465 0.28074270486831665 0.5300302505493164
0.4364320933818817 0.171026811003685 0.49676504731178284
0.24550512433052063 0.2915743291378021 0.630122721195221
0.312730073928833 0.19147270917892456 0.5112967491149902
0.28128713369369507 0.11996511369943619 0.6533140540122986
0.26293396949768066 0.16487433016300201 0.476655513048172
0.36714112758636475 0.2577666640281677 0.49758848547935486
0.3177286982536316 0.21134503185749054 0.46237918734550476
0.2551617920398712 0.17231328785419464 0.594687283039093
0.3455997705459595 0.28654757142066956 0.5567081570625305
0.4028366506099701 0.15210439264774323 0.5543267130851746
0.29175078868865967 0.16836826503276825 0.6263424158096313
0.37596946954727173 0.11103183031082153 0.6323688626289368
0.2811415493488312 0.1839275062084198 0.46717241406440735
0.26815682649612427 0.2888890206813812 0.5728062987327576
0.25619029998779297 0.11672911792993546 0.4768446087837219
0.3740537166595459 0.18558965623378754 0.565724790096283
0.34153491258621216 0.13948404788970947 0.6391209363937378
0.4356890618801117 0.2395046204328537 0.5193503499031067
0.2971203625202179 0.16912966966629028 0.5885769128799438
0.30970194935798645 0.16528436541557312 0.6471655368804932
0.3998844027519226 0.20905359089374542 0.6664522290229797
0.3514518737792969 0.18484826385974884 0.5853642821311951
0.29162684082984924 0.131492018699646 0.5114901661872864
0.33581504225730896 0.17037035524845123 0.5040248036384583
0.3012259006500244 0.11559487879276276 0.5849982500076294
0.3020251989364624 0.17043669521808624 0.5672594308853149
0.2602680027484894 0.15851381421089172 0.5240710377693176
0.3730454742908478 0.16748639941215515 0.6786524057388306
0.41949662566185 0.18730010092258453 0.5846760869026184
0.40620243549346924 0.25568559765815735 0.6293395161628723
0.380449503660202 0.27454546093940735 0.5716937780380249
0.3171041011810303 0.14701075851917267 0.6454719305038452
0.24879397451877594 0.22207213938236237 0.5741472244262695
0.3261697590351105 0.23020312190055847 0.5179020762443542
0.3261697590351105 0.23020312190055847 0.5179020762443542
0.3434391915798187 0.2684899866580963 0.5957015752792358
0.3153581917285919 0.25457531213760376 0.5502316951751709
0.3447505235671997 0.1894877701997757 0.5489444732666016
0.2294895350933075 0.15605266392230988 0.4786112904548645
0.2905575633049011 0.20591852068901062 0.601596474647522
0.4073048233985901 0.28237587213516235 0.5070797801017761
0.23005197942256927 0.29498475790023804 0.640817403793335
0.24879397451877594 0.22207213938236237 0.5741472244262695
0.3261697590351105 0.23020312190055847 0.5179020762443542
0.3434391915798187 0.2684899866580963 0.5957015752792358
0.3153581917285919 0.25457531213760376 0.5502316951751709
0.3447505235671997 0.1894877701997757 0.5489444732666016
0.2294895350933075 0.15605266392230988 0.4786112904548645
0.2905575633049011 0.20591852068901062 0.601596474647522
0.4073048233985901 0.28237587213516235 0.5070797801017761
0.384581983089447 0.18798522651195526 0.5132845044136047
0.24701903760433197 0.19548813998699188 0.5642588138580322
0.31079286336898804 0.18603350222110748 0.48652946949005127
0.41865652799606323 0.2159537374973297 0.6234066486358643
0.2733668386936188 0.16225764155387878 0.5419304370880127
0.4054679274559021 0.1382414847612381 0.5998182892799377
0.40603169798851013 0.16604872047901154 0.5171132683753967
0.36431464552879333 0.23969639837741852 0.6390480995178223
0.27825435996055603 0.2792355418205261 0.5208115577697754
0.34674307703971863 0.133674755692482 0.664237916469574
0.34963738918304443 0.2636267840862274 0.6130418181419373
0.22840577363967896 0.15761443972587585 0.5057922601699829
0.4387865364551544 0.2748676538467407 0.5021945834159851
0.2988087832927704 0.27257803082466125 0.6048165559768677
0.2301173359155655 0.12891420722007751 0.5613464713096619
0.4155864715576172 0.21556487679481506 0.5462846755981445
0.2603321671485901 0.14342477917671204 0.567658007144928
0.26923125982284546 0.1537177860736847 0.5377297401428223
0.3572009801864624 0.12108480930328369 0.5198421478271484
0.25830090045928955 0.28768444061279297 0.6049361824989319
0.32320353388786316 0.27151238918304443 0.5609822869300842
0.2668803334236145 0.1894761472940445 0.6287043690681458
0.22059951722621918 0.1502295285463333 0.5740094780921936
0.3043670058250427 0.28480634093284607 0.5939463376998901
0.3447505235671997 0.1894877701997757 0.5489444732666016
0.2294895350933075 0.15605266392230988 0.4786112904548645
0.2905575633049011 0.20591852068901062 0.601596474647522
0.4073048233985901 0.28237587213516235 0.5070797801017761
0.27005529403686523 0.15422692894935608 0.5228561758995056
0.31618252396583557 0.11413649469614029 0.5026760697364807
0.2973533868789673 0.17253822088241577 0.6654264330863953
0.23346473276615143 0.11939692497253418 0.5229704976081848
0.3838384449481964 0.11326724290847778 0.528764545917511
0.3041346073150635 0.2590852677822113 0.657038688659668
0.37229683995246887 0.11293873935937881 0.6519911885261536
0.40704068541526794 0.13054776191711426 0.5531339645385742
0.39757004380226135 0.262050986289978 0.5871995091438293
0.2912302017211914 0.17018002271652222 0.5519971251487732
0.4059939384460449 0.19579005241394043 0.584424614906311
0.2970159649848938 0.16621416807174683 0.6250293850898743
0.36960187554359436 0.2752399742603302 0.5704898834228516
0.3263199031352997 0.26369157433509827 0.5788956880569458
0.335942804813385 0.22900281846523285 0.6073786616325378
0.23892070353031158 0.22143372893333435 0.5501497387886047
0.34963738918304443 0.2636267840862274 0.6130418181419373
0.22840577363967896 0.15761443972587585 0.5057922601699829
0.4387865364551544 0.2748676538467407 0.5021945834159851
0.2988087832927704 0.27257803082466125 0.6048165559768677
0.2301173359155655 0.12891420722007751 0.5613464713096619
0.4155864715576172 0.21556487679481506 0.5462846755981445
0.2603321671485901 0.14342477917671204 0.567658007144928
0.26923125982284546 0.1537177860736847 0.5377297401428223
0.3572009801864624 0.12108480930328369 0.5198421478271484
0.25830090045928955 0.28768444061279297 0.6049361824989319
0.2567717432975769 0.24689409136772156 0.5416712760925293
0.3864229619503021 0.14334054291248322 0.5877305865287781
0.24701903760433197 0.19548813998699188 0.5642588138580322
0.36055976152420044 0.24444210529327393 0.6314267516136169
0.4042286276817322 0.16011212766170502 0.6321510672569275
0.34097251296043396 0.26365870237350464 0.6121273636817932
0.4429227113723755 0.2576189935207367 0.4987776279449463
0.30594107508659363 0.13405188918113708 0.5784353017807007
0.37647297978401184 0.28228774666786194 0.47659632563591003
0.30061304569244385 0.20596346259117126 0.5962978601455688
0.37505415081977844 0.2756127715110779 0.5334147810935974
0.2677561044692993 0.13078473508358002 0.5107063055038452
0.25071942806243896 0.1969839185476303 0.48971879482269287
0.43634626269340515 0.26755857467651367 0.5249642729759216
0.3019697070121765 0.11488151550292969 0.5293335914611816
0.25939375162124634 0.19397284090518951 0.6185789704322815
0.35945776104927063 0.25128424167633057 0.5697945356369019
0.31257960200309753 0.19250066578388214 0.6500528454780579
0.3953879773616791 0.28073063492774963 0.5682604908943176
0.32197335362434387 0.23257039487361908 0.5751341581344604
0.29352104663848877 0.25903400778770447 0.6480350494384766
0.2896577715873718 0.23091556131839752 0.5923383831977844
0.23924356698989868 0.16534152626991272 0.48958590626716614
0.2739356458187103 0.19842787086963654 0.5462137460708618
0.2726595997810364 0.29836714267730713 0.6153476238250732
0.35743823647499084 0.16020828485488892 0.6556455492973328
0.25537604093551636 0.23087169229984283 0.5159091949462891
0.38563308119773865 0.28218552470207214 0.633333683013916
0.3656148910522461 0.19528746604919434 0.6655475497245789
0.3118232190608978 0.15570677816867828 0.5433269143104553
0.20694835484027863 0.12449020892381668 0.5982964634895325
0.24373950064182281 0.19154421985149384 0.5804795622825623
0.42365410923957825 0.23904624581336975 0.6162965893745422
0.3041346073150635 0.2590852677822113 0.657038688659668
0.2904551327228546 0.13752481341362 0.5822221636772156
0.2948445677757263 0.2775759994983673 0.59541916847229
0.31827452778816223 0.14172017574310303 0.6504967212677002
0.24245360493659973 0.15769754350185394 0.6453362107276917
0.26888227462768555 0.2184736132621765 0.5169424414634705
0.30905330181121826 0.30142641067504883 0.5703144669532776
0.401650071144104 0.14107243716716766 0.5854479670524597
0.315721720457077 0.2434975951910019 0.5171929597854614
0.2807973623275757 0.23349782824516296 0.6566348671913147
0.27323421835899353 0.3045632243156433 0.5636364817619324
0.35157638788223267 0.2892330586910248 0.5258744359016418
0.2569476366043091 0.1291230320930481 0.6308804750442505
0.2971304655075073 0.1698150783777237 0.6521092057228088
0.3724365532398224 0.2815532088279724 0.48399609327316284
0.36714112758636475 0.2577666640281677 0.49758848547935486
0.3383016884326935 0.23870210349559784 0.4946103096008301
0.3455997705459595 0.28654757142066956 0.5567081570625305
0.3946778178215027 0.15185020864009857 0.6249695420265198
0.32869669795036316 0.15607933700084686 0.535332202911377
0.27778467535972595 0.28699246048927307 0.5638393759727478
0.27624210715293884 0.1228756457567215 0.4747081398963928
0.3167130649089813 0.22141803801059723 0.5371102094650269
0.36127522587776184 0.24941633641719818 0.49220868945121765
0.3465568721294403 0.24609002470970154 0.6569477915763855
0.31556302309036255 0.1740632802248001 0.5336410999298096
0.3463501036167145 0.2848723232746124 0.6250956654548645
0.2815565764904022 0.19666609168052673 0.6036701202392578
0.3651270270347595 0.18749147653579712 0.6582522988319397
0.3476499617099762 0.26643669605255127 0.5525047779083252
0.32727694511413574 0.19129474461078644 0.6684522032737732
0.2502268850803375 0.12341204285621643 0.46441856026649475
0.22059951722621918 0.1502295285463333 0.5740094780921936
0.2618086040019989 0.24082733690738678 0.6310825347900391
0.2838308811187744 0.30152592062950134 0.5763742327690125
0.4004400968551636 0.267140656709671 0.6045106649398804
0.38800814747810364 0.26255789399147034 0.6115263104438782
0.3681471347808838 0.16606290638446808 0.5889028906822205
0.35408663749694824 0.16314561665058136 0.5768782496452332
0.30426961183547974 0.2639177739620209 0.4715269207954407
0.3433320224285126 0.22276170551776886 0.5423341393470764
0.37058860063552856 0.16964422166347504 0.6165342926979065
0.3827006220817566 0.25659123063087463 0.46902143955230713
0.29683297872543335 0.21234388649463654 0.5113565921783447
0.40140852332115173 0.2757474184036255 0.5961324572563171
0.26195481419563293 0.18854710459709167 0.530424177646637
0.37129777669906616 0.22602415084838867 0.5791395306587219
0.23182573914527893 0.15660853683948517 0.5710785984992981
0.3503178358078003 0.1455518901348114 0.6405447125434875
0.277765691280365 0.1728050261735916 0.46599358320236206
0.3699030578136444 0.136269673705101 0.497090607881546
0.3252388834953308 0.2090577483177185 0.5301216840744019
0.3176133632659912 0.12375745922327042 0.5383149981498718
0.26967307925224304 0.2779400050640106 0.5567675232887268
0.23744885623455048 0.18172697722911835 0.47055307030677795
0.408521443605423 0.21510913968086243 0.548962414264679
