ply
format ascii 1.0
element vertex 824
property float x
property float y
property float z
end_header
0.28274956345558167 0.11757069826126099 0.48322683572769165
0.41199707984924316 0.1795593649148941 0.5988813042640686
0.29111725091934204 0.18885397911071777 0.6239498257637024
0.37507280707359314 0.24696838855743408 0.567474901676178
0.31939393281936646 0.30232471227645874 0.5706451535224915
0.24840699136257172 0.17453618347644806 0.5400394797325134
0.2669549882411957 0.24037963151931763 0.6168293356895447
0.31042879819869995 0.21704678237438202 0.6585973501205444
0.2458721548318863 0.16866202652454376 0.562097430229187
0.26818278431892395 0.2257305085659027 0.5517317652702332
0.28440049290657043 0.2620560824871063 0.4783712923526764
0.4185960590839386 0.16155998408794403 0.5095162391662598
0.24480752646923065 0.22154629230499268 0.55876225233078
0.40854039788246155 0.3013443052768707 0.5894371867179871
0.25505298376083374 0.2579801678657532 0.6221051216125488
0.33853408694267273 0.21934714913368225 0.5180702209472656
0.3511732816696167 0.12756943702697754 0.48813483119010925
0.3241860866546631 0.13580115139484406 0.530394434928894
0.28116926550865173 0.24844221770763397 0.4922768771648407
0.3281616270542145 0.1518663465976715 0.47915470600128174
0.2656635344028473 0.3067950904369354 0.521758496761322
0.3356487452983856 0.23081137239933014 0.6640846729278564
0.3435188829898834 0.14327923953533173 0.6652793884277344
0.27226686477661133 0.1744750291109085 0.5141484141349792
0.3554997444152832 0.30330127477645874 0.5809673070907593
0.266091912984848 0.2711960971355438 0.5400795340538025
0.3961308002471924 0.12761709094047546 0.5845223665237427
0.4179686903953552 0.2856638431549072 0.5314785242080688
0.2520695626735687 0.17519301176071167 0.527893602848053
0.3680327236652374 0.29087528586387634 0.5477918982505798
0.38040441274642944 0.12182613462209702 0.6728216409683228
0.35417911410331726 0.11733629554510117 0.6568452715873718
0.3657875955104828 0.11495859920978546 0.4798247516155243
0.36152297258377075 0.222992405295372 0.4925379753112793
0.28274956345558167 0.11757069826126099 0.48322683572769165
0.41024157404899597 0.1774834394454956 0.5968712568283081
0.2943967580795288 0.19386830925941467 0.6514604091644287
0.359835147857666 0.1171722486615181 0.6333469152450562
0.30395615100860596 0.3089914321899414 0.5814124345779419
0.3021332025527954 0.21585942804813385 0.5824731588363647
0.39569810032844543 0.18342643976211548 0.5440652370452881
0.39777782559394836 0.24268341064453125 0.48074182868003845
0.30708804726600647 0.24931339919567108 0.5220596790313721
0.221161887049675 0.2199133336544037 0.6429235339164734
0.28756943345069885 0.23503701388835907 0.508685290813446
0.3943394422531128 0.2667098939418793 0.4948563277721405
0.3328588604927063 0.2756098210811615 0.5370033979415894
0.2662397027015686 0.16370591521263123 0.5117239952087402
0.39332354068756104 0.2320535033941269 0.556833028793335
0.3282429873943329 0.13434158265590668 0.5037748217582703
0.25725701451301575 0.2732238471508026 0.5518369078636169
0.30877092480659485 0.27864277362823486 0.5329099297523499
0.4163691997528076 0.12329357117414474 0.6209604144096375
0.4362463355064392 0.18746845424175262 0.5386229157447815
0.2632521390914917 0.2795850336551666 0.6323240399360657
0.2355394959449768 0.163537859916687 0.5326565504074097
0.3581598401069641 0.2648914158344269 0.639328122138977
0.3184921145439148 0.25403839349746704 0.6061356067657471
0.4015704095363617 0.24594555795192719 0.677574634552002
0.36584174633026123 0.14088551700115204 0.5021509528160095
0.3122485876083374 0.16684874892234802 0.6439173221588135
0.267291396856308 0.14731894433498383 0.4966707229614258
0.4299529492855072 0.24376098811626434 0.5942015051841736
0.31023523211479187 0.26871487498283386 0.5825464725494385
0.2770690619945526 0.2889435887336731 0.604089081287384
0.3277587294578552 0.254529744386673 0.6291429400444031
0.3737504780292511 0.2712458372116089 0.6066017746925354
0.2794831395149231 0.30115026235580444 0.5274706482887268
0.4179686903953552 0.2856638431549072 0.5314785242080688
0.2520695626735687 0.17519301176071167 0.527893602848053
0.3680327236652374 0.29087528586387634 0.5477918982505798
0.38040441274642944 0.12182613462209702 0.6728216409683228
0.35417911410331726 0.11733629554510117 0.6568452715873718
0.3657875955104828 0.11495859920978546 0.4798247516155243
0.36152297258377075 0.222992405295372 0.4925379753112793
0.28274956345558167 0.11757069826126099 0.48322683572769165
0.41199707984924316 0.1795593649148941 0.5988813042640686
0.29111725091934204 0.18885397911071777 0.6239498257637024
0.37507280707359314 0.24696838855743408 0.567474901676178
0.31939393281936646 0.30232471227645874 0.5706451535224915
0.24840699136257172 0.17453618347644806 0.5400394797325134
0.2669549882411957 0.24037963151931763 0.6168293356895447
0.31042879819869995 0.21704678237438202 0.6585973501205444
0.3612143397331238 0.14825254678726196 0.6582018136978149
0.2336798906326294 0.14343710243701935 0.6526274085044861
0.34077346324920654 0.27880313992500305 0.6014346480369568
0.42179766297340393 0.14719921350479126 0.6116872429847717
0.2764112651348114 0.1908842772245407 0.5519472360610962
0.41592586040496826 0.29592475295066833 0.4788409173488617
0.40871548652648926 0.19400689005851746 0.6499341130256653
0.4131178855895996 0.28601402044296265 0.4859006106853485
0.21550333499908447 0.12278646975755692 0.6119230389595032
0.4134482145309448 0.2400589883327484 0.5277566909790039
0.32470688223838806 0.3034244477748871 0.4959922730922699
0.25356051325798035 0.2937014400959015 0.5467162728309631
0.2763587236404419 0.2852514386177063 0.6124396324157715
0.4019498825073242 0.1897854208946228 0.5664422512054443
0.3612143397331238 0.14825254678726196 0.6582018136978149
0.24391670525074005 0.25639572739601135 0.5124742984771729
0.24341478943824768 0.20021092891693115 0.49288681149482727
0.3833678364753723 0.15583617985248566 0.6315540075302124
0.2565167248249054 0.1726132184267044 0.6504638195037842
0.3047194182872772 0.11618921160697937 0.5881255865097046
0.3986622393131256 0.19951339066028595 0.5515261292457581
0.34432926774024963 0.26347148418426514 0.527448296546936
0.23879806697368622 0.2489921748638153 0.5912412405014038
0.2787284851074219 0.16910603642463684 0.5879884362220764
0.42651382088661194 0.21348290145397186 0.48751503229141235
0.3745388686656952 0.24682891368865967 0.6161167025566101
0.32315465807914734 0.2952902317047119 0.6329465508460999
0.33220985531806946 0.28319817781448364 0.5408828258514404
0.28661462664604187 0.14703252911567688 0.46867868304252625
0.4206942915916443 0.28052622079849243 0.6157782077789307
0.25658124685287476 0.15926125645637512 0.6460705399513245
0.414883017539978 0.1831127554178238 0.6716901659965515
0.4182785153388977 0.25184664130210876 0.4784959852695465
0.25267934799194336 0.13477188348770142 0.4884209632873535
0.4259107708930969 0.1310967355966568 0.4860321879386902
0.30905136466026306 0.12420707195997238 0.6173444986343384
0.39727452397346497 0.12451177835464478 0.5633047819137573
0.2759445905685425 0.2589401602745056 0.5829988718032837
0.34843358397483826 0.1606767475605011 0.639001190662384
0.2623537480831146 0.26896798610687256 0.6307074427604675
0.28274956345558167 0.11757069826126099 0.48322683572769165
0.41199707984924316 0.1795593649148941 0.5988813042640686
0.29111725091934204 0.18885397911071777 0.6239498257637024
0.37507280707359314 0.24696838855743408 0.567474901676178
0.31939393281936646 0.30232471227645874 0.5706451535224915
0.24840699136257172 0.17453618347644806 0.5400394797325134
0.2669549882411957 0.24037963151931763 0.6168293356895447
0.31042879819869995 0.21704678237438202 0.6585973501205444
0.2458721548318863 0.16866202652454376 0.562097430229187
0.26818278431892395 0.2257305085659027 0.5517317652702332
0.26464909315109253 0.23388758301734924 0.654180645942688
0.23574037849903107 0.24795809388160706 0.5716418027877808
0.435840904712677 0.20360702276229858 0.555442750453949
0.31826287508010864 0.2237478494644165 0.5033033490180969
0.31119802594184875 0.2242249995470047 0.47847312688827515
0.2545969486236572 0.2636593282222748 0.6122446060180664
0.3798461854457855 0.11815892159938812 0.5397457480430603
0.35544902086257935 0.15017442405223846 0.502727210521698
0.3038908541202545 0.24675536155700684 0.6418116092681885
0.2659441828727722 0.23328180611133575 0.5369473099708557
0.274541437625885 0.3043591380119324 0.5447666645050049
0.3114527761936188 0.21643975377082825 0.5496068596839905
0.21997463703155518 0.19125977158546448 0.6176643967628479
0.378462553024292 0.17061425745487213 0.6167730093002319
0.35613924264907837 0.14980816841125488 0.5855976939201355
0.41921430826187134 0.19567236304283142 0.5176611542701721
0.23724569380283356 0.1281318962574005 0.5272390246391296
0.2557313144207001 0.1910136640071869 0.6002494096755981
0.29970309138298035 0.2822965681552887 0.5194156169891357
0.38500654697418213 0.27021893858909607 0.6299633979797363
0.2852778434753418 0.19069348275661469 0.5860188603401184
0.39349114894866943 0.13790924847126007 0.6809174418449402
0.28440049290657043 0.2620560824871063 0.4783712923526764
0.4185960590839386 0.16155998408794403 0.5095162391662598
0.24480752646923065 0.22154629230499268 0.55876225233078
0.40854039788246155 0.3013443052768707 0.5894371867179871
0.25505298376083374 0.2579801678657532 0.6221051216125488
0.33853408694267273 0.21934714913368225 0.5180702209472656
0.3511732816696167 0.12756943702697754 0.48813483119010925
0.40007999539375305 0.2610628604888916 0.5046830177307129
0.29983288049697876 0.27936694025993347 0.6031583547592163
0.4115387499332428 0.12861032783985138 0.6174958944320679
0.32742074131965637 0.198042631149292 0.4703691899776459
0.32383859157562256 0.13893072307109833 0.6178441047668457
0.2852778434753418 0.19069348275661469 0.5860188603401184
0.32425546646118164 0.15379564464092255 0.5584800243377686
0.2878495454788208 0.22071771323680878 0.6487280130386353
0.41317805647850037 0.2198641151189804 0.6435257196426392
0.3440619111061096 0.21550412476062775 0.5589858293533325
0.39743468165397644 0.16698944568634033 0.5371055603027344
0.3837204575538635 0.11354587972164154 0.4871719181537628
0.36873164772987366 0.16948887705802917 0.482238233089447
0.3636646568775177 0.24352087080478668 0.5168856978416443
0.28822946548461914 0.2260248214006424 0.6139020919799805
0.2384137511253357 0.12174639850854874 0.4772398769855499
0.3671887218952179 0.2731441855430603 0.4947769045829773
0.28487005829811096 0.1428564488887787 0.5204045176506042
0.42386820912361145 0.2956678867340088 0.6279553771018982
0.33004021644592285 0.2763279378414154 0.5087030529975891
0.3426797389984131 0.27754834294319153 0.5624915361404419
0.4122164845466614 0.2925060987472534 0.5401650667190552
0.34126630425453186 0.14003896713256836 0.5163640379905701
0.3792865574359894 0.29153749346733093 0.6261065602302551
0.24904565513134003 0.1686941683292389 0.6557753086090088
0.35417911410331726 0.11733629554510117 0.6568452715873718
0.3657875955104828 0.11495859920978546 0.4798247516155243
0.28274956345558167 0.11757069826126099 0.48322683572769165
0.41199707984924316 0.1795593649148941 0.5988813042640686
0.38190069794654846 0.21155421435832977 0.502017617225647
0.41199707984924316 0.1795593649148941 0.5988813042640686
0.29111725091934204 0.18885397911071777 0.6239498257637024
0.37507280707359314 0.24696838855743408 0.567474901676178
0.3074306845664978 0.18230906128883362 0.5862078070640564
0.4033873677253723 0.28361207246780396 0.6530857086181641
0.3545296788215637 0.19519610702991486 0.615770697593689
0.24743594229221344 0.30180174112319946 0.628411054611206
0.4184667468070984 0.12392964214086533 0.4844374656677246
0.24743594229221344 0.30180174112319946 0.628411054611206
0.4184667468070984 0.12392964214086533 0.4844374656677246
0.37217703461647034 0.150150328874588 0.614443302154541
0.4077947735786438 0.15218111872673035 0.5586379766464233
0.2641690969467163 0.24234895408153534 0.6439651846885681
0.34462329745292664 0.2358599305152893 0.5971657037734985
0.26244741678237915 0.1938878744840622 0.6126881241798401
0.42012107372283936 0.11840204894542694 0.5758105516433716
0.4077947735786438 0.15218111872673035 0.5586379766464233
0.2641690969467163 0.24234895408153534 0.6439651846885681
0.34462329745292664 0.2358599305152893 0.5971657037734985
0.26244741678237915 0.1938878744840622 0.6126881241798401
0.35080450773239136 0.19969306886196136 0.6684029698371887
0.4169350564479828 0.15573760867118835 0.48705774545669556
0.2902515232563019 0.1401321142911911 0.664764404296875
0.37154385447502136 0.13490284979343414 0.5023385286331177
0.41989579796791077 0.13277305662631989 0.5128934383392334
0.3349354565143585 0.12107900530099869 0.60511714220047
0.38040441274642944 0.12182613462209702 0.6728216409683228
0.2641690969467163 0.24234895408153534 0.6439651846885681
0.34462329745292664 0.2358599305152893 0.5971657037734985
0.31920212507247925 0.14175450801849365 0.5940661430358887
0.42012107372283936 0.11840204894542694 0.5758105516433716
0.4077947735786438 0.15218111872673035 0.5586379766464233
0.2641690969467163 0.24234895408153534 0.6439651846885681
0.34462329745292664 0.2358599305152893 0.5971657037734985
0.26244741678237915 0.1938878744840622 0.6126881241798401
0.38148802518844604 0.12512564659118652 0.609718382358551
0.3819207549095154 0.28956857323646545 0.6414011716842651
0.3850369453430176 0.16680040955543518 0.679059624671936
0.3029077351093292 0.12376769632101059 0.5235684514045715
0.2902515232563019 0.1401321142911911 0.664764404296875
0.37154385447502136 0.13490284979343414 0.5023385286331177
0.41989579796791077 0.13277305662631989 0.5128934383392334
0.3349354565143585 0.12107900530099869 0.60511714220047
0.32268771529197693 0.2118060141801834 0.6412065029144287
0.2932620942592621 0.30276694893836975 0.4610980153083801
0.38342398405075073 0.14672963321208954 0.5784573554992676
0.2939067780971527 0.2077755331993103 0.5874894857406616
0.31496378779411316 0.26503291726112366 0.550395131111145
0.37070679664611816 0.13762159645557404 0.5114038586616516
0.258283406496048 0.2777792811393738 0.5078269243240356
0.2541118562221527 0.24029108881950378 0.6404691338539124
0.25398385524749756 0.1976867914199829 0.485538512468338
0.21727997064590454 0.1771630495786667 0.6413034200668335
0.43096667528152466 0.2593419849872589 0.5608063340187073
0.4088857173919678 0.1656520962715149 0.6310198307037354
0.28688710927963257 0.27959996461868286 0.46323877573013306
0.2689230442047119 0.15531465411186218 0.4690465033054352
0.39883187413215637 0.16828657686710358 0.5783089399337769
0.3158240020275116 0.16008250415325165 0.5402193069458008
0.3248900771141052 0.2533014714717865 0.48070353269577026
0.289512574672699 0.2780877947807312 0.4808058738708496
0.24718023836612701 0.27751967310905457 0.5552336573600769
0.2773090898990631 0.16431796550750732 0.5444116592407227
0.2631519138813019 0.1865891069173813 0.5147143006324768
0.2579425275325775 0.1347871720790863 0.6338483095169067
0.3154997229576111 0.246817484498024 0.5709713697433472
0.43335840106010437 0.17907272279262543 0.5370839238166809
0.24796807765960693 0.2732982635498047 0.5756703019142151
0.31496378779411316 0.26503291726112366 0.550395131111145
0.35517457127571106 0.1433204561471939 0.5681316256523132
0.2496054768562317 0.1790516972541809 0.6338929533958435
0.34090012311935425 0.18347708880901337 0.5754371881484985
0.3946717083454132 0.27393046021461487 0.6157006025314331
0.27070215344429016 0.14101558923721313 0.4751519560813904
0.25139424204826355 0.25924602150917053 0.49551156163215637
0.40063560009002686 0.16125436127185822 0.6289976239204407
0.38832151889801025 0.11597155034542084 0.6105611324310303
0.30659914016723633 0.11751608550548553 0.5468686819076538
0.2779390215873718 0.29382848739624023 0.6429624557495117
0.3395421802997589 0.12055177986621857 0.557454526424408
0.31279271841049194 0.21786366403102875 0.6179150938987732
0.25702548027038574 0.15825152397155762 0.4764070212841034
0.2815597653388977 0.24704107642173767 0.6365094184875488
0.2751160264015198 0.24856039881706238 0.5368242263793945
0.3887745141983032 0.26920661330223083 0.6227049231529236
0.38637036085128784 0.2564401626586914 0.5738954544067383
0.3403789699077606 0.21032601594924927 0.6357867121696472
0.3378444015979767 0.1724543273448944 0.5574588179588318
0.3075161576271057 0.29857802391052246 0.5189292430877686
0.2569163143634796 0.2116256207227707 0.4902350604534149
0.24840699136257172 0.17453618347644806 0.5400394797325134
0.2778431177139282 0.13339419662952423 0.6174018383026123
0.39913561940193176 0.12408387660980225 0.4969181716442108
0.37353548407554626 0.18105168640613556 0.645641028881073
0.33251655101776123 0.13173432648181915 0.61319899559021
0.2619062662124634 0.29770585894584656 0.45134156942367554
0.26086390018463135 0.2593233585357666 0.5783255696296692
0.2919906973838806 0.174757719039917 0.5316804051399231
0.43348726630210876 0.20394666492938995 0.4918563663959503
0.3772541284561157 0.19215993583202362 0.5648815035820007
0.37944573163986206 0.23921135067939758 0.6718742847442627
0.33609506487846375 0.25496533513069153 0.47652044892311096
0.25088974833488464 0.24346399307250977 0.4823300242424011
0.2649247944355011 0.13262204825878143 0.48931819200515747
0.31576865911483765 0.1307823359966278 0.5656790137290955
0.345650851726532 0.2137584239244461 0.6423578262329102
0.4119788408279419 0.23343046009540558 0.5043842196464539
0.3255779445171356 0.2350676953792572 0.5636339783668518
0.2588140368461609 0.2879476249217987 0.5225753784179688
0.40718385577201843 0.11257922649383545 0.538220226764679
0.41221925616264343 0.1811545342206955 0.6136689186096191
0.4353711009025574 0.25965258479118347 0.5652101635932922
0.2657325267791748 0.2560712695121765 0.47195419669151306
0.2936411499977112 0.24117188155651093 0.4866158068180084
0.41169479489326477 0.2016303688287735 0.5446178913116455
0.3877359628677368 0.21201257407665253 0.6146963238716125
0.26476311683654785 0.2614526152610779 0.4685623049736023
0.3468635082244873 0.2647901773452759 0.5689095854759216
0.2828543782234192 0.2795906066894531 0.5734438896179199
0.27233490347862244 0.21534231305122375 0.5494047999382019
0.41810446977615356 0.11749549210071564 0.6234419345855713
0.37422579526901245 0.29548680782318115 0.5274048447608948
0.37987396121025085 0.19602948427200317 0.5399267077445984
0.2641690969467163 0.24234895408153534 0.6439651846885681
0.34462329745292664 0.2358599305152893 0.5971657037734985
0.26244741678237915 0.1938878744840622 0.6126881241798401
0.37122780084609985 0.21491310000419617 0.5036329030990601
0.2778431177139282 0.13339419662952423 0.6174018383026123
0.39913561940193176 0.12408387660980225 0.4969181716442108
0.2760537564754486 0.22404205799102783 0.5700848698616028
0.27955162525177 0.2531692683696747 0.4575732946395874
0.3046705424785614 0.12143620103597641 0.5576886534690857
0.4348866641521454 0.13047246634960175 0.5272141695022583
0.300697922706604 0.1168600469827652 0.5731182098388672
0.353280633687973 0.2830216586589813 0.5417469143867493
0.3923811912536621 0.2793961465358734 0.5753023028373718
0.25384679436683655 0.15544849634170532 0.5785406827926636
0.27794837951660156 0.206819549202919 0.5693439841270447
0.26008355617523193 0.23350174725055695 0.5188590288162231
0.33649757504463196 0.22458210587501526 0.5909353494644165
0.33946704864501953 0.25733473896980286 0.6612177491188049
0.2974660396575928 0.14232416450977325 0.6052941083908081
0.2797795832157135 0.21513769030570984 0.48435208201408386
0.4146077632904053 0.17904911935329437 0.524944007396698
0.2990124225616455 0.2702506184577942 0.6563860774040222
0.2795488238334656 0.22680722177028656 0.5109360218048096
0.38838884234428406 0.18447785079479218 0.4926074743270874
0.39434754848480225 0.13989508152008057 0.49742385745048523
0.36782774329185486 0.2861100435256958 0.5778241157531738
0.270173579454422 0.17481832206249237 0.6569104194641113
0.23757682740688324 0.1747981756925583 0.531801164150238
0.27840688824653625 0.1751747727394104 0.46755897998809814
0.2652992904186249 0.25999945402145386 0.49436235427856445
0.4388629198074341 0.146002396941185 0.5096496343612671
0.3114527761936188 0.21643975377082825 0.5496068596839905
0.31655722856521606 0.13232426345348358 0.5834020972251892
0.24380700290203094 0.18709510564804077 0.6386269330978394
0.40538251399993896 0.13339994847774506 0.6011428236961365
0.29502296447753906 0.3013231158256531 0.5897367000579834
0.3154415786266327 0.1586213856935501 0.5281884670257568
0.40566596388816833 0.17392738163471222 0.6832590103149414
0.33307570219039917 0.11808629333972931 0.6748368144035339
0.2932620942592621 0.30276694893836975 0.4610980153083801
0.38342398405075073 0.14672963321208954 0.5784573554992676
0.2939067780971527 0.2077755331993103 0.5874894857406616
0.4075786769390106 0.2516201138496399 0.4860885739326477
0.3810434639453888 0.1587027609348297 0.5516348481178284
0.33710646629333496 0.24200919270515442 0.5002905130386353
0.2541118562221527 0.24029108881950378 0.6404691338539124
0.27355921268463135 0.1634928286075592 0.4612466096878052
0.2760629951953888 0.1880616843700409 0.4930649399757385
0.2756340205669403 0.269539475440979 0.48871877789497375
0.34205102920532227 0.25426092743873596 0.5359917879104614
0.32332098484039307 0.13461995124816895 0.5806668400764465
0.3870523273944855 0.19415482878684998 0.5808357000350952
0.3370787799358368 0.1259012371301651 0.6153659820556641
0.3232136070728302 0.21725963056087494 0.4862237572669983
0.28410884737968445 0.16078157722949982 0.589411735534668
0.279940664768219 0.15582320094108582 0.6224732398986816
0.3553253412246704 0.18380245566368103 0.6553457379341125
0.3919999301433563 0.259225457906723 0.5706785321235657
0.30636051297187805 0.18821267783641815 0.5491232872009277
0.4255017042160034 0.22155356407165527 0.5534632205963135
0.3930386006832123 0.13393978774547577 0.5019890666007996
0.27406299114227295 0.30552539229393005 0.4874829351902008
0.41159477829933167 0.28045496344566345 0.5202366709709167
0.28276270627975464 0.24435092508792877 0.5909262895584106
0.32571783661842346 0.23169682919979095 0.46671509742736816
0.34317559003829956 0.2097524106502533 0.501081645488739
0.35041412711143494 0.11647572368383408 0.6126726269721985
0.35007211565971375 0.29573237895965576 0.5853986740112305
0.4269775152206421 0.11581107974052429 0.5105020403862
0.3461952805519104 0.26639240980148315 0.4793083369731903
0.246681809425354 0.14798174798488617 0.5344540476799011
0.26934412121772766 0.12907294929027557 0.5020419359207153
0.40466275811195374 0.2305302619934082 0.5161208510398865
0.38615816831588745 0.26022619009017944 0.480758398771286
0.28405216336250305 0.24507741630077362 0.5494987368583679
0.28012600541114807 0.26620879769325256 0.6437261700630188
0.3021569550037384 0.15495088696479797 0.4939964711666107
0.33001020550727844 0.26507285237312317 0.543347179889679
0.2908909022808075 0.15998907387256622 0.6046819686889648
0.40950271487236023 0.27145490050315857 0.6674134135246277
0.3714190125465393 0.11696183681488037 0.5491551756858826
0.3069888651371002 0.24671544134616852 0.5369285941123962
0.42360028624534607 0.1305679827928543 0.5896496176719666
0.40289467573165894 0.18788284063339233 0.5934470295906067
0.37018388509750366 0.22445760667324066 0.6494943499565125
0.29579275846481323 0.26775428652763367 0.6524549126625061
0.2607839107513428 0.2744060158729553 0.5939937233924866
0.3403562903404236 0.26874974370002747 0.5856252908706665
0.2625022828578949 0.15939736366271973 0.5736791491508484
0.27402809262275696 0.28301796317100525 0.645416259765625
0.3545296788215637 0.19519610702991486 0.615770697593689
0.24743594229221344 0.30180174112319946 0.628411054611206
0.29247328639030457 0.24594949185848236 0.49141329526901245
0.2847353518009186 0.13569587469100952 0.6446592211723328
0.2356492578983307 0.14666099846363068 0.6283721923828125
0.28888192772865295 0.24071983993053436 0.6268876194953918
0.43792206048965454 0.2540406286716461 0.5418503880500793
0.3204176723957062 0.14333584904670715 0.5308801531791687
0.32857078313827515 0.18463946878910065 0.6111117005348206
0.29172518849372864 0.2762494683265686 0.6349871158599854
0.2472873330116272 0.28388452529907227 0.5307621359825134
0.3601613938808441 0.2410307228565216 0.5039809346199036
0.29500070214271545 0.12716607749462128 0.46473851799964905
0.29139405488967896 0.19412098824977875 0.5413910150527954
0.30334901809692383 0.19427116215229034 0.5310121774673462
0.38697749376296997 0.2968766987323761 0.576541543006897
0.3558233380317688 0.16745001077651978 0.6696516871452332
0.3347918391227722 0.18626126646995544 0.6438560485839844
0.2781905233860016 0.22031770646572113 0.4734773635864258
0.32571783661842346 0.23169682919979095 0.46671509742736816
0.34317559003829956 0.2097524106502533 0.501081645488739
0.35041412711143494 0.11647572368383408 0.6126726269721985
0.35007211565971375 0.29573237895965576 0.5853986740112305
0.4269775152206421 0.11581107974052429 0.5105020403862
0.3080126941204071 0.2817804515361786 0.4852887690067291
0.246681809425354 0.14798174798488617 0.5344540476799011
0.26934412121772766 0.12907294929027557 0.5020419359207153
0.40466275811195374 0.2305302619934082 0.5161208510398865
0.38615816831588745 0.26022619009017944 0.480758398771286
0.28405216336250305 0.24507741630077362 0.5494987368583679
0.28012600541114807 0.26620879769325256 0.6437261700630188
0.3021569550037384 0.15495088696479797 0.4939964711666107
0.33001020550727844 0.26507285237312317 0.543347179889679
0.2908909022808075 0.15998907387256622 0.6046819686889648
0.40950271487236023 0.27145490050315857 0.6674134135246277
0.3714190125465393 0.11696183681488037 0.5491551756858826
0.3069888651371002 0.24671544134616852 0.5369285941123962
0.2878495454788208 0.22071771323680878 0.6487280130386353
0.26086390018463135 0.2593233585357666 0.5783255696296692
0.2919906973838806 0.174757719039917 0.5316804051399231
0.24464638531208038 0.17224343121051788 0.6490649580955505
0.4249332845211029 0.20855502784252167 0.5026872754096985
0.39705172181129456 0.1962583065032959 0.4914628267288208
0.378858357667923 0.21297122538089752 0.6552461385726929
0.3405625522136688 0.22093750536441803 0.5737426280975342
0.2755093276500702 0.12598399817943573 0.5224388837814331
0.3313250243663788 0.21846164762973785 0.6458142995834351
0.27768632769584656 0.16275645792484283 0.589385449886322
0.36763235926628113 0.18698851764202118 0.5468246936798096
0.27326080203056335 0.15461181104183197 0.5358314514160156
0.25311583280563354 0.15184849500656128 0.6090856194496155
0.2849934995174408 0.13685502111911774 0.6283165216445923
0.2461499124765396 0.256189227104187 0.6375528573989868
0.39706969261169434 0.15485233068466187 0.6027034521102905
0.24409393966197968 0.2745869755744934 0.5658273696899414
0.2549741864204407 0.15667766332626343 0.6095069050788879
0.378022164106369 0.11686554551124573 0.4990614950656891
0.34623831510543823 0.2594659626483917 0.5241410732269287
0.3394466042518616 0.25943002104759216 0.6077624559402466
0.265323668718338 0.24579116702079773 0.6294481158256531
0.25799068808555603 0.30376654863357544 0.5459511876106262
0.4189237058162689 0.18376663327217102 0.6408203840255737
0.28410884737968445 0.16078157722949982 0.589411735534668
0.279940664768219 0.15582320094108582 0.6224732398986816
0.3553253412246704 0.18380245566368103 0.6553457379341125
0.3919999301433563 0.259225457906723 0.5706785321235657
0.30636051297187805 0.18821267783641815 0.5491232872009277
0.4255017042160034 0.22155356407165527 0.5534632205963135
0.3930386006832123 0.13393978774547577 0.5019890666007996
0.41317805647850037 0.2198641151189804 0.6435257196426392
0.2641690969467163 0.24234895408153534 0.6439651846885681
0.34462329745292664 0.2358599305152893 0.5971657037734985
0.26244741678237915 0.1938878744840622 0.6126881241798401
0.37122780084609985 0.21491310000419617 0.5036329030990601
0.2778431177139282 0.13339419662952423 0.6174018383026123
0.39913561940193176 0.12408387660980225 0.4969181716442108
0.24017909169197083 0.22645403444766998 0.5636042952537537
0.33899474143981934 0.18114829063415527 0.607433021068573
0.367262065410614 0.11389050632715225 0.507855236530304
0.2707841694355011 0.18208323419094086 0.5829540491104126
0.4236907362937927 0.2550654709339142 0.5008337497711182
0.3112551271915436 0.16927263140678406 0.5073914527893066
0.3812144994735718 0.18094152212142944 0.5578176975250244
0.3061610460281372 0.13504980504512787 0.5984968543052673
0.30789801478385925 0.27490076422691345 0.5724278092384338
0.3798646330833435 0.20652304589748383 0.4749727249145508
0.27647003531455994 0.18451686203479767 0.6448489427566528
0.3054676651954651 0.12405382096767426 0.5427414178848267
0.4094703197479248 0.19684533774852753 0.5253286957740784
0.2828185558319092 0.15546484291553497 0.5705785751342773
0.4109403192996979 0.13505202531814575 0.6208886504173279
0.4028225541114807 0.280534029006958 0.6178975701332092
0.2974660396575928 0.14232416450977325 0.6052941083908081
0.2797795832157135 0.21513769030570984 0.48435208201408386
0.4146077632904053 0.17904911935329437 0.524944007396698
0.2990124225616455 0.2702506184577942 0.6563860774040222
0.2795488238334656 0.22680722177028656 0.5109360218048096
0.38838884234428406 0.18447785079479218 0.4926074743270874
0.39434754848480225 0.13989508152008057 0.49742385745048523
0.36782774329185486 0.2861100435256958 0.5778241157531738
0.270173579454422 0.17481832206249237 0.6569104194641113
0.31751805543899536 0.20729325711727142 0.6032358407974243
0.2573372721672058 0.16784368455410004 0.5597109198570251
0.34092026948928833 0.15484999120235443 0.4895172715187073
0.30857738852500916 0.16527512669563293 0.5770558714866638
0.2785659432411194 0.2602667808532715 0.5541887879371643
0.35606083273887634 0.1582658737897873 0.6290543675422668
0.24527941644191742 0.11767135560512543 0.5383561253547668
0.24112707376480103 0.22426797449588776 0.5268518328666687
0.37103578448295593 0.16887013614177704 0.6037750244140625
0.3262108564376831 0.11883960664272308 0.6054089665412903
0.26243290305137634 0.2904585301876068 0.46132567524909973
0.30456098914146423 0.21319344639778137 0.4998878836631775
0.3154570758342743 0.20378844439983368 0.49952730536460876
0.30200472474098206 0.12763264775276184 0.5450812578201294
0.43406128883361816 0.28287172317504883 0.5272268652915955
0.432903915643692 0.18159419298171997 0.5617966055870056
0.2816765308380127 0.17875589430332184 0.5379533767700195
0.24021518230438232 0.19293591380119324 0.5032135248184204
0.2593231201171875 0.14321231842041016 0.5834650993347168
0.26874470710754395 0.23294460773468018 0.5373243689537048
0.3946201503276825 0.14859966933727264 0.4847749173641205
0.3545336425304413 0.11601860076189041 0.6453216075897217
0.2534619867801666 0.31140273809432983 0.559744119644165
0.2757887542247772 0.19297543168067932 0.5578949451446533
0.3287593126296997 0.2593774199485779 0.47005385160446167
0.3384447991847992 0.2833607792854309 0.5150851607322693
0.27474066615104675 0.2882969379425049 0.6083762049674988
0.29116371273994446 0.13166002929210663 0.4774762988090515
0.253700315952301 0.1699763685464859 0.6450597643852234
0.44866323471069336 0.26208823919296265 0.5029535293579102
0.4178756773471832 0.2899636924266815 0.5103350877761841
0.23637762665748596 0.18706218898296356 0.6354559659957886
0.33265095949172974 0.11962949484586716 0.6756546497344971
0.35041412711143494 0.11647572368383408 0.6126726269721985
0.35007211565971375 0.29573237895965576 0.5853986740112305
0.4269775152206421 0.11581107974052429 0.5105020403862
0.3461952805519104 0.26639240980148315 0.4793083369731903
0.246681809425354 0.14798174798488617 0.5344540476799011
0.26934412121772766 0.12907294929027557 0.5020419359207153
0.40466275811195374 0.2305302619934082 0.5161208510398865
0.38615816831588745 0.26022619009017944 0.480758398771286
0.28405216336250305 0.24507741630077362 0.5494987368583679
0.28012600541114807 0.26620879769325256 0.6437261700630188
0.3021569550037384 0.15495088696479797 0.4939964711666107
0.3021569550037384 0.15495088696479797 0.4939964711666107
0.33001020550727844 0.26507285237312317 0.543347179889679
0.2908909022808075 0.15998907387256622 0.6046819686889648
0.40950271487236023 0.27145490050315857 0.6674134135246277
0.3714190125465393 0.11696183681488037 0.5491551756858826
0.3069888651371002 0.24671544134616852 0.5369285941123962
0.42360028624534607 0.1305679827928543 0.5896496176719666
0.40289467573165894 0.18788284063339233 0.5934470295906067
0.37018388509750366 0.22445760667324066 0.6494943499565125
0.2318098545074463 0.24042946100234985 0.6218675374984741
0.27742329239845276 0.24931026995182037 0.634263277053833
0.29579275846481323 0.26775428652763367 0.6524549126625061
0.2607839107513428 0.2744060158729553 0.5939937233924866
0.3403562903404236 0.26874974370002747 0.5856252908706665
0.2625022828578949 0.15939736366271973 0.5736791491508484
0.27402809262275696 0.28301796317100525 0.645416259765625
0.3545296788215637 0.19519610702991486 0.615770697593689
0.24743594229221344 0.30180174112319946 0.628411054611206
0.4184667468070984 0.12392964214086533 0.4844374656677246
0.37217703461647034 0.150150328874588 0.614443302154541
0.33043792843818665 0.14070440828800201 0.5430287718772888
0.3545296788215637 0.19519610702991486 0.615770697593689
0.24743594229221344 0.30180174112319946 0.628411054611206
0.4184667468070984 0.12392964214086533 0.4844374656677246
0.37217703461647034 0.150150328874588 0.614443302154541
0.4077947735786438 0.15218111872673035 0.5586379766464233
0.2641690969467163 0.24234895408153534 0.6439651846885681
0.34462329745292664 0.2358599305152893 0.5971657037734985
0.26244741678237915 0.1938878744840622 0.6126881241798401
0.37122780084609985 0.21491310000419617 0.5036329030990601
0.2778431177139282 0.13339419662952423 0.6174018383026123
0.39913561940193176 0.12408387660980225 0.4969181716442108
0.37353548407554626 0.18105168640613556 0.645641028881073
0.33251655101776123 0.13173432648181915 0.61319899559021
0.2619062662124634 0.29770585894584656 0.45134156942367554
0.26086390018463135 0.2593233585357666 0.5783255696296692
0.2919906973838806 0.174757719039917 0.5316804051399231
0.43348726630210876 0.20394666492938995 0.4918563663959503
0.3772541284561157 0.19215993583202362 0.5648815035820007
0.37944573163986206 0.23921135067939758 0.6718742847442627
0.33609506487846375 0.25496533513069153 0.47652044892311096
0.25088974833488464 0.24346399307250977 0.4823300242424011
0.288581907749176 0.18422260880470276 0.5429553389549255
0.4107648730278015 0.1338711529970169 0.5031947493553162
0.2808024287223816 0.1801082044839859 0.4695155918598175
0.26068681478500366 0.28374484181404114 0.5489563941955566
0.3349311351776123 0.12846356630325317 0.6006096005439758
0.2855386435985565 0.1756926327943802 0.47573375701904297
0.2946071922779083 0.24453246593475342 0.5319466590881348
0.31404727697372437 0.2322733849287033 0.5931361317634583
0.40527594089508057 0.22230011224746704 0.49890434741973877
0.27300530672073364 0.23485708236694336 0.5544323921203613
0.37217703461647034 0.150150328874588 0.614443302154541
0.34462329745292664 0.2358599305152893 0.5971657037734985
0.26244741678237915 0.1938878744840622 0.6126881241798401
0.37122780084609985 0.21491310000419617 0.5036329030990601
0.2778431177139282 0.13339419662952423 0.6174018383026123
0.39913561940193176 0.12408387660980225 0.4969181716442108
0.37353548407554626 0.18105168640613556 0.645641028881073
0.30949002504348755 0.2442273646593094 0.5355909466743469
0.38085439801216125 0.13130410015583038 0.5181480050086975
0.4133666455745697 0.28780597448349 0.6132039427757263
0.41989579796791077 0.13277305662631989 0.5128934383392334
0.3349354565143585 0.12107900530099869 0.60511714220047
0.4092564284801483 0.27352041006088257 0.579975426197052
0.3283040225505829 0.15010689198970795 0.6436594128608704
0.40035542845726013 0.2891398072242737 0.5879303216934204
0.37623468041419983 0.23774132132530212 0.5532888174057007
0.41523268818855286 0.13307395577430725 0.5051855444908142
0.35773327946662903 0.12353735417127609 0.5611196160316467
0.24486196041107178 0.14990729093551636 0.5794875621795654
0.3096838593482971 0.24546343088150024 0.46805286407470703
0.2965894043445587 0.27137139439582825 0.5651001930236816
0.26470160484313965 0.21248488128185272 0.5774509310722351
0.3895598351955414 0.25651314854621887 0.5317330360412598
0.295387864112854 0.19276027381420135 0.6062729358673096
0.357083797454834 0.26360756158828735 0.5747515559196472
0.37539806962013245 0.15404435992240906 0.5175303220748901
0.26661020517349243 0.14189153909683228 0.6512508392333984
0.29854467511177063 0.1612797975540161 0.5115860104560852
0.42056727409362793 0.12846963107585907 0.530860424041748
0.35305172204971313 0.27545616030693054 0.5993679165840149
0.37939003109931946 0.2794642746448517 0.6262665390968323
0.4150680601596832 0.16947638988494873 0.4862159490585327
0.4077947735786438 0.15218111872673035 0.5586379766464233
0.2641690969467163 0.24234895408153534 0.6439651846885681
0.34462329745292664 0.2358599305152893 0.5971657037734985
0.26244741678237915 0.1938878744840622 0.6126881241798401
0.37122780084609985 0.21491310000419617 0.5036329030990601
0.2778431177139282 0.13339419662952423 0.6174018383026123
0.2573372721672058 0.16784368455410004 0.5597109198570251
0.4480869472026825 0.25434398651123047 0.48238423466682434
0.30002185702323914 0.17389991879463196 0.5801002383232117
0.4082091152667999 0.18016564846038818 0.5785010457038879
0.26861557364463806 0.17079617083072662 0.595919668674469
0.2763359546661377 0.14990690350532532 0.6187161207199097
0.26544320583343506 0.25066789984703064 0.5547892451286316
0.3713308572769165 0.15421690046787262 0.6788036823272705
0.3240499496459961 0.23534102737903595 0.5341029167175293
0.30446919798851013 0.19890297949314117 0.4975210130214691
0.35710465908050537 0.22789333760738373 0.5747262239456177
0.3376452922821045 0.17369262874126434 0.47446209192276
0.42856526374816895 0.16532857716083527 0.5439527034759521
0.27389246225357056 0.12594658136367798 0.46696436405181885
0.2876945734024048 0.19540013372898102 0.5451659560203552
0.3959958553314209 0.2447010725736618 0.5530593395233154
0.40201830863952637 0.287492573261261 0.5509293079376221
0.3544018864631653 0.2267959713935852 0.5610857605934143
0.37112489342689514 0.23527510464191437 0.5859175324440002
0.4032045900821686 0.1961875706911087 0.5378776788711548
0.35466137528419495 0.13795123994350433 0.6575871109962463
0.3108910024166107 0.13576723635196686 0.5839941501617432
0.29116371273994446 0.13166002929210663 0.4774762988090515
0.3810898959636688 0.25198569893836975 0.64740389585495
0.4149630069732666 0.27836740016937256 0.5232908129692078
0.23195967078208923 0.17353205382823944 0.5830778479576111
0.32268771529197693 0.2118060141801834 0.6412065029144287
0.33710646629333496 0.24200919270515442 0.5002905130386353
0.2541118562221527 0.24029108881950378 0.6404691338539124
0.27355921268463135 0.1634928286075592 0.4612466096878052
0.2760629951953888 0.1880616843700409 0.4930649399757385
0.2756340205669403 0.269539475440979 0.48871877789497375
0.34205102920532227 0.25426092743873596 0.5359917879104614
0.32332098484039307 0.13461995124816895 0.5806668400764465
0.3870523273944855 0.19415482878684998 0.5808357000350952
0.28688710927963257 0.27959996461868286 0.46323877573013306
0.3705587089061737 0.24698564410209656 0.5761646032333374
0.2808772623538971 0.2826324701309204 0.6331754922866821
0.2823917269706726 0.16091540455818176 0.5051222443580627
0.36736083030700684 0.13948604464530945 0.52098149061203
0.4337816834449768 0.2864079773426056 0.5317489504814148
0.3033982515335083 0.22213603556156158 0.5583760142326355
0.3378256857395172 0.23062264919281006 0.6255777478218079
0.29116371273994446 0.13166002929210663 0.4774762988090515
0.253700315952301 0.1699763685464859 0.6450597643852234
0.44866323471069336 0.26208823919296265 0.5029535293579102
0.26591169834136963 0.15007467567920685 0.4636625647544861
0.24085524678230286 0.13693788647651672 0.6328176856040955
0.3621402680873871 0.2622329294681549 0.5385125279426575
0.3358437716960907 0.1711025834083557 0.6694049835205078
0.2824103832244873 0.20021846890449524 0.5724824070930481
0.32728472352027893 0.1366453468799591 0.5555636882781982
0.3201197385787964 0.237012580037117 0.4669141173362732
0.40878060460090637 0.1619775891304016 0.524590253829956
0.43483737111091614 0.26144999265670776 0.549348771572113
0.3174690306186676 0.22969673573970795 0.47385215759277344
0.32632455229759216 0.1425979882478714 0.543429434299469
0.39315399527549744 0.21565626561641693 0.6086947917938232
0.2780686914920807 0.13138924539089203 0.46829137206077576
0.3849540650844574 0.2474042922258377 0.5362251400947571
0.3198698163032532 0.20880945026874542 0.5188599824905396
0.40422502160072327 0.25396889448165894 0.5197314023971558
0.37443673610687256 0.23928169906139374 0.5042147040367126
0.39377790689468384 0.22188323736190796 0.5146629214286804
0.24399547278881073 0.14169429242610931 0.4944285452365875
0.32870543003082275 0.12930485606193542 0.5510574579238892
0.2574934959411621 0.13321024179458618 0.5387477874755859
0.40220579504966736 0.11331427097320557 0.600551426410675
0.29337388277053833 0.17922843992710114 0.594437837600708
0.27656230330467224 0.12772390246391296 0.48557257652282715
0.2616451382637024 0.25298112630844116 0.5984653234481812
0.33629700541496277 0.2954251170158386 0.4874354600906372
0.3880387842655182 0.2860657572746277 0.6247472167015076
0.3126707673072815 0.23033736646175385 0.55303555727005
0.43802720308303833 0.15174813568592072 0.5259218811988831
0.32507801055908203 0.1384294629096985 0.5348573327064514
0.39315399527549744 0.21565626561641693 0.6086947917938232
0.3065146803855896 0.29165300726890564 0.6260359883308411
0.2977336347103119 0.12422465533018112 0.5074162483215332
0.3633352518081665 0.22424355149269104 0.5537562966346741
0.3194504380226135 0.25438418984413147 0.5999834537506104
0.3299470841884613 0.2069476842880249 0.5478823184967041
0.38286420702934265 0.27556803822517395 0.5162010788917542
0.36331743001937866 0.1328703612089157 0.5096819996833801
0.2771327793598175 0.12404761463403702 0.6174386143684387
0.22092580795288086 0.23087961971759796 0.6417245268821716
0.30263108015060425 0.19307823479175568 0.6020582914352417
0.2810092568397522 0.30384552478790283 0.6030489802360535
0.23170524835586548 0.23296022415161133 0.6296200156211853
0.3642950654029846 0.17232058942317963 0.566905677318573
0.29052168130874634 0.22536000609397888 0.5355051159858704
0.3779985010623932 0.23637378215789795 0.5298545956611633
0.406633198261261 0.30411669611930847 0.6730624437332153
0.27406299114227295 0.30552539229393005 0.4874829351902008
0.41159477829933167 0.28045496344566345 0.5202366709709167
0.4357956349849701 0.27976885437965393 0.5243198871612549
0.34342461824417114 0.2158735990524292 0.5923921465873718
0.27016279101371765 0.25663161277770996 0.5074269771575928
0.2670140266418457 0.2711588740348816 0.47488418221473694
0.32845547795295715 0.17227326333522797 0.6632845997810364
0.31615376472473145 0.2810558080673218 0.497921884059906
0.3565996289253235 0.12694458663463593 0.6687449812889099
0.3104790151119232 0.16014094650745392 0.5024327635765076
0.2689554691314697 0.1271720975637436 0.6255986094474792
0.4168862998485565 0.2848898768424988 0.5558930039405823
0.2398551106452942 0.13354597985744476 0.5041360855102539
0.3031477928161621 0.19060944020748138 0.5855645537376404
0.3130275309085846 0.23033657670021057 0.5683060884475708
0.4371049702167511 0.20903989672660828 0.5233075618743896
0.28798624873161316 0.2705005407333374 0.4889591634273529
0.29797911643981934 0.2959161102771759 0.5828163623809814
0.38499918580055237 0.24086934328079224 0.5318028926849365
0.3770904541015625 0.22352564334869385 0.5672299265861511
0.3230806589126587 0.19512467086315155 0.4734942317008972
0.2617601156234741 0.16029538214206696 0.5667188763618469
0.3132912218570709 0.20233744382858276 0.6362941265106201
0.34326621890068054 0.20050644874572754 0.5868335962295532
0.2233765423297882 0.1753244549036026 0.5938969850540161
0.2524958848953247 0.2636508047580719 0.48765742778778076
0.2987009286880493 0.21889641880989075 0.6512560248374939
0.2557620406150818 0.19095835089683533 0.5288227200508118
0.24537694454193115 0.27452951669692993 0.5888472199440002
0.41159477829933167 0.28045496344566345 0.5202366709709167
0.28268641233444214 0.18567508459091187 0.5731648802757263
0.2770444452762604 0.15872229635715485 0.5087988972663879
0.39100879430770874 0.2408532202243805 0.5205312371253967
0.29965245723724365 0.11854537576436996 0.5425631403923035
0.32555297017097473 0.15346752107143402 0.584344744682312
0.3866390883922577 0.20972144603729248 0.6472792625427246
0.33333954215049744 0.28244873881340027 0.6249851584434509
0.34771570563316345 0.2116154283285141 0.5429935455322266
0.31161537766456604 0.23310774564743042 0.47880980372428894
0.38030946254730225 0.29196205735206604 0.6515365839004517
0.4294162094593048 0.1597212255001068 0.5742128491401672
0.35944485664367676 0.127034991979599 0.5026111006736755
0.2570311725139618 0.1269960254430771 0.4771556854248047
0.4060622751712799 0.23169033229351044 0.554570198059082
0.413581907749176 0.24283242225646973 0.5980269312858582
0.34147170186042786 0.2852175533771515 0.5030205249786377
0.4137670397758484 0.12695792317390442 0.5166035294532776
0.2977336347103119 0.12422465533018112 0.5074162483215332
0.24537694454193115 0.27452951669692993 0.5888472199440002
0.3299470841884613 0.2069476842880249 0.5478823184967041
0.38286420702934265 0.27556803822517395 0.5162010788917542
0.36331743001937866 0.1328703612089157 0.5096819996833801
0.2771327793598175 0.12404761463403702 0.6174386143684387
0.3021840453147888 0.15847815573215485 0.6178490519523621
0.3335191011428833 0.2455696016550064 0.4702399969100952
0.34113040566444397 0.16776646673679352 0.6132268905639648
0.3467226028442383 0.12421391159296036 0.5988985896110535
0.2519764006137848 0.23012970387935638 0.565963089466095
0.4459412693977356 0.2796395719051361 0.48859941959381104
0.39503374695777893 0.21214166283607483 0.48363634943962097
0.28585851192474365 0.14250250160694122 0.48295316100120544
0.37851807475090027 0.12971679866313934 0.638846218585968
0.2689554691314697 0.1271720975637436 0.6255986094474792
0.4168862998485565 0.2848898768424988 0.5558930039405823
0.2398551106452942 0.13354597985744476 0.5041360855102539
0.3031477928161621 0.19060944020748138 0.5855645537376404
0.3130275309085846 0.23033657670021057 0.5683060884475708
0.4371049702167511 0.20903989672660828 0.5233075618743896
0.28798624873161316 0.2705005407333374 0.4889591634273529
0.29797911643981934 0.2959161102771759 0.5828163623809814
0.38499918580055237 0.24086934328079224 0.5318028926849365
0.4246041476726532 0.2570004165172577 0.5054334402084351
0.4184126555919647 0.13642552495002747 0.6088477969169617
0.3282599151134491 0.18003684282302856 0.5722092390060425
0.4014922082424164 0.13644389808177948 0.6584659814834595
0.2573782801628113 0.18499106168746948 0.5542067885398865
0.3010145425796509 0.18244010210037231 0.5712048411369324
0.23780925571918488 0.22216254472732544 0.5478200912475586
0.40616288781166077 0.20126208662986755 0.5195279121398926
0.24526262283325195 0.23558977246284485 0.6325908303260803
0.3824889361858368 0.18208760023117065 0.4957748055458069
0.3320631682872772 0.2288425862789154 0.506654679775238
0.3021174669265747 0.12691549956798553 0.5854610800743103
0.4216129779815674 0.25241222977638245 0.544934868812561
0.35818666219711304 0.24649949371814728 0.5188413858413696
0.3516668677330017 0.2771776616573334 0.5676761865615845
0.2688509523868561 0.2980009913444519 0.5511713624000549
0.3828088641166687 0.23302659392356873 0.5767894387245178
0.23666153848171234 0.21386954188346863 0.5473329424858093
0.38820159435272217 0.1296079009771347 0.4859079122543335
0.3698766529560089 0.15736781060695648 0.6480602025985718
