ply
format ascii 1.0
element vertex 826
property float x
property float y
property float z
end_header
0.40504178404808044 0.18652284145355225 0.49609076976776123
0.43990063667297363 0.21828074753284454 0.5292969942092896
0.37666717171669006 0.18210089206695557 0.5584650039672852
0.4107949733734131 0.2746829092502594 0.677802324295044
0.39991146326065063 0.1944752037525177 0.5192557573318481
0.4147835373878479 0.14964215457439423 0.6049527525901794
0.43002748489379883 0.17232142388820648 0.5989524722099304
0.29994499683380127 0.30470865964889526 0.5325290560722351
0.2803412973880768 0.22421395778656006 0.464867502450943
0.4232087731361389 0.28052735328674316 0.5197727680206299
0.2676587700843811 0.21554483473300934 0.5491521954536438
0.30994951725006104 0.13169175386428833 0.4925447106361389
0.41578391194343567 0.14167867600917816 0.6639680862426758
0.27694031596183777 0.2644786536693573 0.5012062191963196
0.2702908217906952 0.21356897056102753 0.4628278911113739
0.2986932694911957 0.2631283700466156 0.45947158336639404
0.27764755487442017 0.21777886152267456 0.6084128022193909
0.24193093180656433 0.16543903946876526 0.5962012410163879
0.2523438334465027 0.2040432095527649 0.6491820216178894
0.38353943824768066 0.2230697125196457 0.640238881111145
0.2690233588218689 0.19111177325248718 0.546562135219574
0.3839660882949829 0.23559477925300598 0.6542650461196899
0.2500624358654022 0.23575453460216522 0.5019569993019104
0.34726861119270325 0.1578093320131302 0.5712122917175293
0.3295726776123047 0.18408821523189545 0.6424274444580078
0.40947315096855164 0.18521715700626373 0.5424731969833374
0.40504178404808044 0.18652284145355225 0.49609076976776123
0.43990063667297363 0.21828074753284454 0.5292969942092896
0.3863522410392761 0.2159791737794876 0.6504658460617065
0.4179862141609192 0.25674745440483093 0.6408611536026001
0.335501492023468 0.3123314380645752 0.5704320073127747
0.34357041120529175 0.2777138352394104 0.4917037785053253
0.370807409286499 0.1504763513803482 0.6584506034851074
0.40514877438545227 0.12139461934566498 0.4856749176979065
0.24935539066791534 0.14970336854457855 0.6174007058143616
0.3497101366519928 0.20463672280311584 0.47657713294029236
0.44161319732666016 0.22875384986400604 0.5437711477279663
0.29247865080833435 0.19529983401298523 0.6498640179634094
0.34766116738319397 0.16211733222007751 0.5737512111663818
0.32471174001693726 0.31307166814804077 0.6129936575889587
0.23432065546512604 0.15509149432182312 0.5873143672943115
0.39559540152549744 0.2175154983997345 0.5816681981086731
0.27151402831077576 0.3049488365650177 0.6485788226127625
0.34188804030418396 0.20981888473033905 0.6655555367469788
0.3837941884994507 0.11700181663036346 0.5569912195205688
0.3271234333515167 0.16563333570957184 0.6240113377571106
0.2851528227329254 0.3106880486011505 0.6002591252326965
0.4116467535495758 0.11831018328666687 0.4902958869934082
0.4391798675060272 0.1766638308763504 0.5169971585273743
0.27889662981033325 0.1724817007780075 0.6093752384185791
0.24427655339241028 0.1510220617055893 0.5610378980636597
0.2519257962703705 0.160312682390213 0.4850190579891205
0.25121310353279114 0.3018941283226013 0.503574013710022
0.3033634424209595 0.19587479531764984 0.5340055227279663
0.3718041479587555 0.1938343495130539 0.6731969118118286
0.2935800850391388 0.11716801673173904 0.5470953583717346
0.31709569692611694 0.17485086619853973 0.5676502585411072
0.34120047092437744 0.23351585865020752 0.5733945965766907
0.30183538794517517 0.1862953007221222 0.5790374875068665
0.3096783757209778 0.2616274952888489 0.46630972623825073
0.34700119495391846 0.28399959206581116 0.5200992822647095
0.3428219258785248 0.19547736644744873 0.5229390263557434
0.4219176471233368 0.12373460084199905 0.6235268712043762
0.26348891854286194 0.16299578547477722 0.6537750959396362
0.4108220338821411 0.2248154729604721 0.641680121421814
0.2619021534919739 0.16204728186130524 0.586334764957428
0.3534809648990631 0.20482900738716125 0.5486464500427246
0.22672535479068756 0.2494204193353653 0.6390172839164734
0.3850041925907135 0.12470989674329758 0.6261851191520691
0.3269796371459961 0.15537935495376587 0.6436044573783875
0.31869304180145264 0.27849629521369934 0.5601285099983215
0.33645910024642944 0.26596057415008545 0.5261749029159546
0.36727142333984375 0.23523376882076263 0.5611801743507385
0.33457034826278687 0.15222160518169403 0.48105084896087646
0.39526572823524475 0.19092470407485962 0.6419963836669922
0.3137815594673157 0.2942999005317688 0.5501881241798401
0.33246341347694397 0.30453920364379883 0.49132952094078064
0.4126863181591034 0.1752951443195343 0.5847260355949402
0.3921412229537964 0.22738848626613617 0.5714167952537537
0.37607136368751526 0.14858241379261017 0.6579726934432983
0.34911537170410156 0.25553643703460693 0.5251545310020447
0.2830662131309509 0.11970450729131699 0.6563976407051086
0.2523438334465027 0.2040432095527649 0.6491820216178894
0.38353943824768066 0.2230697125196457 0.640238881111145
0.2690233588218689 0.19111177325248718 0.546562135219574
0.3839660882949829 0.23559477925300598 0.6542650461196899
0.2500624358654022 0.23575453460216522 0.5019569993019104
0.34726861119270325 0.1578093320131302 0.5712122917175293
0.3229023814201355 0.25815168023109436 0.5512459874153137
0.4005831480026245 0.2957175672054291 0.5429571270942688
0.26033052802085876 0.25790444016456604 0.5329384803771973
0.4334830343723297 0.17486676573753357 0.5231207013130188
0.3830912113189697 0.22448492050170898 0.5611541271209717
0.386822372674942 0.3106297552585602 0.6595697999000549
0.3168315291404724 0.2737323045730591 0.5257953405380249
0.32296866178512573 0.11616285890340805 0.46815112233161926
0.3690100610256195 0.12458446621894836 0.634746789932251
0.3622404932975769 0.23103564977645874 0.5675212740898132
0.4014095366001129 0.16000990569591522 0.6518606543540955
0.40815412998199463 0.16829639673233032 0.6842353343963623
0.23712952435016632 0.27734342217445374 0.5970905423164368
0.3493756651878357 0.27804166078567505 0.48039114475250244
0.34989961981773376 0.20117612183094025 0.6375507116317749
0.2712906301021576 0.20303982496261597 0.6343256235122681
0.28982987999916077 0.19674991071224213 0.5719138383865356
0.2544530928134918 0.23416316509246826 0.5812804698944092
0.37236982583999634 0.14551520347595215 0.48702991008758545
0.2959303855895996 0.20464810729026794 0.5943686366081238
0.3239009976387024 0.13230621814727783 0.5635349750518799
0.39986512064933777 0.19768793880939484 0.5137127637863159
0.3866836726665497 0.1830676943063736 0.6323574781417847
0.2679838538169861 0.13147765398025513 0.4942113757133484
0.27021360397338867 0.17564909160137177 0.572899341583252
0.40947142243385315 0.17480267584323883 0.6017312407493591
0.2719469964504242 0.19016528129577637 0.6503517031669617
0.37936684489250183 0.13077214360237122 0.5132092833518982
0.4139192998409271 0.12822555005550385 0.5955941081047058
0.38577497005462646 0.22522439062595367 0.5135946869850159
0.3980945646762848 0.275667279958725 0.5494607090950012
0.31917375326156616 0.13226135075092316 0.6150650382041931
0.42292457818984985 0.27531173825263977 0.48001760244369507
0.2643570303916931 0.2466188669204712 0.6201847195625305
0.40014761686325073 0.12519149482250214 0.6554277539253235
0.24273833632469177 0.15749144554138184 0.5880880355834961
0.4332003891468048 0.26955583691596985 0.5249367952346802
0.2657964527606964 0.2320377379655838 0.6322564482688904
0.294945627450943 0.26607227325439453 0.6260189414024353
0.35510045289993286 0.20322418212890625 0.6046687364578247
0.36567240953445435 0.2856028378009796 0.6331169009208679
0.29084816575050354 0.28354543447494507 0.6554023027420044
0.2619885802268982 0.2879314422607422 0.4597572982311249
0.4276358187198639 0.2497142255306244 0.4898083209991455
0.3852044641971588 0.19238059222698212 0.5749439001083374
0.43231505155563354 0.2658816874027252 0.5280500054359436
0.38241487741470337 0.253873348236084 0.48730194568634033
0.37515315413475037 0.24045658111572266 0.5378564596176147
0.41720640659332275 0.20039859414100647 0.53339022397995
0.39559394121170044 0.28619635105133057 0.6534250378608704
0.4460936188697815 0.1357647180557251 0.5274013876914978
0.3428803086280823 0.15528270602226257 0.5962293744087219
0.40819934010505676 0.30796751379966736 0.4905146062374115
0.3801957666873932 0.2632165849208832 0.6545888185501099
0.414490282535553 0.27896490693092346 0.4962632656097412
0.38787660002708435 0.264972448348999 0.577653169631958
0.35257425904273987 0.17988933622837067 0.49314671754837036
0.3321240246295929 0.1980002522468567 0.6190909743309021
0.4293353259563446 0.2759632468223572 0.5903091430664062
0.35861873626708984 0.18371757864952087 0.5438372492790222
0.3533232808113098 0.19588369131088257 0.6116142272949219
0.40145349502563477 0.13076899945735931 0.503390908241272
0.4046669900417328 0.1968609094619751 0.633922278881073
0.2532629370689392 0.24810509383678436 0.640105128288269
0.40987685322761536 0.23574277758598328 0.5269835591316223
0.32235077023506165 0.1493808478116989 0.5883276462554932
0.2763007879257202 0.15948869287967682 0.5095627307891846
0.4066394567489624 0.19774654507637024 0.5141867995262146
0.34522244334220886 0.2510325312614441 0.6606465578079224
0.3398626744747162 0.24603715538978577 0.6643785238265991
0.3728226125240326 0.14107953011989594 0.6673763394355774
0.3339585065841675 0.13012701272964478 0.5667961835861206
0.41414231061935425 0.3034726083278656 0.6345018148422241
0.3380011022090912 0.23012155294418335 0.6024010181427002
0.33156275749206543 0.12606915831565857 0.5007219910621643
0.2743239998817444 0.23675374686717987 0.6566676497459412
0.2645375430583954 0.2798457741737366 0.6337302327156067
0.30238020420074463 0.1834903508424759 0.5592418909072876
0.28434714674949646 0.27892425656318665 0.4932657778263092
0.23709708452224731 0.20443934202194214 0.6098824739456177
0.34436458349227905 0.1416788101196289 0.6340214014053345
0.39691248536109924 0.2792109549045563 0.6421396732330322
0.4248434603214264 0.13141915202140808 0.6215808987617493
0.32808127999305725 0.22595790028572083 0.5621719360351562
0.3363863229751587 0.136872798204422 0.5949154496192932
0.31267139315605164 0.13508208096027374 0.6562857627868652
0.22701595723628998 0.2923939824104309 0.6391393542289734
0.3219867944717407 0.18975213170051575 0.5200361013412476
0.3458166718482971 0.21069064736366272 0.6264563202857971
0.2951672673225403 0.17743273079395294 0.5032476186752319
0.43685370683670044 0.12670399248600006 0.5301467180252075
0.3780168890953064 0.30003753304481506 0.4852554500102997
0.35152027010917664 0.18183186650276184 0.5855919718742371
0.4056784510612488 0.22117078304290771 0.6429333090782166
0.2786419093608856 0.30753612518310547 0.5385454297065735
0.3489476442337036 0.1924493908882141 0.5318910479545593
0.367344468832016 0.2232302576303482 0.6586681008338928
0.3677384853363037 0.19445790350437164 0.5030017495155334
0.44531816244125366 0.13389669358730316 0.5531423091888428
0.3229203522205353 0.16884580254554749 0.518526017665863
0.3822592794895172 0.24223725497722626 0.6354067325592041
0.32104891538619995 0.20916400849819183 0.49206697940826416
0.37921297550201416 0.2540726959705353 0.502696692943573
0.39489197731018066 0.22275201976299286 0.4844598174095154
0.32994362711906433 0.11850585788488388 0.5736260414123535
0.2949383854866028 0.25392019748687744 0.5251041054725647
0.3555709719657898 0.20601654052734375 0.5369967222213745
0.25839701294898987 0.171842560172081 0.6520475745201111
0.2945629954338074 0.2951415479183197 0.49727144837379456
0.3393093943595886 0.15599676966667175 0.6011875867843628
0.35525113344192505 0.1770125776529312 0.5163474082946777
0.42551952600479126 0.12404162436723709 0.6251983642578125
0.3336378037929535 0.2553936541080475 0.5469609498977661
0.35151898860931396 0.13558068871498108 0.6024214625358582
0.3231268525123596 0.2815971374511719 0.6288150548934937
0.30411532521247864 0.23636725544929504 0.6551281213760376
0.43032848834991455 0.295492023229599 0.5714252591133118
0.3909893333911896 0.2775796949863434 0.6628119945526123
0.3985164165496826 0.21834859251976013 0.5544772744178772
0.2546556293964386 0.11997769773006439 0.6161210536956787
0.34017670154571533 0.2807161509990692 0.6485030055046082
0.4271322786808014 0.2695513367652893 0.48075100779533386
0.32433053851127625 0.23380209505558014 0.5799851417541504
0.2707147002220154 0.12666654586791992 0.5982944965362549
0.4029134511947632 0.1379486471414566 0.6548129320144653
0.4277333617210388 0.14599041640758514 0.5224667191505432
0.39615145325660706 0.14799709618091583 0.5398807525634766
0.3478964865207672 0.2323131561279297 0.5775536298751831
0.2539259195327759 0.15882070362567902 0.47839510440826416
0.3386659026145935 0.1853240728378296 0.5399297475814819
0.30595290660858154 0.21742823719978333 0.5350701212882996
0.3813696503639221 0.20014621317386627 0.6001965999603271
0.35610678791999817 0.26221197843551636 0.5341628193855286
0.4235316812992096 0.2194976508617401 0.5148954391479492
0.25157079100608826 0.1387718915939331 0.5714337229728699
0.3287745714187622 0.2914714217185974 0.49551326036453247
0.3747665286064148 0.24450254440307617 0.6209537982940674
0.44240880012512207 0.12548764050006866 0.4905555248260498
0.26605290174484253 0.3086591064929962 0.569272518157959
0.31444865465164185 0.14677077531814575 0.4850367307662964
0.28936561942100525 0.19454450905323029 0.645334005355835
0.34920534491539 0.1601167768239975 0.5365180373191833
0.35402071475982666 0.11785433441400528 0.5134527683258057
0.4267721176147461 0.30741754174232483 0.6279038786888123
0.2546067237854004 0.1336727887392044 0.5147338509559631
0.3016451597213745 0.23939993977546692 0.4900478720664978
0.37258392572402954 0.2678498327732086 0.6103874444961548
0.37150177359580994 0.2481553703546524 0.6549553871154785
0.30280131101608276 0.294121116399765 0.5792009830474854
0.38222405314445496 0.11811099201440811 0.6292635798454285
0.2661020755767822 0.13037782907485962 0.5370053648948669
0.2858889698982239 0.2723279893398285 0.4877742826938629
0.39464670419692993 0.28242334723472595 0.4760938286781311
0.4052022397518158 0.18631812930107117 0.5735151767730713
0.2670407295227051 0.22711753845214844 0.4603818953037262
0.3423481285572052 0.21015380322933197 0.6050305962562561
0.2924470007419586 0.2464459091424942 0.6107012033462524
0.23721610009670258 0.2641645669937134 0.6056922078132629
0.42801180481910706 0.27037176489830017 0.6277350783348083
0.36626559495925903 0.19262541830539703 0.6655415892601013
0.3479200303554535 0.2543197572231293 0.5095298290252686
0.4187643229961395 0.19571655988693237 0.5147165060043335
0.29999586939811707 0.15326979756355286 0.46585431694984436
0.3709317743778229 0.211249440908432 0.6672965288162231
0.25108030438423157 0.18765951693058014 0.5081608891487122
0.28579843044281006 0.26916593313217163 0.5142305493354797
0.2962470054626465 0.1186002641916275 0.5474393963813782
0.3787100911140442 0.24737106263637543 0.5906690955162048
0.4294729232788086 0.28559765219688416 0.5635474324226379
0.278978168964386 0.18735742568969727 0.4783710241317749
0.40947142243385315 0.17480267584323883 0.6017312407493591
0.4404471516609192 0.21745823323726654 0.49038490653038025
0.3133472800254822 0.17452803254127502 0.604453444480896
0.43460890650749207 0.2913185954093933 0.5450652241706848
0.40014761686325073 0.12519149482250214 0.6554277539253235
0.24273833632469177 0.15749144554138184 0.5880880355834961
0.4332003891468048 0.26955583691596985 0.5249367952346802
0.2657964527606964 0.2320377379655838 0.6322564482688904
0.294945627450943 0.26607227325439453 0.6260189414024353
0.35510045289993286 0.20322418212890625 0.6046687364578247
0.36567240953445435 0.2856028378009796 0.6331169009208679
0.29084816575050354 0.28354543447494507 0.6554023027420044
0.3375125825405121 0.2183077186346054 0.5849127173423767
0.3971567749977112 0.30074062943458557 0.5335873961448669
0.35903963446617126 0.2638784945011139 0.6279573440551758
0.2473328560590744 0.31162530183792114 0.5629279613494873
0.39795708656311035 0.1405729204416275 0.5206810235977173
0.30210044980049133 0.13086198270320892 0.5281011462211609
0.2889711260795593 0.3051442801952362 0.4627285301685333
0.3955481946468353 0.29078882932662964 0.6183417439460754
0.2561972439289093 0.21073530614376068 0.6252283453941345
0.3037724196910858 0.24698665738105774 0.5156944394111633
0.294607937335968 0.286875456571579 0.5975804924964905
0.3684386909008026 0.18362319469451904 0.6655589938163757
0.3216322064399719 0.1669667661190033 0.5497909188270569
0.2747272551059723 0.13297493755817413 0.5685195922851562
0.36326244473457336 0.20649218559265137 0.5533150434494019
0.2771230936050415 0.20650972425937653 0.6509525775909424
0.43860554695129395 0.2620362937450409 0.5529860854148865
0.3546046018600464 0.19394776225090027 0.5065343379974365
0.3036995232105255 0.19682438671588898 0.5906575322151184
0.3133251965045929 0.255159467458725 0.5731380581855774
0.40219026803970337 0.28420695662498474 0.5075357556343079
0.32296866178512573 0.11616285890340805 0.46815112233161926
0.3690100610256195 0.12458446621894836 0.634746789932251
0.3899706304073334 0.2532460689544678 0.5446434020996094
0.33589115738868713 0.12997066974639893 0.6509986519813538
0.4043625295162201 0.16048160195350647 0.6218947768211365
0.27480679750442505 0.2600988745689392 0.5401627421379089
0.27180391550064087 0.21553748846054077 0.6528018712997437
0.356801301240921 0.3118302822113037 0.6110772490501404
0.4073506295681 0.2949911952018738 0.4935215711593628
0.4121689200401306 0.2800529897212982 0.5521222949028015
0.40070679783821106 0.22333034873008728 0.5431891679763794
0.2991786003112793 0.1650836020708084 0.6536198258399963
0.28920266032218933 0.16330502927303314 0.5882582068443298
0.2525591552257538 0.1399800330400467 0.5726282596588135
0.2804834544658661 0.1186717078089714 0.5277491211891174
0.425506591796875 0.30178579688072205 0.5566611886024475
0.3706759214401245 0.2330019474029541 0.5187158584594727
0.32466262578964233 0.1215246245265007 0.6672988533973694
0.23721610009670258 0.2641645669937134 0.6056922078132629
0.42801180481910706 0.27037176489830017 0.6277350783348083
0.36626559495925903 0.19262541830539703 0.6655415892601013
0.3479200303554535 0.2543197572231293 0.5095298290252686
0.4187643229961395 0.19571655988693237 0.5147165060043335
0.29999586939811707 0.15326979756355286 0.46585431694984436
0.3709317743778229 0.211249440908432 0.6672965288162231
0.25108030438423157 0.18765951693058014 0.5081608891487122
0.28579843044281006 0.26916593313217163 0.5142305493354797
0.2962470054626465 0.1186002641916275 0.5474393963813782
0.3787100911140442 0.24737106263637543 0.5906690955162048
0.4294729232788086 0.28559765219688416 0.5635474324226379
0.278978168964386 0.18735742568969727 0.4783710241317749
0.41524943709373474 0.26444941759109497 0.5301746129989624
0.4018833041191101 0.16557829082012177 0.6473856568336487
0.22766242921352386 0.2869274616241455 0.6446162462234497
0.2430635243654251 0.14671258628368378 0.6301453113555908
0.32525160908699036 0.27922555804252625 0.5537928938865662
0.429705947637558 0.26056987047195435 0.5388277173042297
0.32238686084747314 0.1287623643875122 0.5360842347145081
0.2832782566547394 0.2974025309085846 0.48636046051979065
0.3196497857570648 0.1928751915693283 0.6059097051620483
0.3117612600326538 0.27911683917045593 0.6448407769203186
0.31818079948425293 0.17495521903038025 0.5309179425239563
0.32340380549430847 0.2701756954193115 0.6500678062438965
0.28920313715934753 0.173520028591156 0.5695829391479492
0.40994030237197876 0.22459740936756134 0.5938817262649536
0.28689274191856384 0.29201099276542664 0.5028122067451477
0.23721610009670258 0.2641645669937134 0.6056922078132629
0.42801180481910706 0.27037176489830017 0.6277350783348083
0.36626559495925903 0.19262541830539703 0.6655415892601013
0.3479200303554535 0.2543197572231293 0.5095298290252686
0.4187643229961395 0.19571655988693237 0.5147165060043335
0.29999586939811707 0.15326979756355286 0.46585431694984436
0.3709317743778229 0.211249440908432 0.6672965288162231
0.25108030438423157 0.18765951693058014 0.5081608891487122
0.28579843044281006 0.26916593313217163 0.5142305493354797
0.2962470054626465 0.1186002641916275 0.5474393963813782
0.3787100911140442 0.24737106263637543 0.5906690955162048
0.4294729232788086 0.28559765219688416 0.5635474324226379
0.278978168964386 0.18735742568969727 0.4783710241317749
0.35452598333358765 0.19750842452049255 0.5063236355781555
0.42398250102996826 0.2151295244693756 0.5788069367408752
0.2591243386268616 0.14364007115364075 0.6259649395942688
0.4363623559474945 0.2844253480434418 0.5393435955047607
0.2535769045352936 0.29812854528427124 0.49889397621154785
0.4056784510612488 0.22117078304290771 0.6429333090782166
0.2786419093608856 0.30753612518310547 0.5385454297065735
0.3489476442337036 0.1924493908882141 0.5318910479545593
0.367344468832016 0.2232302576303482 0.6586681008338928
0.3677384853363037 0.19445790350437164 0.5030017495155334
0.44531816244125366 0.13389669358730316 0.5531423091888428
0.3229203522205353 0.16884580254554749 0.518526017665863
0.32568031549453735 0.294526070356369 0.6021746397018433
0.2600412666797638 0.11841780692338943 0.5220628976821899
0.33317339420318604 0.14671112596988678 0.5930767059326172
0.40074068307876587 0.16723757982254028 0.6045375466346741
0.4112313389778137 0.11974502354860306 0.6051650047302246
0.37342843413352966 0.2089461088180542 0.5172915458679199
0.41935303807258606 0.277025431394577 0.5194317698478699
0.4468405842781067 0.2710537612438202 0.5111146569252014
0.3239155411720276 0.271245539188385 0.5008407235145569
0.3343431353569031 0.21976113319396973 0.6120193600654602
0.3340688645839691 0.24144992232322693 0.4850977063179016
0.2417638748884201 0.1878647357225418 0.6072341203689575
0.23939906060695648 0.30638760328292847 0.5751646161079407
0.43978455662727356 0.12562808394432068 0.5161408185958862
0.3600122034549713 0.2766871154308319 0.6624600291252136
0.2589832544326782 0.24460019171237946 0.4965910315513611
0.4080582559108734 0.18205222487449646 0.5426943302154541
0.259565532207489 0.1915704905986786 0.6094419360160828
0.3592342734336853 0.19499722123146057 0.5605720281600952
0.3180006742477417 0.1494123786687851 0.5225012302398682
0.3580065965652466 0.24603362381458282 0.4767282009124756
0.34777045249938965 0.31198355555534363 0.6326588988304138
0.291843056678772 0.2308097779750824 0.5532732605934143
0.34115028381347656 0.2182978093624115 0.5254184603691101
0.24273833632469177 0.15749144554138184 0.5880880355834961
0.4046669900417328 0.1968609094619751 0.633922278881073
0.2532629370689392 0.24810509383678436 0.640105128288269
0.40987685322761536 0.23574277758598328 0.5269835591316223
0.32235077023506165 0.1493808478116989 0.5883276462554932
0.2763007879257202 0.15948869287967682 0.5095627307891846
0.4066394567489624 0.19774654507637024 0.5141867995262146
0.34522244334220886 0.2510325312614441 0.6606465578079224
0.3398626744747162 0.24603715538978577 0.6643785238265991
0.41414231061935425 0.3034726083278656 0.6345018148422241
0.27761876583099365 0.18579447269439697 0.5219882726669312
0.26115161180496216 0.14802630245685577 0.6436256170272827
0.4125463664531708 0.17663057148456573 0.6718388795852661
0.3259502351284027 0.2321765273809433 0.5916388630867004
0.4000170826911926 0.2929328382015228 0.5315499901771545
0.4205878674983978 0.3091825246810913 0.599131166934967
0.42227795720100403 0.1690879613161087 0.5620899796485901
0.24711285531520844 0.1308053731918335 0.5182477831840515
0.43978455662727356 0.12562808394432068 0.5161408185958862
0.3600122034549713 0.2766871154308319 0.6624600291252136
0.2589832544326782 0.24460019171237946 0.4965910315513611
0.3773164451122284 0.14668859541416168 0.5209646821022034
0.3156678080558777 0.13214011490345 0.572273313999176
0.4272841513156891 0.28332221508026123 0.5545313954353333
0.2573951184749603 0.1854901760816574 0.5844648480415344
0.35008499026298523 0.26676419377326965 0.5314816832542419
0.3988250195980072 0.16798746585845947 0.566153883934021
0.4165969789028168 0.23547396063804626 0.6811695098876953
0.34115028381347656 0.2182978093624115 0.5254184603691101
0.3402402997016907 0.1307435929775238 0.6165302395820618
0.3509508967399597 0.2652115821838379 0.5650014281272888
0.3012806475162506 0.2239399403333664 0.5611375570297241
0.4332003891468048 0.26955583691596985 0.5249367952346802
0.2532629370689392 0.24810509383678436 0.640105128288269
0.40987685322761536 0.23574277758598328 0.5269835591316223
0.32235077023506165 0.1493808478116989 0.5883276462554932
0.2763007879257202 0.15948869287967682 0.5095627307891846
0.4066394567489624 0.19774654507637024 0.5141867995262146
0.34522244334220886 0.2510325312614441 0.6606465578079224
0.2878599464893341 0.12637189030647278 0.4901660978794098
0.27761876583099365 0.18579447269439697 0.5219882726669312
0.26115161180496216 0.14802630245685577 0.6436256170272827
0.4125463664531708 0.17663057148456573 0.6718388795852661
0.2754710912704468 0.131872296333313 0.6059175729751587
0.3189912736415863 0.17165295779705048 0.502711296081543
0.24720554053783417 0.134564608335495 0.6345846652984619
0.43978455662727356 0.12562808394432068 0.5161408185958862
0.3600122034549713 0.2766871154308319 0.6624600291252136
0.2589832544326782 0.24460019171237946 0.4965910315513611
0.4080582559108734 0.18205222487449646 0.5426943302154541
0.4080583453178406 0.18205222487449646 0.5426944494247437
0.4272841513156891 0.28332221508026123 0.5545313954353333
0.2573951184749603 0.1854901760816574 0.5844648480415344
0.35008499026298523 0.26676419377326965 0.5314816832542419
0.24999812245368958 0.23477859795093536 0.591538667678833
0.34777045249938965 0.31198355555534363 0.6326588988304138
0.4165969789028168 0.23547396063804626 0.6811695098876953
0.2959895431995392 0.11898781359195709 0.6021886467933655
0.3402402997016907 0.1307435929775238 0.6165302395820618
0.3012806475162506 0.2239399403333664 0.5611375570297241
0.42884477972984314 0.18683473765850067 0.5366739630699158
0.3317352533340454 0.18897958099842072 0.5076838135719299
0.42714017629623413 0.2086457908153534 0.5121592283248901
0.30698299407958984 0.30722203850746155 0.5212570428848267
0.3971567749977112 0.30074062943458557 0.5335873961448669
0.37164559960365295 0.2932915985584259 0.5742013454437256
0.3304958939552307 0.27674785256385803 0.5816148519515991
0.34407758712768555 0.24205121397972107 0.6093317866325378
0.24998603761196136 0.22317339479923248 0.5517005324363708
0.261099249124527 0.2374674677848816 0.48522329330444336
0.31568601727485657 0.24279649555683136 0.6374244093894958
0.3158963620662689 0.3060603737831116 0.6028249859809875
0.4345429241657257 0.2048005908727646 0.5137698650360107
0.27835360169410706 0.2924923002719879 0.4758971631526947
0.27925175428390503 0.1292739361524582 0.5150819420814514
0.2681093215942383 0.21316607296466827 0.5352405309677124
0.42897915840148926 0.19244903326034546 0.5643218755722046
0.38244640827178955 0.20677264034748077 0.5564993023872375
0.42416447401046753 0.14257287979125977 0.6214068531990051
0.3569954037666321 0.2521819770336151 0.6610537767410278
0.27898332476615906 0.203190878033638 0.5661465525627136
0.2606782913208008 0.20768703520298004 0.5108970999717712
0.3400413691997528 0.12430991977453232 0.6112530827522278
0.3875725567340851 0.14699308574199677 0.5850389003753662
0.2715980112552643 0.1534242033958435 0.6345279812812805
0.4002368450164795 0.14705249667167664 0.5075170993804932
0.3356427550315857 0.18919530510902405 0.6203616857528687
0.3665187358856201 0.30174463987350464 0.5850499272346497
0.4363316297531128 0.11708908528089523 0.5441719889640808
0.31204092502593994 0.1436377614736557 0.583027184009552
0.29192036390304565 0.15440598130226135 0.5370745062828064
0.3263993263244629 0.1453086882829666 0.6626558303833008
0.37878939509391785 0.26398247480392456 0.6567902565002441
0.2750716209411621 0.17591102421283722 0.5811556577682495
0.27400991320610046 0.3115539848804474 0.5744116306304932
0.2733612656593323 0.14803668856620789 0.6409059166908264
0.2532629370689392 0.24810509383678436 0.640105128288269
0.25209829211235046 0.1383541077375412 0.5480054616928101
0.3198772966861725 0.21058328449726105 0.4905478358268738
0.30581778287887573 0.12418602406978607 0.5518366098403931
0.267719566822052 0.3012373745441437 0.4563024938106537
0.32609355449676514 0.21766820549964905 0.4975391626358032
0.36060217022895813 0.21559515595436096 0.5462740063667297
0.42085403203964233 0.16986513137817383 0.5574272274971008
0.4327673614025116 0.13651041686534882 0.5618038177490234
0.3060893714427948 0.2769017219543457 0.5986520051956177
0.3785419464111328 0.2550261914730072 0.5687549710273743
0.276418536901474 0.2373310774564743 0.5657570958137512
0.4538452625274658 0.1657017469406128 0.4940040707588196
0.34948670864105225 0.1254441738128662 0.5944122076034546
0.3298655152320862 0.15642483532428741 0.6628071069717407
0.35566043853759766 0.2656071186065674 0.5664623379707336
0.40807706117630005 0.2727877199649811 0.6368895173072815
0.3263876140117645 0.15792694687843323 0.5609304904937744
0.4012084901332855 0.15314070880413055 0.5689387321472168
0.24377085268497467 0.17406757175922394 0.559514582157135
0.28390631079673767 0.3118317127227783 0.6311222314834595
0.3757670521736145 0.23252546787261963 0.5212225317955017
0.4036691188812256 0.23143413662910461 0.6461130976676941
0.30825075507164 0.27673742175102234 0.6458398699760437
0.25170400738716125 0.25259116291999817 0.5295454263687134
0.38752999901771545 0.16672761738300323 0.6708651781082153
0.27214351296424866 0.31007736921310425 0.5835070013999939
0.36975523829460144 0.2365015745162964 0.6592061519622803
0.3921267092227936 0.23989111185073853 0.5746355056762695
0.2904437184333801 0.25038161873817444 0.49482816457748413
0.2553476095199585 0.24885781109333038 0.6074369549751282
0.38017117977142334 0.26166120171546936 0.6274428367614746
0.42398250102996826 0.2151295244693756 0.5788069367408752
0.4170475900173187 0.2157682180404663 0.5871719717979431
0.3144133985042572 0.17339149117469788 0.625184953212738
0.37164559960365295 0.2932915985584259 0.5742013454437256
0.3304958939552307 0.27674785256385803 0.5816148519515991
0.34407758712768555 0.24205121397972107 0.6093317866325378
0.24998603761196136 0.22317339479923248 0.5517005324363708
0.261099249124527 0.2374674677848816 0.48522329330444336
0.31568601727485657 0.24279649555683136 0.6374244093894958
0.3158963620662689 0.3060603737831116 0.6028249859809875
0.4345429241657257 0.2048005908727646 0.5137698650360107
0.27835360169410706 0.2924923002719879 0.4758971631526947
0.27925175428390503 0.1292739361524582 0.5150819420814514
0.2681093215942383 0.21316607296466827 0.5352405309677124
0.42897915840148926 0.19244903326034546 0.5643218755722046
0.3663955628871918 0.19235894083976746 0.6579785943031311
0.4151095449924469 0.2516305446624756 0.6208948493003845
0.2641431391239166 0.15739093720912933 0.6548976898193359
0.37986651062965393 0.15135949850082397 0.5890596508979797
0.2936360538005829 0.12333013862371445 0.46899667382240295
0.2607523500919342 0.30893880128860474 0.5641218423843384
0.43530040979385376 0.12209832668304443 0.5103033781051636
0.3258155882358551 0.24275055527687073 0.5186070799827576
0.3784783184528351 0.21605291962623596 0.6344005465507507
0.3911118507385254 0.22136040031909943 0.4789414405822754
0.25915947556495667 0.25950318574905396 0.618922770023346
0.2836061418056488 0.30761969089508057 0.4605804681777954
0.2663961946964264 0.2792280912399292 0.6085865497589111
0.4425755441188812 0.12869109213352203 0.5380470752716064
0.2866554260253906 0.14613409340381622 0.4697614014148712
0.278720498085022 0.26811733841896057 0.6297978758811951
0.3606778085231781 0.15932872891426086 0.5882042646408081
0.2591243386268616 0.14364007115364075 0.6259649395942688
0.42085403203964233 0.16986513137817383 0.5574272274971008
0.4327673614025116 0.13651041686534882 0.5618038177490234
0.3060893714427948 0.2769017219543457 0.5986520051956177
0.3785419464111328 0.2550261914730072 0.5687549710273743
0.276418536901474 0.2373310774564743 0.5657570958137512
0.4538452625274658 0.1657017469406128 0.4940040707588196
0.34948670864105225 0.1254441738128662 0.5944122076034546
0.3298655152320862 0.15642483532428741 0.6628071069717407
0.35566043853759766 0.2656071186065674 0.5664623379707336
0.3723604083061218 0.26095691323280334 0.518499493598938
0.4080125689506531 0.273051381111145 0.6365873217582703
0.32649004459381104 0.1217620000243187 0.5622787475585938
0.41725635528564453 0.1581449955701828 0.6842452883720398
0.3672967851161957 0.20997099578380585 0.5795916318893433
0.29609769582748413 0.2812124490737915 0.5221436023712158
0.28065818548202515 0.29358604550361633 0.493931382894516
0.2730301320552826 0.14134539663791656 0.5791111588478088
0.4036691188812256 0.23143413662910461 0.6461130976676941
0.30825075507164 0.27673742175102234 0.6458398699760437
0.25170400738716125 0.25259116291999817 0.5295454263687134
0.38752999901771545 0.16672761738300323 0.6708651781082153
0.27214351296424866 0.31007736921310425 0.5835070013999939
0.36975523829460144 0.2365015745162964 0.6592061519622803
0.3921267092227936 0.23989111185073853 0.5746355056762695
0.3671685755252838 0.1496717482805252 0.6148917078971863
0.2660480737686157 0.22477692365646362 0.6292970776557922
0.2553476095199585 0.24885781109333038 0.6074369549751282
0.38017117977142334 0.26166120171546936 0.6274428367614746
0.2684735953807831 0.16816654801368713 0.6390190720558167
0.23215487599372864 0.2965754270553589 0.6430771946907043
0.24393415451049805 0.19800594449043274 0.5419877171516418
0.4294729232788086 0.28559765219688416 0.5635474324226379
0.42085403203964233 0.16986513137817383 0.5574272274971008
0.3785419464111328 0.2550261914730072 0.5687549710273743
0.276418536901474 0.2373310774564743 0.5657570958137512
0.4538452625274658 0.1657017469406128 0.4940040707588196
0.34948670864105225 0.1254441738128662 0.5944122076034546
0.3298655152320862 0.15642483532428741 0.6628071069717407
0.3723604083061218 0.26095691323280334 0.518499493598938
0.4080125689506531 0.273051381111145 0.6365873217582703
0.32649004459381104 0.1217620000243187 0.5622787475585938
0.41725635528564453 0.1581449955701828 0.6842452883720398
0.3672967851161957 0.20997099578380585 0.5795916318893433
0.29609769582748413 0.2812124490737915 0.5221436023712158
0.28065818548202515 0.29358604550361633 0.493931382894516
0.2730301320552826 0.14134539663791656 0.5791111588478088
0.41613608598709106 0.23500637710094452 0.564186155796051
0.24898573756217957 0.23788325488567352 0.5484957098960876
0.3024766147136688 0.13717249035835266 0.6607831120491028
0.3570500910282135 0.17678864300251007 0.6001013517379761
0.2743847072124481 0.11958296597003937 0.5456413626670837
0.286673367023468 0.223343625664711 0.5970544219017029
0.40574395656585693 0.23133055865764618 0.6576356291770935
0.32470837235450745 0.21817317605018616 0.5660080313682556
0.43997424840927124 0.23901982605457306 0.5488726496696472
0.2553476095199585 0.24885781109333038 0.6074369549751282
0.38017117977142334 0.26166120171546936 0.6274428367614746
0.2684735953807831 0.16816654801368713 0.6390190720558167
0.23215487599372864 0.2965754270553589 0.6430771946907043
0.24393415451049805 0.19800594449043274 0.5419877171516418
0.3857625722885132 0.2538030743598938 0.5241366028785706
0.4404294788837433 0.14348599314689636 0.5708947777748108
0.3314927816390991 0.21291255950927734 0.6531190276145935
0.2711578905582428 0.15789468586444855 0.4607887864112854
0.3158963620662689 0.3060603737831116 0.6028249859809875
0.4345429241657257 0.2048005908727646 0.5137698650360107
0.27835360169410706 0.2924923002719879 0.4758971631526947
0.27925175428390503 0.1292739361524582 0.5150819420814514
0.2681093215942383 0.21316607296466827 0.5352405309677124
0.42897915840148926 0.19244903326034546 0.5643218755722046
0.38244640827178955 0.20677264034748077 0.5564993023872375
0.42416447401046753 0.14257287979125977 0.6214068531990051
0.3569954037666321 0.2521819770336151 0.6610537767410278
0.40882039070129395 0.14394138753414154 0.5349750518798828
0.27530890703201294 0.25386905670166016 0.6165111064910889
0.40102851390838623 0.21107390522956848 0.6409699320793152
0.39484408497810364 0.1561679095029831 0.4992035925388336
0.37265339493751526 0.1188025027513504 0.5520374178886414
0.2696952819824219 0.18339677155017853 0.47856026887893677
0.29977861046791077 0.16093595325946808 0.48433494567871094
0.29424867033958435 0.18319673836231232 0.6158096194267273
0.4162146747112274 0.21682505309581757 0.5741702914237976
0.3879910409450531 0.23834694921970367 0.5314303040504456
0.2973731458187103 0.3053087890148163 0.5589077472686768
0.3415096700191498 0.24103127419948578 0.5299522876739502
0.33313116431236267 0.21943390369415283 0.5209871530532837
0.408367395401001 0.25429317355155945 0.5083916783332825
0.31723788380622864 0.12493138015270233 0.5927901864051819
0.3903026580810547 0.26269811391830444 0.5520797967910767
0.27433547377586365 0.29106539487838745 0.48254501819610596
0.22176077961921692 0.1206817626953125 0.646925687789917
0.3749459981918335 0.16851314902305603 0.6674746870994568
0.40426337718963623 0.2700009047985077 0.6092504262924194
0.36739009618759155 0.1473899930715561 0.6550166010856628
0.25730374455451965 0.18610462546348572 0.5849702954292297
0.35452598333358765 0.19750842452049255 0.5063236355781555
0.38244640827178955 0.20677264034748077 0.5564993023872375
0.42416447401046753 0.14257287979125977 0.6214068531990051
0.3569954037666321 0.2521819770336151 0.6610537767410278
0.27898332476615906 0.203190878033638 0.5661465525627136
0.2606782913208008 0.20768703520298004 0.5108970999717712
0.3400413691997528 0.12430991977453232 0.6112530827522278
0.3875725567340851 0.14699308574199677 0.5850389003753662
0.2715980112552643 0.1534242033958435 0.6345279812812805
0.4002368450164795 0.14705249667167664 0.5075170993804932
0.3356427550315857 0.18919530510902405 0.6203616857528687
0.3665187358856201 0.30174463987350464 0.5850499272346497
0.4363316297531128 0.11708908528089523 0.5441719889640808
0.31204092502593994 0.1436377614736557 0.583027184009552
0.29192036390304565 0.15440598130226135 0.5370745062828064
0.34143829345703125 0.1429671198129654 0.5893242955207825
0.3043111562728882 0.28253981471061707 0.47225281596183777
0.25365182757377625 0.2877521812915802 0.612828254699707
0.40539905428886414 0.1670023798942566 0.5486333966255188
0.2914089560508728 0.29565343260765076 0.5200634002685547
0.37283599376678467 0.19731861352920532 0.5966879725456238
0.27482637763023376 0.22474882006645203 0.6360146403312683
0.26321738958358765 0.27005699276924133 0.48490872979164124
0.26190921664237976 0.30670565366744995 0.4855514168739319
0.24794749915599823 0.20312517881393433 0.5741890668869019
0.4224148988723755 0.1724785417318344 0.5244848132133484
0.3012884259223938 0.20957869291305542 0.6593080759048462
0.33084985613822937 0.2405014932155609 0.6237836480140686
0.36759695410728455 0.20894023776054382 0.5597584843635559
0.37657037377357483 0.16430334746837616 0.5005688667297363
0.4113420248031616 0.22583217918872833 0.6487740278244019
0.35758620500564575 0.1898387372493744 0.5563831925392151
0.35452598333358765 0.19750842452049255 0.5063236355781555
0.3494237959384918 0.1596848964691162 0.6118638515472412
0.23702901601791382 0.2009088695049286 0.5850405097007751
0.28788840770721436 0.1314619928598404 0.5700174570083618
0.27244091033935547 0.305448055267334 0.5748314261436462
0.4293351471424103 0.12459929287433624 0.5976639986038208
0.3747285008430481 0.19687597453594208 0.5348714590072632
0.4094855785369873 0.30561184883117676 0.5103376507759094
0.2458583563566208 0.17665576934814453 0.5782766938209534
0.41244274377822876 0.1516098976135254 0.6499210596084595
0.3606778085231781 0.15932872891426086 0.5882042646408081
0.3073587417602539 0.23725156486034393 0.6611216068267822
0.326962947845459 0.26183784008026123 0.4744457006454468
0.40343526005744934 0.2577815353870392 0.6626932621002197
0.4068295359611511 0.1313764899969101 0.6110584735870361
0.42511531710624695 0.20076864957809448 0.6493834853172302
0.3089146614074707 0.3103072941303253 0.6499911546707153
0.3493099808692932 0.1317034810781479 0.5684611201286316
0.360400527715683 0.17913846671581268 0.6254462599754333
0.4471069574356079 0.20665289461612701 0.48894092440605164
0.3142876625061035 0.21043264865875244 0.6554152965545654
0.38096410036087036 0.16265206038951874 0.5717658996582031
0.42263031005859375 0.20593419671058655 0.6089443564414978
0.4307357966899872 0.3009129464626312 0.5222895741462708
0.36616694927215576 0.1338655948638916 0.5686946511268616
0.2787929177284241 0.11823385953903198 0.5455859899520874
0.4283195436000824 0.1562938392162323 0.6237270832061768
0.384025514125824 0.1706327348947525 0.6653738021850586
0.3570908010005951 0.14892351627349854 0.4867987334728241
0.34740567207336426 0.1436663269996643 0.5850552916526794
0.3109223544597626 0.21181310713291168 0.6071977615356445
0.4083990752696991 0.1232166513800621 0.5696924328804016
0.42398250102996826 0.2151295244693756 0.5788069367408752
0.26093780994415283 0.29302045702934265 0.6072173118591309
0.2640366554260254 0.25135594606399536 0.5438405275344849
0.2744954824447632 0.23242411017417908 0.5901311039924622
0.40216320753097534 0.14370159804821014 0.5359387993812561
0.3075306713581085 0.21323244273662567 0.5005245208740234
0.37729987502098083 0.301516056060791 0.48064476251602173
0.3127385377883911 0.21479131281375885 0.5975247025489807
0.3767485022544861 0.29460254311561584 0.5372969508171082
0.2926460802555084 0.13360914587974548 0.5133780241012573
0.2666078209877014 0.19874966144561768 0.491834819316864
0.4378364682197571 0.29423806071281433 0.5295937061309814
0.32762739062309265 0.11878667026758194 0.5321876406669617
0.27384620904922485 0.19803324341773987 0.619163990020752
0.3644900619983673 0.2677803337574005 0.5729089379310608
0.32583707571029663 0.20092856884002686 0.6505835652351379
0.3962043821811676 0.3018200695514679 0.5725040435791016
0.33007898926734924 0.2446208894252777 0.5773301124572754
0.2986848056316376 0.266983300447464 0.6499754190444946
0.2986021339893341 0.23920917510986328 0.5939640402793884
0.26059481501579285 0.16503594815731049 0.49150460958480835
0.28803375363349915 0.2041546255350113 0.5478624701499939
0.27404123544692993 0.30513179302215576 0.6179386973381042
0.3620775640010834 0.20130033791065216 0.4928966164588928
0.3334178924560547 0.19289954006671906 0.6302103996276855
0.318695604801178 0.19775088131427765 0.6493450403213501
0.2974783480167389 0.3105389177799225 0.6286752820014954
0.3320235311985016 0.29892608523368835 0.5835177898406982
0.4148532748222351 0.2226232886314392 0.660735011100769
0.35750728845596313 0.2359645962715149 0.6475828289985657
0.3032386600971222 0.20754796266555786 0.5268839001655579
0.36786291003227234 0.13648247718811035 0.6588854193687439
0.3509508967399597 0.2652115821838379 0.5650014281272888
0.31076714396476746 0.15167026221752167 0.5847020745277405
0.39259350299835205 0.224958136677742 0.6769304871559143
0.40686848759651184 0.2793947458267212 0.5353819727897644
0.30593544244766235 0.25971925258636475 0.4923180043697357
0.26593026518821716 0.20212945342063904 0.5734865069389343
0.43565085530281067 0.15783393383026123 0.5477059483528137
0.28637394309043884 0.1778380423784256 0.6452819108963013
0.3958604633808136 0.20519956946372986 0.6624953746795654
0.28999465703964233 0.21369457244873047 0.5932074189186096
0.3160068094730377 0.2375984936952591 0.652614951133728
0.24703086912631989 0.13221238553524017 0.5488365888595581
0.35300296545028687 0.1756734848022461 0.5647030472755432
0.402706116437912 0.24725541472434998 0.5571915507316589
0.3020377457141876 0.27499955892562866 0.48809105157852173
0.2753368020057678 0.2907690703868866 0.4569668471813202
0.34487760066986084 0.16048556566238403 0.4900309145450592
0.440481573343277 0.2530095875263214 0.49962764978408813
0.40382620692253113 0.19469007849693298 0.5916302800178528
0.3382951617240906 0.14300931990146637 0.6647355556488037
0.2781943678855896 0.15470801293849945 0.49112728238105774
0.3428089916706085 0.2286802977323532 0.5565458536148071
0.4324953854084015 0.25032398104667664 0.5296582579612732
0.28475770354270935 0.1835341453552246 0.6423893570899963
0.36557313799858093 0.11780606210231781 0.5352650284767151
0.2843586802482605 0.1676025390625 0.47935181856155396
0.37115785479545593 0.2756226658821106 0.5015133619308472
0.32992175221443176 0.22230641543865204 0.465793251991272
0.2727707326412201 0.17577894032001495 0.5952691435813904
0.34688347578048706 0.30210795998573303 0.5601099729537964
0.4094128906726837 0.27285832166671753 0.5078787207603455
0.245106503367424 0.1257668137550354 0.6146225333213806
0.3012806475162506 0.2239399403333664 0.5611375570297241
0.42897915840148926 0.19244903326034546 0.5643218755722046
0.38244640827178955 0.20677264034748077 0.5564993023872375
0.42416447401046753 0.14257287979125977 0.6214068531990051
0.42416447401046753 0.14257287979125977 0.6214068531990051
0.3569954037666321 0.2521819770336151 0.6610537767410278
0.27898332476615906 0.203190878033638 0.5661465525627136
0.2715980112552643 0.1534242033958435 0.6345279812812805
0.4002368450164795 0.14705249667167664 0.5075170993804932
0.3356427550315857 0.18919530510902405 0.6203616857528687
0.3665187358856201 0.30174463987350464 0.5850499272346497
0.3665187358856201 0.30174463987350464 0.5850499272346497
0.4363316297531128 0.11708908528089523 0.5441719889640808
0.31204092502593994 0.1436377614736557 0.583027184009552
0.2980670630931854 0.28709179162979126 0.5978720784187317
0.3378845453262329 0.14876779913902283 0.6493204832077026
0.2618541717529297 0.15950854122638702 0.6454173922538757
0.2802194654941559 0.22387196123600006 0.5191412568092346
0.3248818516731262 0.29417484998703003 0.5681909918785095
0.4205375611782074 0.15774841606616974 0.5876573324203491
0.32237038016319275 0.2552701532840729 0.5199040770530701
0.4068295359611511 0.1313764899969101 0.6110584735870361
0.4448848366737366 0.30836474895477295 0.5348464846611023
0.4511023163795471 0.194649800658226 0.500953733921051
0.24787698686122894 0.2950854003429413 0.6323757171630859
0.3279372453689575 0.20083004236221313 0.5140332579612732
0.3037300109863281 0.1235634982585907 0.6519307494163513
0.2843586802482605 0.1676025390625 0.47935181856155396
0.37115785479545593 0.2756226658821106 0.5015133619308472
0.32992175221443176 0.22230641543865204 0.465793251991272
0.2727707326412201 0.17577894032001495 0.5952691435813904
0.34688347578048706 0.30210795998573303 0.5601099729537964
0.42085403203964233 0.16986513137817383 0.5574272274971008
0.30895835161209106 0.1750875860452652 0.6265251040458679
0.3991088569164276 0.11749165505170822 0.631488561630249
0.29922932386398315 0.18939624726772308 0.47015348076820374
0.2703242599964142 0.2955830693244934 0.5752604007720947
0.28411805629730225 0.11781739443540573 0.47987818717956543
0.38757798075675964 0.201401486992836 0.5680436491966248
0.36092349886894226 0.1483195573091507 0.6381373405456543
0.44060924649238586 0.2659427523612976 0.5236095190048218
0.3146555721759796 0.1766817271709442 0.5894021987915039
0.3267650902271271 0.17283208668231964 0.6469511389732361
0.4082876741886139 0.2266978770494461 0.6683053374290466
0.3654542863368988 0.1981201469898224 0.5869747400283813
0.3160307705402374 0.13637369871139526 0.5144491195678711
0.3541387915611267 0.18123191595077515 0.5072199106216431
0.32489272952079773 0.12024804949760437 0.5856710076332092
0.31964626908302307 0.1784929484128952 0.5685420632362366
0.28125888109207153 0.161520853638649 0.5259858965873718
0.3873840272426605 0.17908167839050293 0.6783690452575684
0.4315354526042938 0.20853866636753082 0.5876376032829285
0.4096224904060364 0.2762378454208374 0.6330254673957825
0.38233086466789246 0.29381370544433594 0.5755846500396729
0.33621469140052795 0.15447990596294403 0.6446317434310913
0.25957369804382324 0.22543330490589142 0.5755401253700256
